ply
format ascii 1.0
comment VCGLIB generated
element vertex 1660
property float x
property float y
property float z
property float nx
property float ny
property float nz
element face 0
property list uchar int vertex_indices
end_header
853.0315 934.8274 -86 0 0 0 
852.7726 935.7933 -86 0 0 0 
852.5138 936.7593 -86 0 0 0 
852.255 937.7251 -86 0 0 0 
851.9962 938.6912 -86 0 0 0 
867.2665 881.7014 -85 0 0 0 
867.0077 882.6675 -85 0 0 0 
866.7489 883.6333 -85 0 0 0 
866.4901 884.5992 -85 0 0 0 
866.2312 885.5652 -85 0 0 0 
865.9724 886.5311 -85 0 0 0 
865.7136 887.4971 -85 0 0 0 
865.4548 888.4629 -85 0 0 0 
865.1959 889.429 -85 0 0 0 
864.9371 890.3948 -85 0 0 0 
864.6783 891.3607 -85 0 0 0 
864.4195 892.3267 -85 0 0 0 
864.1607 893.2926 -85 0 0 0 
863.9019 894.2585 -85 0 0 0 
863.6431 895.2244 -85 0 0 0 
863.3842 896.1904 -85 0 0 0 
863.1254 897.1562 -85 0 0 0 
862.8666 898.1222 -85 0 0 0 
862.6078 899.0881 -85 0 0 0 
862.3489 900.0541 -85 0 0 0 
862.0901 901.02 -85 0 0 0 
861.8313 901.9858 -85 0 0 0 
861.5725 902.9519 -85 0 0 0 
861.3137 903.9177 -85 0 0 0 
861.0549 904.8838 -85 0 0 0 
860.796 905.8496 -85 0 0 0 
860.5372 906.8156 -85 0 0 0 
860.2784 907.7815 -85 0 0 0 
860.0196 908.7473 -85 0 0 0 
859.7607 909.7134 -85 0 0 0 
859.502 910.6792 -85 0 0 0 
859.2431 911.6453 -85 0 0 0 
858.9843 912.6111 -85 0 0 0 
858.7255 913.577 -85 0 0 0 
858.4667 914.543 -85 0 0 0 
858.2078 915.5089 -85 0 0 0 
857.949 916.4749 -85 0 0 0 
857.6902 917.4407 -85 0 0 0 
857.4314 918.4067 -85 0 0 0 
854.5844 929.0319 -85 0 0 0 
854.3256 929.9978 -85 0 0 0 
854.0668 930.9636 -85 0 0 0 
853.8079 931.9297 -85 0 0 0 
853.5491 932.8955 -85 0 0 0 
853.2903 933.8615 -85 0 0 0 
853.0315 934.8274 -85 0 0 0 
852.7726 935.7933 -85 0 0 0 
852.5138 936.7593 -85 0 0 0 
852.255 937.7251 -85 0 0 0 
851.9962 938.6912 -85 0 0 0 
851.7374 939.657 -85 0 0 0 
851.4785 940.623 -85 0 0 0 
851.2197 941.5889 -85 0 0 0 
869.8547 872.0422 -84 0 0 0 
869.5959 873.0082 -84 0 0 0 
869.337 873.9741 -84 0 0 0 
869.0782 874.9399 -84 0 0 0 
868.8195 875.906 -84 0 0 0 
868.5606 876.8718 -84 0 0 0 
868.3018 877.8378 -84 0 0 0 
868.043 878.8037 -84 0 0 0 
867.7842 879.7697 -84 0 0 0 
867.5253 880.7356 -84 0 0 0 
867.2665 881.7014 -84 0 0 0 
867.0077 882.6675 -84 0 0 0 
866.7489 883.6333 -84 0 0 0 
866.4901 884.5992 -84 0 0 0 
866.2312 885.5652 -84 0 0 0 
865.9724 886.5311 -84 0 0 0 
865.7136 887.4971 -84 0 0 0 
865.4548 888.4629 -84 0 0 0 
865.1959 889.429 -84 0 0 0 
864.9371 890.3948 -84 0 0 0 
864.6783 891.3607 -84 0 0 0 
864.4195 892.3267 -84 0 0 0 
864.1607 893.2926 -84 0 0 0 
863.9019 894.2585 -84 0 0 0 
863.6431 895.2244 -84 0 0 0 
863.3842 896.1904 -84 0 0 0 
863.1254 897.1562 -84 0 0 0 
862.8666 898.1222 -84 0 0 0 
862.6078 899.0881 -84 0 0 0 
862.3489 900.0541 -84 0 0 0 
862.0901 901.02 -84 0 0 0 
861.8313 901.9858 -84 0 0 0 
861.5725 902.9519 -84 0 0 0 
861.3137 903.9177 -84 0 0 0 
861.0549 904.8838 -84 0 0 0 
860.796 905.8496 -84 0 0 0 
860.5372 906.8156 -84 0 0 0 
860.2784 907.7815 -84 0 0 0 
860.0196 908.7473 -84 0 0 0 
859.7607 909.7134 -84 0 0 0 
859.502 910.6792 -84 0 0 0 
859.2431 911.6453 -84 0 0 0 
853.2903 933.8615 -84 0 0 0 
853.0315 934.8274 -84 0 0 0 
852.7726 935.7933 -84 0 0 0 
852.5138 936.7593 -84 0 0 0 
852.255 937.7251 -84 0 0 0 
851.9962 938.6912 -84 0 0 0 
851.7374 939.657 -84 0 0 0 
851.4785 940.623 -84 0 0 0 
851.2197 941.5889 -84 0 0 0 
850.9609 942.5548 -84 0 0 0 
872.4429 862.3829 -83 0 0 0 
872.1841 863.3489 -83 0 0 0 
871.9253 864.3148 -83 0 0 0 
871.6664 865.2808 -83 0 0 0 
871.4076 866.2466 -83 0 0 0 
871.1488 867.2126 -83 0 0 0 
870.89 868.1785 -83 0 0 0 
870.6312 869.1445 -83 0 0 0 
870.3723 870.1104 -83 0 0 0 
870.1135 871.0763 -83 0 0 0 
869.8547 872.0422 -83 0 0 0 
869.5959 873.0082 -83 0 0 0 
869.337 873.9741 -83 0 0 0 
869.0782 874.9399 -83 0 0 0 
868.8195 875.906 -83 0 0 0 
868.5606 876.8718 -83 0 0 0 
868.3018 877.8378 -83 0 0 0 
868.043 878.8037 -83 0 0 0 
867.7842 879.7697 -83 0 0 0 
867.5253 880.7356 -83 0 0 0 
867.2665 881.7014 -83 0 0 0 
867.0077 882.6675 -83 0 0 0 
866.7489 883.6333 -83 0 0 0 
866.4901 884.5992 -83 0 0 0 
866.2312 885.5652 -83 0 0 0 
865.9724 886.5311 -83 0 0 0 
865.7136 887.4971 -83 0 0 0 
865.4548 888.4629 -83 0 0 0 
865.1959 889.429 -83 0 0 0 
864.9371 890.3948 -83 0 0 0 
852.7726 935.7933 -83 0 0 0 
852.5138 936.7593 -83 0 0 0 
852.255 937.7251 -83 0 0 0 
851.9962 938.6912 -83 0 0 0 
851.7374 939.657 -83 0 0 0 
851.4785 940.623 -83 0 0 0 
851.2197 941.5889 -83 0 0 0 
850.9609 942.5548 -83 0 0 0 
850.7021 943.5208 -83 0 0 0 
850.4432 944.4866 -83 0 0 0 
873.737 857.5533 -82 0 0 0 
873.4781 858.5193 -82 0 0 0 
873.2194 859.4851 -82 0 0 0 
872.9605 860.4512 -82 0 0 0 
872.7017 861.417 -82 0 0 0 
872.4429 862.3829 -82 0 0 0 
872.1841 863.3489 -82 0 0 0 
871.9253 864.3148 -82 0 0 0 
871.6664 865.2808 -82 0 0 0 
871.4076 866.2466 -82 0 0 0 
871.1488 867.2126 -82 0 0 0 
870.89 868.1785 -82 0 0 0 
870.6312 869.1445 -82 0 0 0 
870.3723 870.1104 -82 0 0 0 
870.1135 871.0763 -82 0 0 0 
869.8547 872.0422 -82 0 0 0 
869.5959 873.0082 -82 0 0 0 
869.337 873.9741 -82 0 0 0 
869.0782 874.9399 -82 0 0 0 
868.8195 875.906 -82 0 0 0 
868.5606 876.8718 -82 0 0 0 
868.3018 877.8378 -82 0 0 0 
868.043 878.8037 -82 0 0 0 
867.7842 879.7697 -82 0 0 0 
867.5253 880.7356 -82 0 0 0 
867.2665 881.7014 -82 0 0 0 
867.0077 882.6675 -82 0 0 0 
852.5138 936.7593 -82 0 0 0 
852.255 937.7251 -82 0 0 0 
851.9962 938.6912 -82 0 0 0 
851.4785 940.623 -82 0 0 0 
851.2197 941.5889 -82 0 0 0 
850.9609 942.5548 -82 0 0 0 
850.7021 943.5208 -82 0 0 0 
850.4432 944.4866 -82 0 0 0 
850.1844 945.4526 -82 0 0 0 
849.9257 946.4185 -82 0 0 0 
875.5487 850.7919 -81 0 0 0 
875.2899 851.7578 -81 0 0 0 
875.0311 852.7236 -81 0 0 0 
874.7723 853.6897 -81 0 0 0 
874.5134 854.6555 -81 0 0 0 
874.2546 855.6215 -81 0 0 0 
873.9958 856.5874 -81 0 0 0 
873.737 857.5533 -81 0 0 0 
873.4781 858.5193 -81 0 0 0 
873.2194 859.4851 -81 0 0 0 
872.9605 860.4512 -81 0 0 0 
872.7017 861.417 -81 0 0 0 
872.4429 862.3829 -81 0 0 0 
872.1841 863.3489 -81 0 0 0 
871.9253 864.3148 -81 0 0 0 
871.6664 865.2808 -81 0 0 0 
871.4076 866.2466 -81 0 0 0 
871.1488 867.2126 -81 0 0 0 
870.89 868.1785 -81 0 0 0 
870.6312 869.1445 -81 0 0 0 
870.3723 870.1104 -81 0 0 0 
870.1135 871.0763 -81 0 0 0 
850.9609 942.5548 -81 0 0 0 
850.7021 943.5208 -81 0 0 0 
850.4432 944.4866 -81 0 0 0 
850.1844 945.4526 -81 0 0 0 
849.9257 946.4185 -81 0 0 0 
849.6668 947.3845 -81 0 0 0 
877.3605 844.0304 -80 0 0 0 
877.1016 844.9963 -80 0 0 0 
876.8428 845.9622 -80 0 0 0 
876.584 846.9282 -80 0 0 0 
876.3252 847.894 -80 0 0 0 
876.0663 848.86 -80 0 0 0 
875.8076 849.8259 -80 0 0 0 
875.5487 850.7919 -80 0 0 0 
875.2899 851.7578 -80 0 0 0 
875.0311 852.7236 -80 0 0 0 
874.7723 853.6897 -80 0 0 0 
874.5134 854.6555 -80 0 0 0 
874.2546 855.6215 -80 0 0 0 
873.9958 856.5874 -80 0 0 0 
873.737 857.5533 -80 0 0 0 
873.4781 858.5193 -80 0 0 0 
873.2194 859.4851 -80 0 0 0 
872.9605 860.4512 -80 0 0 0 
872.7017 861.417 -80 0 0 0 
872.4429 862.3829 -80 0 0 0 
872.1841 863.3489 -80 0 0 0 
871.9253 864.3148 -80 0 0 0 
871.6664 865.2808 -80 0 0 0 
871.4076 866.2466 -80 0 0 0 
850.4432 944.4866 -80 0 0 0 
850.1844 945.4526 -80 0 0 0 
849.9257 946.4185 -80 0 0 0 
849.6668 947.3845 -80 0 0 0 
849.408 948.3503 -80 0 0 0 
849.1492 949.3163 -80 0 0 0 
878.6545 839.2007 -79 0 0 0 
878.3958 840.1667 -79 0 0 0 
878.1369 841.1326 -79 0 0 0 
877.8781 842.0985 -79 0 0 0 
877.6193 843.0645 -79 0 0 0 
877.3605 844.0304 -79 0 0 0 
877.1016 844.9963 -79 0 0 0 
876.8428 845.9622 -79 0 0 0 
876.584 846.9282 -79 0 0 0 
876.3252 847.894 -79 0 0 0 
876.0663 848.86 -79 0 0 0 
875.8076 849.8259 -79 0 0 0 
875.5487 850.7919 -79 0 0 0 
875.2899 851.7578 -79 0 0 0 
875.0311 852.7236 -79 0 0 0 
874.7723 853.6897 -79 0 0 0 
874.5134 854.6555 -79 0 0 0 
874.2546 855.6215 -79 0 0 0 
873.9958 856.5874 -79 0 0 0 
873.737 857.5533 -79 0 0 0 
873.4781 858.5193 -79 0 0 0 
849.6668 947.3845 -79 0 0 0 
849.408 948.3503 -79 0 0 0 
849.1492 949.3163 -79 0 0 0 
848.8904 950.2822 -79 0 0 0 
848.6315 951.2482 -79 0 0 0 
880.9839 830.5074 -78 0 0 0 
880.7251 831.4733 -78 0 0 0 
880.4663 832.4393 -78 0 0 0 
880.2075 833.4052 -78 0 0 0 
879.9486 834.3711 -78 0 0 0 
879.6898 835.337 -78 0 0 0 
879.431 836.303 -78 0 0 0 
879.1722 837.2689 -78 0 0 0 
878.9134 838.2348 -78 0 0 0 
878.6545 839.2007 -78 0 0 0 
878.3958 840.1667 -78 0 0 0 
878.1369 841.1326 -78 0 0 0 
877.8781 842.0985 -78 0 0 0 
877.6193 843.0645 -78 0 0 0 
877.3605 844.0304 -78 0 0 0 
877.1016 844.9963 -78 0 0 0 
876.8428 845.9622 -78 0 0 0 
876.584 846.9282 -78 0 0 0 
876.3252 847.894 -78 0 0 0 
876.0663 848.86 -78 0 0 0 
875.8076 849.8259 -78 0 0 0 
875.5487 850.7919 -78 0 0 0 
849.408 948.3503 -78 0 0 0 
849.1492 949.3163 -78 0 0 0 
848.8904 950.2822 -78 0 0 0 
848.6315 951.2482 -78 0 0 0 
848.3727 952.2141 -78 0 0 0 
882.7957 823.7459 -77 0 0 0 
882.5369 824.7119 -77 0 0 0 
882.278 825.6778 -77 0 0 0 
882.0192 826.6437 -77 0 0 0 
881.7604 827.6096 -77 0 0 0 
881.5016 828.5756 -77 0 0 0 
881.2427 829.5415 -77 0 0 0 
880.9839 830.5074 -77 0 0 0 
880.7251 831.4733 -77 0 0 0 
880.4663 832.4393 -77 0 0 0 
880.2075 833.4052 -77 0 0 0 
879.9486 834.3711 -77 0 0 0 
879.6898 835.337 -77 0 0 0 
879.431 836.303 -77 0 0 0 
879.1722 837.2689 -77 0 0 0 
878.9134 838.2348 -77 0 0 0 
878.6545 839.2007 -77 0 0 0 
878.3958 840.1667 -77 0 0 0 
878.1369 841.1326 -77 0 0 0 
877.8781 842.0985 -77 0 0 0 
877.6193 843.0645 -77 0 0 0 
849.1492 949.3163 -77 0 0 0 
848.8904 950.2822 -77 0 0 0 
848.6315 951.2482 -77 0 0 0 
848.3727 952.2141 -77 0 0 0 
848.1139 953.1799 -77 0 0 0 
847.8551 954.146 -77 0 0 0 
884.0897 818.9163 -76 0 0 0 
883.8309 819.8822 -76 0 0 0 
883.5721 820.8481 -76 0 0 0 
883.3133 821.8141 -76 0 0 0 
883.0544 822.78 -76 0 0 0 
882.7957 823.7459 -76 0 0 0 
882.5369 824.7119 -76 0 0 0 
882.278 825.6778 -76 0 0 0 
882.0192 826.6437 -76 0 0 0 
881.7604 827.6096 -76 0 0 0 
881.5016 828.5756 -76 0 0 0 
881.2427 829.5415 -76 0 0 0 
880.9839 830.5074 -76 0 0 0 
880.7251 831.4733 -76 0 0 0 
880.4663 832.4393 -76 0 0 0 
880.2075 833.4052 -76 0 0 0 
879.9486 834.3711 -76 0 0 0 
879.6898 835.337 -76 0 0 0 
879.431 836.303 -76 0 0 0 
848.8904 950.2822 -76 0 0 0 
848.6315 951.2482 -76 0 0 0 
848.3727 952.2141 -76 0 0 0 
848.1139 953.1799 -76 0 0 0 
847.8551 954.146 -76 0 0 0 
847.5963 955.1118 -76 0 0 0 
847.3375 956.0778 -76 0 0 0 
885.125 815.0526 -75 0 0 0 
884.8662 816.0186 -75 0 0 0 
884.6074 816.9844 -75 0 0 0 
884.3486 817.9504 -75 0 0 0 
884.0897 818.9163 -75 0 0 0 
883.8309 819.8822 -75 0 0 0 
883.5721 820.8481 -75 0 0 0 
883.3133 821.8141 -75 0 0 0 
883.0544 822.78 -75 0 0 0 
882.7957 823.7459 -75 0 0 0 
882.5369 824.7119 -75 0 0 0 
882.278 825.6778 -75 0 0 0 
882.0192 826.6437 -75 0 0 0 
881.7604 827.6096 -75 0 0 0 
881.5016 828.5756 -75 0 0 0 
881.2427 829.5415 -75 0 0 0 
880.9839 830.5074 -75 0 0 0 
880.7251 831.4733 -75 0 0 0 
880.4663 832.4393 -75 0 0 0 
880.2075 833.4052 -75 0 0 0 
848.6315 951.2482 -75 0 0 0 
848.3727 952.2141 -75 0 0 0 
848.1139 953.1799 -75 0 0 0 
847.8551 954.146 -75 0 0 0 
847.5963 955.1118 -75 0 0 0 
847.3375 956.0778 -75 0 0 0 
847.0786 957.0437 -75 0 0 0 
846.8198 958.0096 -75 0 0 0 
846.561 958.9756 -75 0 0 0 
846.3022 959.9414 -75 0 0 0 
886.678 809.257 -74 0 0 0 
886.4191 810.223 -74 0 0 0 
886.1603 811.1889 -74 0 0 0 
885.9015 812.1548 -74 0 0 0 
885.6427 813.1207 -74 0 0 0 
885.3839 814.0867 -74 0 0 0 
885.125 815.0526 -74 0 0 0 
884.8662 816.0186 -74 0 0 0 
884.6074 816.9844 -74 0 0 0 
884.3486 817.9504 -74 0 0 0 
884.0897 818.9163 -74 0 0 0 
883.8309 819.8822 -74 0 0 0 
883.5721 820.8481 -74 0 0 0 
883.3133 821.8141 -74 0 0 0 
883.0544 822.78 -74 0 0 0 
882.7957 823.7459 -74 0 0 0 
882.5369 824.7119 -74 0 0 0 
848.1139 953.1799 -74 0 0 0 
847.8551 954.146 -74 0 0 0 
847.5963 955.1118 -74 0 0 0 
847.3375 956.0778 -74 0 0 0 
847.0786 957.0437 -74 0 0 0 
846.8198 958.0096 -74 0 0 0 
846.561 958.9756 -74 0 0 0 
846.3022 959.9414 -74 0 0 0 
846.0433 960.9075 -74 0 0 0 
845.7845 961.8733 -74 0 0 0 
845.5257 962.8392 -74 0 0 0 
845.2669 963.8052 -74 0 0 0 
887.972 804.4274 -73 0 0 0 
887.7132 805.3934 -73 0 0 0 
887.4544 806.3593 -73 0 0 0 
887.1956 807.3252 -73 0 0 0 
886.9368 808.2911 -73 0 0 0 
886.678 809.257 -73 0 0 0 
886.4191 810.223 -73 0 0 0 
886.1603 811.1889 -73 0 0 0 
885.9015 812.1548 -73 0 0 0 
885.6427 813.1207 -73 0 0 0 
885.3839 814.0867 -73 0 0 0 
885.125 815.0526 -73 0 0 0 
884.8662 816.0186 -73 0 0 0 
884.6074 816.9844 -73 0 0 0 
884.3486 817.9504 -73 0 0 0 
884.0897 818.9163 -73 0 0 0 
883.8309 819.8822 -73 0 0 0 
883.5721 820.8481 -73 0 0 0 
847.5963 955.1118 -73 0 0 0 
847.3375 956.0778 -73 0 0 0 
847.0786 957.0437 -73 0 0 0 
846.8198 958.0096 -73 0 0 0 
846.561 958.9756 -73 0 0 0 
846.3022 959.9414 -73 0 0 0 
846.0433 960.9075 -73 0 0 0 
845.7845 961.8733 -73 0 0 0 
845.5257 962.8392 -73 0 0 0 
845.2669 963.8052 -73 0 0 0 
845.0081 964.7711 -73 0 0 0 
844.7493 965.7371 -73 0 0 0 
844.4904 966.7029 -73 0 0 0 
844.2316 967.6689 -73 0 0 0 
843.9728 968.6348 -73 0 0 0 
889.525 798.6318 -72 0 0 0 
889.2661 799.5978 -72 0 0 0 
889.0073 800.5637 -72 0 0 0 
888.7485 801.5297 -72 0 0 0 
888.4897 802.4955 -72 0 0 0 
888.2308 803.4615 -72 0 0 0 
887.972 804.4274 -72 0 0 0 
887.7132 805.3934 -72 0 0 0 
887.4544 806.3593 -72 0 0 0 
887.1956 807.3252 -72 0 0 0 
886.9368 808.2911 -72 0 0 0 
886.678 809.257 -72 0 0 0 
886.4191 810.223 -72 0 0 0 
886.1603 811.1889 -72 0 0 0 
885.9015 812.1548 -72 0 0 0 
885.6427 813.1207 -72 0 0 0 
885.3839 814.0867 -72 0 0 0 
847.0786 957.0437 -72 0 0 0 
846.8198 958.0096 -72 0 0 0 
846.561 958.9756 -72 0 0 0 
846.3022 959.9414 -72 0 0 0 
846.0433 960.9075 -72 0 0 0 
845.7845 961.8733 -72 0 0 0 
845.5257 962.8392 -72 0 0 0 
845.2669 963.8052 -72 0 0 0 
845.0081 964.7711 -72 0 0 0 
844.7493 965.7371 -72 0 0 0 
844.4904 966.7029 -72 0 0 0 
844.2316 967.6689 -72 0 0 0 
843.9728 968.6348 -72 0 0 0 
843.714 969.6007 -72 0 0 0 
843.4551 970.5667 -72 0 0 0 
843.1964 971.5326 -72 0 0 0 
842.9375 972.4985 -72 0 0 0 
842.6787 973.4644 -72 0 0 0 
842.4199 974.4304 -72 0 0 0 
842.1611 975.3962 -72 0 0 0 
841.9022 976.3622 -72 0 0 0 
890.819 793.8022 -71 0 0 0 
890.5602 794.7682 -71 0 0 0 
890.3014 795.7341 -71 0 0 0 
890.0426 796.7 -71 0 0 0 
889.7838 797.666 -71 0 0 0 
889.525 798.6318 -71 0 0 0 
889.2661 799.5978 -71 0 0 0 
889.0073 800.5637 -71 0 0 0 
888.7485 801.5297 -71 0 0 0 
888.4897 802.4955 -71 0 0 0 
888.2308 803.4615 -71 0 0 0 
887.972 804.4274 -71 0 0 0 
887.7132 805.3934 -71 0 0 0 
887.4544 806.3593 -71 0 0 0 
887.1956 807.3252 -71 0 0 0 
886.9368 808.2911 -71 0 0 0 
886.678 809.257 -71 0 0 0 
845.2669 963.8052 -71 0 0 0 
845.0081 964.7711 -71 0 0 0 
844.7493 965.7371 -71 0 0 0 
844.4904 966.7029 -71 0 0 0 
844.2316 967.6689 -71 0 0 0 
843.9728 968.6348 -71 0 0 0 
843.714 969.6007 -71 0 0 0 
843.4551 970.5667 -71 0 0 0 
843.1964 971.5326 -71 0 0 0 
842.9375 972.4985 -71 0 0 0 
842.6787 973.4644 -71 0 0 0 
842.4199 974.4304 -71 0 0 0 
842.1611 975.3962 -71 0 0 0 
841.9022 976.3622 -71 0 0 0 
841.6434 977.3281 -71 0 0 0 
841.3846 978.2941 -71 0 0 0 
841.1258 979.26 -71 0 0 0 
840.8669 980.2258 -71 0 0 0 
840.6082 981.1919 -71 0 0 0 
840.3494 982.1577 -71 0 0 0 
840.0905 983.1238 -71 0 0 0 
839.8317 984.0896 -71 0 0 0 
891.8543 789.9385 -70 0 0 0 
891.5955 790.9045 -70 0 0 0 
891.3367 791.8704 -70 0 0 0 
891.0779 792.8363 -70 0 0 0 
890.819 793.8022 -70 0 0 0 
890.5602 794.7682 -70 0 0 0 
890.3014 795.7341 -70 0 0 0 
890.0426 796.7 -70 0 0 0 
889.7838 797.666 -70 0 0 0 
889.525 798.6318 -70 0 0 0 
889.2661 799.5978 -70 0 0 0 
889.0073 800.5637 -70 0 0 0 
888.7485 801.5297 -70 0 0 0 
888.4897 802.4955 -70 0 0 0 
888.2308 803.4615 -70 0 0 0 
843.714 969.6007 -70 0 0 0 
843.4551 970.5667 -70 0 0 0 
843.1964 971.5326 -70 0 0 0 
842.9375 972.4985 -70 0 0 0 
842.6787 973.4644 -70 0 0 0 
842.4199 974.4304 -70 0 0 0 
842.1611 975.3962 -70 0 0 0 
841.9022 976.3622 -70 0 0 0 
841.6434 977.3281 -70 0 0 0 
841.3846 978.2941 -70 0 0 0 
841.1258 979.26 -70 0 0 0 
840.8669 980.2258 -70 0 0 0 
840.6082 981.1919 -70 0 0 0 
840.3494 982.1577 -70 0 0 0 
840.0905 983.1238 -70 0 0 0 
839.8317 984.0896 -70 0 0 0 
839.5729 985.0555 -70 0 0 0 
839.3141 986.0215 -70 0 0 0 
839.0552 986.9873 -70 0 0 0 
838.7964 987.9534 -70 0 0 0 
893.4072 784.1429 -69 0 0 0 
893.1484 785.1089 -69 0 0 0 
892.8896 786.0748 -69 0 0 0 
892.6308 787.0408 -69 0 0 0 
892.3719 788.0067 -69 0 0 0 
892.1132 788.9726 -69 0 0 0 
891.8543 789.9385 -69 0 0 0 
891.5955 790.9045 -69 0 0 0 
891.3367 791.8704 -69 0 0 0 
891.0779 792.8363 -69 0 0 0 
890.819 793.8022 -69 0 0 0 
890.5602 794.7682 -69 0 0 0 
890.3014 795.7341 -69 0 0 0 
890.0426 796.7 -69 0 0 0 
889.7838 797.666 -69 0 0 0 
889.525 798.6318 -69 0 0 0 
889.2661 799.5978 -69 0 0 0 
841.9022 976.3622 -69 0 0 0 
841.6434 977.3281 -69 0 0 0 
841.3846 978.2941 -69 0 0 0 
841.1258 979.26 -69 0 0 0 
840.8669 980.2258 -69 0 0 0 
840.6082 981.1919 -69 0 0 0 
840.3494 982.1577 -69 0 0 0 
840.0905 983.1238 -69 0 0 0 
839.8317 984.0896 -69 0 0 0 
839.5729 985.0555 -69 0 0 0 
839.3141 986.0215 -69 0 0 0 
839.0552 986.9873 -69 0 0 0 
838.7964 987.9534 -69 0 0 0 
838.5376 988.9192 -69 0 0 0 
838.2788 989.8853 -69 0 0 0 
838.02 990.8511 -69 0 0 0 
837.7611 991.817 -69 0 0 0 
894.9601 778.3474 -68 0 0 0 
894.7013 779.3134 -68 0 0 0 
894.4425 780.2793 -68 0 0 0 
894.1837 781.2452 -68 0 0 0 
893.9249 782.2111 -68 0 0 0 
893.6661 783.1771 -68 0 0 0 
893.4072 784.1429 -68 0 0 0 
893.1484 785.1089 -68 0 0 0 
892.8896 786.0748 -68 0 0 0 
892.6308 787.0408 -68 0 0 0 
892.3719 788.0067 -68 0 0 0 
892.1132 788.9726 -68 0 0 0 
891.8543 789.9385 -68 0 0 0 
891.5955 790.9045 -68 0 0 0 
891.3367 791.8704 -68 0 0 0 
891.0779 792.8363 -68 0 0 0 
890.819 793.8022 -68 0 0 0 
890.5602 794.7682 -68 0 0 0 
890.3014 795.7341 -68 0 0 0 
840.3494 982.1577 -68 0 0 0 
840.0905 983.1238 -68 0 0 0 
839.8317 984.0896 -68 0 0 0 
839.5729 985.0555 -68 0 0 0 
839.3141 986.0215 -68 0 0 0 
839.0552 986.9873 -68 0 0 0 
838.7964 987.9534 -68 0 0 0 
838.5376 988.9192 -68 0 0 0 
838.2788 989.8853 -68 0 0 0 
838.02 990.8511 -68 0 0 0 
837.7611 991.817 -68 0 0 0 
837.5023 992.783 -68 0 0 0 
837.2435 993.7489 -68 0 0 0 
836.9847 994.7148 -68 0 0 0 
836.7258 995.6807 -68 0 0 0 
836.467 996.6467 -68 0 0 0 
836.2083 997.6125 -68 0 0 0 
896.2543 773.5178 -67 0 0 0 
895.9954 774.4837 -67 0 0 0 
895.7366 775.4496 -67 0 0 0 
895.4778 776.4156 -67 0 0 0 
895.219 777.3815 -67 0 0 0 
894.9601 778.3474 -67 0 0 0 
894.7013 779.3134 -67 0 0 0 
894.4425 780.2793 -67 0 0 0 
894.1837 781.2452 -67 0 0 0 
893.9249 782.2111 -67 0 0 0 
893.6661 783.1771 -67 0 0 0 
893.4072 784.1429 -67 0 0 0 
893.1484 785.1089 -67 0 0 0 
892.8896 786.0748 -67 0 0 0 
892.6308 787.0408 -67 0 0 0 
892.3719 788.0067 -67 0 0 0 
892.1132 788.9726 -67 0 0 0 
891.8543 789.9385 -67 0 0 0 
891.5955 790.9045 -67 0 0 0 
891.3367 791.8704 -67 0 0 0 
839.0552 986.9873 -67 0 0 0 
838.7964 987.9534 -67 0 0 0 
838.5376 988.9192 -67 0 0 0 
838.2788 989.8853 -67 0 0 0 
838.02 990.8511 -67 0 0 0 
837.7611 991.817 -67 0 0 0 
837.5023 992.783 -67 0 0 0 
837.2435 993.7489 -67 0 0 0 
836.9847 994.7148 -67 0 0 0 
836.7258 995.6807 -67 0 0 0 
836.467 996.6467 -67 0 0 0 
836.2083 997.6125 -67 0 0 0 
835.9494 998.5785 -67 0 0 0 
835.6906 999.5444 -67 0 0 0 
835.4318 1000.51 -67 0 0 0 
835.173 1001.476 -67 0 0 0 
834.9141 1002.442 -67 0 0 0 
897.2896 769.6541 -66 0 0 0 
897.0307 770.62 -66 0 0 0 
896.7719 771.5859 -66 0 0 0 
896.5131 772.5519 -66 0 0 0 
896.2543 773.5178 -66 0 0 0 
895.9954 774.4837 -66 0 0 0 
895.7366 775.4496 -66 0 0 0 
895.4778 776.4156 -66 0 0 0 
895.219 777.3815 -66 0 0 0 
894.9601 778.3474 -66 0 0 0 
894.7013 779.3134 -66 0 0 0 
894.4425 780.2793 -66 0 0 0 
894.1837 781.2452 -66 0 0 0 
893.9249 782.2111 -66 0 0 0 
893.6661 783.1771 -66 0 0 0 
893.4072 784.1429 -66 0 0 0 
893.1484 785.1089 -66 0 0 0 
892.8896 786.0748 -66 0 0 0 
892.6308 787.0408 -66 0 0 0 
838.02 990.8511 -66 0 0 0 
837.7611 991.817 -66 0 0 0 
837.5023 992.783 -66 0 0 0 
836.9847 994.7148 -66 0 0 0 
836.7258 995.6807 -66 0 0 0 
836.467 996.6467 -66 0 0 0 
836.2083 997.6125 -66 0 0 0 
835.9494 998.5785 -66 0 0 0 
835.6906 999.5444 -66 0 0 0 
835.4318 1000.51 -66 0 0 0 
835.173 1001.476 -66 0 0 0 
834.9141 1002.442 -66 0 0 0 
834.6553 1003.408 -66 0 0 0 
834.3965 1004.374 -66 0 0 0 
834.1377 1005.34 -66 0 0 0 
833.8788 1006.306 -66 0 0 0 
898.5836 764.8245 -65 0 0 0 
898.3248 765.7904 -65 0 0 0 
898.066 766.7563 -65 0 0 0 
897.8071 767.7222 -65 0 0 0 
897.5483 768.6882 -65 0 0 0 
897.2896 769.6541 -65 0 0 0 
897.0307 770.62 -65 0 0 0 
896.7719 771.5859 -65 0 0 0 
896.5131 772.5519 -65 0 0 0 
896.2543 773.5178 -65 0 0 0 
895.9954 774.4837 -65 0 0 0 
895.7366 775.4496 -65 0 0 0 
895.4778 776.4156 -65 0 0 0 
895.219 777.3815 -65 0 0 0 
894.9601 778.3474 -65 0 0 0 
894.7013 779.3134 -65 0 0 0 
894.4425 780.2793 -65 0 0 0 
894.1837 781.2452 -65 0 0 0 
835.9494 998.5785 -65 0 0 0 
835.6906 999.5444 -65 0 0 0 
835.4318 1000.51 -65 0 0 0 
835.173 1001.476 -65 0 0 0 
834.9141 1002.442 -65 0 0 0 
834.6553 1003.408 -65 0 0 0 
834.3965 1004.374 -65 0 0 0 
834.1377 1005.34 -65 0 0 0 
833.8788 1006.306 -65 0 0 0 
833.6201 1007.272 -65 0 0 0 
833.3612 1008.238 -65 0 0 0 
833.1024 1009.204 -65 0 0 0 
832.8436 1010.17 -65 0 0 0 
832.5847 1011.135 -65 0 0 0 
899.6189 760.9608 -64 0 0 0 
899.3601 761.9267 -64 0 0 0 
899.1013 762.8926 -64 0 0 0 
898.8424 763.8585 -64 0 0 0 
898.5836 764.8245 -64 0 0 0 
898.3248 765.7904 -64 0 0 0 
898.066 766.7563 -64 0 0 0 
897.8071 767.7222 -64 0 0 0 
897.5483 768.6882 -64 0 0 0 
897.2896 769.6541 -64 0 0 0 
897.0307 770.62 -64 0 0 0 
896.7719 771.5859 -64 0 0 0 
896.5131 772.5519 -64 0 0 0 
896.2543 773.5178 -64 0 0 0 
895.9954 774.4837 -64 0 0 0 
895.7366 775.4496 -64 0 0 0 
835.173 1001.476 -64 0 0 0 
834.9141 1002.442 -64 0 0 0 
834.6553 1003.408 -64 0 0 0 
834.3965 1004.374 -64 0 0 0 
834.1377 1005.34 -64 0 0 0 
833.8788 1006.306 -64 0 0 0 
833.6201 1007.272 -64 0 0 0 
833.3612 1008.238 -64 0 0 0 
833.1024 1009.204 -64 0 0 0 
832.8436 1010.17 -64 0 0 0 
832.5847 1011.135 -64 0 0 0 
832.3259 1012.101 -64 0 0 0 
832.0671 1013.067 -64 0 0 0 
831.8083 1014.033 -64 0 0 0 
900.913 756.1311 -63 0 0 0 
900.6542 757.097 -63 0 0 0 
900.3954 758.063 -63 0 0 0 
900.1365 759.0289 -63 0 0 0 
899.8777 759.9948 -63 0 0 0 
899.6189 760.9608 -63 0 0 0 
899.3601 761.9267 -63 0 0 0 
899.1013 762.8926 -63 0 0 0 
898.8424 763.8585 -63 0 0 0 
898.5836 764.8245 -63 0 0 0 
898.3248 765.7904 -63 0 0 0 
898.066 766.7563 -63 0 0 0 
897.8071 767.7222 -63 0 0 0 
897.5483 768.6882 -63 0 0 0 
897.2896 769.6541 -63 0 0 0 
897.0307 770.62 -63 0 0 0 
896.7719 771.5859 -63 0 0 0 
833.6201 1007.272 -63 0 0 0 
833.3612 1008.238 -63 0 0 0 
833.1024 1009.204 -63 0 0 0 
832.8436 1010.17 -63 0 0 0 
832.5847 1011.135 -63 0 0 0 
832.3259 1012.101 -63 0 0 0 
832.0671 1013.067 -63 0 0 0 
831.8083 1014.033 -63 0 0 0 
831.5495 1014.999 -63 0 0 0 
831.2906 1015.965 -63 0 0 0 
831.0319 1016.931 -63 0 0 0 
830.7731 1017.897 -63 0 0 0 
901.6895 753.2333 -62 0 0 0 
901.4307 754.1993 -62 0 0 0 
901.1718 755.1652 -62 0 0 0 
900.913 756.1311 -62 0 0 0 
900.6542 757.097 -62 0 0 0 
900.3954 758.063 -62 0 0 0 
900.1365 759.0289 -62 0 0 0 
899.8777 759.9948 -62 0 0 0 
899.6189 760.9608 -62 0 0 0 
899.3601 761.9267 -62 0 0 0 
899.1013 762.8926 -62 0 0 0 
898.8424 763.8585 -62 0 0 0 
898.5836 764.8245 -62 0 0 0 
898.3248 765.7904 -62 0 0 0 
898.066 766.7563 -62 0 0 0 
897.8071 767.7222 -62 0 0 0 
897.5483 768.6882 -62 0 0 0 
832.8436 1010.17 -62 0 0 0 
832.5847 1011.135 -62 0 0 0 
832.3259 1012.101 -62 0 0 0 
832.0671 1013.067 -62 0 0 0 
831.8083 1014.033 -62 0 0 0 
831.5495 1014.999 -62 0 0 0 
831.2906 1015.965 -62 0 0 0 
831.0319 1016.931 -62 0 0 0 
830.7731 1017.897 -62 0 0 0 
830.5142 1018.863 -62 0 0 0 
830.2554 1019.829 -62 0 0 0 
902.4659 750.3356 -61 0 0 0 
902.2071 751.3015 -61 0 0 0 
901.9482 752.2674 -61 0 0 0 
901.6895 753.2333 -61 0 0 0 
901.4307 754.1993 -61 0 0 0 
901.1718 755.1652 -61 0 0 0 
900.913 756.1311 -61 0 0 0 
900.6542 757.097 -61 0 0 0 
900.3954 758.063 -61 0 0 0 
900.1365 759.0289 -61 0 0 0 
899.8777 759.9948 -61 0 0 0 
899.6189 760.9608 -61 0 0 0 
899.3601 761.9267 -61 0 0 0 
899.1013 762.8926 -61 0 0 0 
898.8424 763.8585 -61 0 0 0 
898.5836 764.8245 -61 0 0 0 
832.3259 1012.101 -61 0 0 0 
832.0671 1013.067 -61 0 0 0 
831.8083 1014.033 -61 0 0 0 
831.5495 1014.999 -61 0 0 0 
831.2906 1015.965 -61 0 0 0 
831.0319 1016.931 -61 0 0 0 
830.7731 1017.897 -61 0 0 0 
830.5142 1018.863 -61 0 0 0 
830.2554 1019.829 -61 0 0 0 
829.9966 1020.795 -61 0 0 0 
829.7378 1021.761 -61 0 0 0 
829.4789 1022.727 -61 0 0 0 
829.2201 1023.693 -61 0 0 0 
903.2424 747.4378 -60 0 0 0 
902.9835 748.4037 -60 0 0 0 
902.7247 749.3696 -60 0 0 0 
902.4659 750.3356 -60 0 0 0 
902.2071 751.3015 -60 0 0 0 
901.9482 752.2674 -60 0 0 0 
901.6895 753.2333 -60 0 0 0 
901.4307 754.1993 -60 0 0 0 
901.1718 755.1652 -60 0 0 0 
900.913 756.1311 -60 0 0 0 
900.6542 757.097 -60 0 0 0 
900.3954 758.063 -60 0 0 0 
900.1365 759.0289 -60 0 0 0 
899.8777 759.9948 -60 0 0 0 
831.0319 1016.931 -60 0 0 0 
830.7731 1017.897 -60 0 0 0 
830.5142 1018.863 -60 0 0 0 
830.2554 1019.829 -60 0 0 0 
829.9966 1020.795 -60 0 0 0 
829.7378 1021.761 -60 0 0 0 
829.4789 1022.727 -60 0 0 0 
829.2201 1023.693 -60 0 0 0 
828.9613 1024.658 -60 0 0 0 
828.7025 1025.625 -60 0 0 0 
828.4437 1026.59 -60 0 0 0 
828.1848 1027.556 -60 0 0 0 
916.4421 698.1756 -59 0 0 0 
916.1833 699.1415 -59 0 0 0 
915.9245 700.1074 -59 0 0 0 
915.6656 701.0734 -59 0 0 0 
915.4069 702.0393 -59 0 0 0 
915.1481 703.0052 -59 0 0 0 
914.8892 703.9711 -59 0 0 0 
914.6304 704.9371 -59 0 0 0 
914.3716 705.903 -59 0 0 0 
914.1128 706.8689 -59 0 0 0 
913.0775 710.7326 -59 0 0 0 
912.8187 711.6985 -59 0 0 0 
904.5364 742.6082 -59 0 0 0 
904.2776 743.5741 -59 0 0 0 
904.0188 744.54 -59 0 0 0 
903.76 745.5059 -59 0 0 0 
903.5012 746.4719 -59 0 0 0 
903.2424 747.4378 -59 0 0 0 
902.9835 748.4037 -59 0 0 0 
902.7247 749.3696 -59 0 0 0 
902.4659 750.3356 -59 0 0 0 
902.2071 751.3015 -59 0 0 0 
901.9482 752.2674 -59 0 0 0 
901.6895 753.2333 -59 0 0 0 
901.4307 754.1993 -59 0 0 0 
901.1718 755.1652 -59 0 0 0 
830.2554 1019.829 -59 0 0 0 
829.9966 1020.795 -59 0 0 0 
829.7378 1021.761 -59 0 0 0 
829.4789 1022.727 -59 0 0 0 
829.2201 1023.693 -59 0 0 0 
828.9613 1024.658 -59 0 0 0 
828.7025 1025.625 -59 0 0 0 
828.4437 1026.59 -59 0 0 0 
828.1848 1027.556 -59 0 0 0 
827.926 1028.522 -59 0 0 0 
827.6672 1029.488 -59 0 0 0 
827.4084 1030.454 -59 0 0 0 
918.2538 691.4141 -58 0 0 0 
917.9951 692.38 -58 0 0 0 
917.7362 693.3459 -58 0 0 0 
917.4774 694.3119 -58 0 0 0 
917.2186 695.2778 -58 0 0 0 
916.9598 696.2437 -58 0 0 0 
916.7009 697.2097 -58 0 0 0 
916.4421 698.1756 -58 0 0 0 
916.1833 699.1415 -58 0 0 0 
915.9245 700.1074 -58 0 0 0 
915.6656 701.0734 -58 0 0 0 
915.4069 702.0393 -58 0 0 0 
915.1481 703.0052 -58 0 0 0 
914.8892 703.9711 -58 0 0 0 
914.6304 704.9371 -58 0 0 0 
914.3716 705.903 -58 0 0 0 
914.1128 706.8689 -58 0 0 0 
913.8539 707.8348 -58 0 0 0 
913.5951 708.8008 -58 0 0 0 
913.3363 709.7667 -58 0 0 0 
913.0775 710.7326 -58 0 0 0 
912.8187 711.6985 -58 0 0 0 
912.5598 712.6645 -58 0 0 0 
912.301 713.6304 -58 0 0 0 
912.0422 714.5963 -58 0 0 0 
911.7834 715.5623 -58 0 0 0 
911.5245 716.5281 -58 0 0 0 
905.0541 740.6763 -58 0 0 0 
904.7953 741.6422 -58 0 0 0 
904.5364 742.6082 -58 0 0 0 
904.2776 743.5741 -58 0 0 0 
904.0188 744.54 -58 0 0 0 
903.76 745.5059 -58 0 0 0 
903.5012 746.4719 -58 0 0 0 
903.2424 747.4378 -58 0 0 0 
902.9835 748.4037 -58 0 0 0 
902.7247 749.3696 -58 0 0 0 
902.4659 750.3356 -58 0 0 0 
902.2071 751.3015 -58 0 0 0 
829.4789 1022.727 -58 0 0 0 
829.2201 1023.693 -58 0 0 0 
828.9613 1024.658 -58 0 0 0 
828.7025 1025.625 -58 0 0 0 
828.4437 1026.59 -58 0 0 0 
828.1848 1027.556 -58 0 0 0 
827.926 1028.522 -58 0 0 0 
827.6672 1029.488 -58 0 0 0 
827.4084 1030.454 -58 0 0 0 
827.1495 1031.42 -58 0 0 0 
826.8907 1032.386 -58 0 0 0 
826.632 1033.352 -58 0 0 0 
919.2891 687.5504 -57 0 0 0 
919.0303 688.5163 -57 0 0 0 
918.7715 689.4822 -57 0 0 0 
918.5127 690.4482 -57 0 0 0 
918.2538 691.4141 -57 0 0 0 
917.9951 692.38 -57 0 0 0 
917.7362 693.3459 -57 0 0 0 
917.4774 694.3119 -57 0 0 0 
917.2186 695.2778 -57 0 0 0 
916.9598 696.2437 -57 0 0 0 
916.7009 697.2097 -57 0 0 0 
916.4421 698.1756 -57 0 0 0 
916.1833 699.1415 -57 0 0 0 
915.9245 700.1074 -57 0 0 0 
915.6656 701.0734 -57 0 0 0 
915.4069 702.0393 -57 0 0 0 
915.1481 703.0052 -57 0 0 0 
914.8892 703.9711 -57 0 0 0 
914.6304 704.9371 -57 0 0 0 
914.3716 705.903 -57 0 0 0 
914.1128 706.8689 -57 0 0 0 
913.8539 707.8348 -57 0 0 0 
913.5951 708.8008 -57 0 0 0 
913.3363 709.7667 -57 0 0 0 
913.0775 710.7326 -57 0 0 0 
912.8187 711.6985 -57 0 0 0 
912.5598 712.6645 -57 0 0 0 
912.301 713.6304 -57 0 0 0 
912.0422 714.5963 -57 0 0 0 
911.7834 715.5623 -57 0 0 0 
911.5245 716.5281 -57 0 0 0 
911.2657 717.4941 -57 0 0 0 
911.007 718.46 -57 0 0 0 
910.7481 719.426 -57 0 0 0 
905.8306 737.7786 -57 0 0 0 
905.5717 738.7444 -57 0 0 0 
905.3129 739.7104 -57 0 0 0 
905.0541 740.6763 -57 0 0 0 
904.7953 741.6422 -57 0 0 0 
904.5364 742.6082 -57 0 0 0 
904.2776 743.5741 -57 0 0 0 
904.0188 744.54 -57 0 0 0 
903.76 745.5059 -57 0 0 0 
903.5012 746.4719 -57 0 0 0 
903.2424 747.4378 -57 0 0 0 
828.9613 1024.658 -57 0 0 0 
828.7025 1025.625 -57 0 0 0 
828.4437 1026.59 -57 0 0 0 
828.1848 1027.556 -57 0 0 0 
827.926 1028.522 -57 0 0 0 
827.6672 1029.488 -57 0 0 0 
827.4084 1030.454 -57 0 0 0 
827.1495 1031.42 -57 0 0 0 
826.8907 1032.386 -57 0 0 0 
826.632 1033.352 -57 0 0 0 
826.3731 1034.318 -57 0 0 0 
826.1143 1035.284 -57 0 0 0 
825.8555 1036.25 -57 0 0 0 
920.3244 683.6867 -56 0 0 0 
920.0656 684.6526 -56 0 0 0 
919.8068 685.6185 -56 0 0 0 
919.548 686.5845 -56 0 0 0 
919.2891 687.5504 -56 0 0 0 
919.0303 688.5163 -56 0 0 0 
918.7715 689.4822 -56 0 0 0 
918.5127 690.4482 -56 0 0 0 
918.2538 691.4141 -56 0 0 0 
917.9951 692.38 -56 0 0 0 
917.7362 693.3459 -56 0 0 0 
917.4774 694.3119 -56 0 0 0 
917.2186 695.2778 -56 0 0 0 
916.9598 696.2437 -56 0 0 0 
916.7009 697.2097 -56 0 0 0 
916.4421 698.1756 -56 0 0 0 
916.1833 699.1415 -56 0 0 0 
915.9245 700.1074 -56 0 0 0 
915.6656 701.0734 -56 0 0 0 
915.4069 702.0393 -56 0 0 0 
914.1128 706.8689 -56 0 0 0 
913.8539 707.8348 -56 0 0 0 
913.5951 708.8008 -56 0 0 0 
913.3363 709.7667 -56 0 0 0 
913.0775 710.7326 -56 0 0 0 
912.8187 711.6985 -56 0 0 0 
912.5598 712.6645 -56 0 0 0 
912.301 713.6304 -56 0 0 0 
912.0422 714.5963 -56 0 0 0 
911.7834 715.5623 -56 0 0 0 
911.5245 716.5281 -56 0 0 0 
911.2657 717.4941 -56 0 0 0 
911.007 718.46 -56 0 0 0 
910.7481 719.426 -56 0 0 0 
910.4893 720.3918 -56 0 0 0 
910.2305 721.3578 -56 0 0 0 
906.3482 735.8467 -56 0 0 0 
906.0894 736.8126 -56 0 0 0 
905.8306 737.7786 -56 0 0 0 
905.5717 738.7444 -56 0 0 0 
905.3129 739.7104 -56 0 0 0 
905.0541 740.6763 -56 0 0 0 
904.7953 741.6422 -56 0 0 0 
904.5364 742.6082 -56 0 0 0 
827.4084 1030.454 -56 0 0 0 
827.1495 1031.42 -56 0 0 0 
826.8907 1032.386 -56 0 0 0 
826.632 1033.352 -56 0 0 0 
826.3731 1034.318 -56 0 0 0 
826.1143 1035.284 -56 0 0 0 
825.8555 1036.25 -56 0 0 0 
825.5967 1037.216 -56 0 0 0 
825.3378 1038.181 -56 0 0 0 
825.079 1039.147 -56 0 0 0 
824.8202 1040.113 -56 0 0 0 
921.3597 679.823 -55 0 0 0 
921.1009 680.7889 -55 0 0 0 
920.842 681.7548 -55 0 0 0 
920.5833 682.7208 -55 0 0 0 
920.3244 683.6867 -55 0 0 0 
920.0656 684.6526 -55 0 0 0 
919.8068 685.6185 -55 0 0 0 
919.548 686.5845 -55 0 0 0 
919.2891 687.5504 -55 0 0 0 
919.0303 688.5163 -55 0 0 0 
918.7715 689.4822 -55 0 0 0 
918.5127 690.4482 -55 0 0 0 
911.7834 715.5623 -55 0 0 0 
911.5245 716.5281 -55 0 0 0 
911.2657 717.4941 -55 0 0 0 
911.007 718.46 -55 0 0 0 
910.7481 719.426 -55 0 0 0 
910.4893 720.3918 -55 0 0 0 
910.2305 721.3578 -55 0 0 0 
909.9717 722.3237 -55 0 0 0 
909.7128 723.2897 -55 0 0 0 
907.1246 732.9489 -55 0 0 0 
906.8658 733.9149 -55 0 0 0 
906.607 734.8807 -55 0 0 0 
906.3482 735.8467 -55 0 0 0 
906.0894 736.8126 -55 0 0 0 
905.8306 737.7786 -55 0 0 0 
905.5717 738.7444 -55 0 0 0 
905.3129 739.7104 -55 0 0 0 
825.5967 1037.216 -55 0 0 0 
825.3378 1038.181 -55 0 0 0 
825.079 1039.147 -55 0 0 0 
824.8202 1040.113 -55 0 0 0 
824.5614 1041.079 -55 0 0 0 
824.3026 1042.045 -55 0 0 0 
824.0437 1043.011 -55 0 0 0 
823.7849 1043.977 -55 0 0 0 
922.395 675.9593 -54 0 0 0 
922.1362 676.9252 -54 0 0 0 
921.8773 677.8911 -54 0 0 0 
921.6185 678.8571 -54 0 0 0 
921.3597 679.823 -54 0 0 0 
921.1009 680.7889 -54 0 0 0 
920.842 681.7548 -54 0 0 0 
920.5833 682.7208 -54 0 0 0 
920.3244 683.6867 -54 0 0 0 
920.0656 684.6526 -54 0 0 0 
911.007 718.46 -54 0 0 0 
910.7481 719.426 -54 0 0 0 
910.4893 720.3918 -54 0 0 0 
910.2305 721.3578 -54 0 0 0 
909.9717 722.3237 -54 0 0 0 
909.7128 723.2897 -54 0 0 0 
909.454 724.2556 -54 0 0 0 
909.1952 725.2215 -54 0 0 0 
907.9011 730.0511 -54 0 0 0 
907.6423 731.017 -54 0 0 0 
907.3835 731.983 -54 0 0 0 
907.1246 732.9489 -54 0 0 0 
906.8658 733.9149 -54 0 0 0 
906.607 734.8807 -54 0 0 0 
906.3482 735.8467 -54 0 0 0 
906.0894 736.8126 -54 0 0 0 
905.8306 737.7786 -54 0 0 0 
905.5717 738.7444 -54 0 0 0 
824.8202 1040.113 -54 0 0 0 
824.5614 1041.079 -54 0 0 0 
824.3026 1042.045 -54 0 0 0 
824.0437 1043.011 -54 0 0 0 
823.7849 1043.977 -54 0 0 0 
823.5261 1044.943 -54 0 0 0 
823.2673 1045.909 -54 0 0 0 
823.0084 1046.875 -54 0 0 0 
822.7496 1047.841 -54 0 0 0 
923.4302 672.0956 -53 0 0 0 
923.1714 673.0615 -53 0 0 0 
922.9126 674.0274 -53 0 0 0 
922.6538 674.9933 -53 0 0 0 
922.395 675.9593 -53 0 0 0 
922.1362 676.9252 -53 0 0 0 
921.8773 677.8911 -53 0 0 0 
921.6185 678.8571 -53 0 0 0 
921.3597 679.823 -53 0 0 0 
910.2305 721.3578 -53 0 0 0 
909.9717 722.3237 -53 0 0 0 
909.7128 723.2897 -53 0 0 0 
909.454 724.2556 -53 0 0 0 
909.1952 725.2215 -53 0 0 0 
908.9364 726.1874 -53 0 0 0 
908.6776 727.1534 -53 0 0 0 
908.4188 728.1193 -53 0 0 0 
908.1599 729.0852 -53 0 0 0 
907.9011 730.0511 -53 0 0 0 
907.6423 731.017 -53 0 0 0 
907.3835 731.983 -53 0 0 0 
907.1246 732.9489 -53 0 0 0 
906.8658 733.9149 -53 0 0 0 
906.607 734.8807 -53 0 0 0 
906.3482 735.8467 -53 0 0 0 
824.3026 1042.045 -53 0 0 0 
824.0437 1043.011 -53 0 0 0 
823.7849 1043.977 -53 0 0 0 
823.5261 1044.943 -53 0 0 0 
823.2673 1045.909 -53 0 0 0 
823.0084 1046.875 -53 0 0 0 
822.7496 1047.841 -53 0 0 0 
822.4908 1048.807 -53 0 0 0 
822.232 1049.773 -53 0 0 0 
821.9731 1050.739 -53 0 0 0 
924.7244 667.2659 -52 0 0 0 
924.4655 668.2319 -52 0 0 0 
924.2067 669.1978 -52 0 0 0 
923.9479 670.1638 -52 0 0 0 
923.6891 671.1296 -52 0 0 0 
923.4302 672.0956 -52 0 0 0 
923.1714 673.0615 -52 0 0 0 
922.9126 674.0274 -52 0 0 0 
922.6538 674.9933 -52 0 0 0 
922.395 675.9593 -52 0 0 0 
909.454 724.2556 -52 0 0 0 
909.1952 725.2215 -52 0 0 0 
908.9364 726.1874 -52 0 0 0 
908.6776 727.1534 -52 0 0 0 
908.4188 728.1193 -52 0 0 0 
908.1599 729.0852 -52 0 0 0 
907.9011 730.0511 -52 0 0 0 
907.6423 731.017 -52 0 0 0 
907.3835 731.983 -52 0 0 0 
907.1246 732.9489 -52 0 0 0 
906.8658 733.9149 -52 0 0 0 
823.5261 1044.943 -52 0 0 0 
823.2673 1045.909 -52 0 0 0 
823.0084 1046.875 -52 0 0 0 
822.7496 1047.841 -52 0 0 0 
822.4908 1048.807 -52 0 0 0 
822.232 1049.773 -52 0 0 0 
821.9731 1050.739 -52 0 0 0 
821.7144 1051.704 -52 0 0 0 
821.4556 1052.67 -52 0 0 0 
925.5008 664.3682 -51 0 0 0 
925.2419 665.3341 -51 0 0 0 
924.9832 666.3 -51 0 0 0 
924.7244 667.2659 -51 0 0 0 
924.4655 668.2319 -51 0 0 0 
924.2067 669.1978 -51 0 0 0 
923.9479 670.1638 -51 0 0 0 
923.6891 671.1296 -51 0 0 0 
923.4302 672.0956 -51 0 0 0 
923.1714 673.0615 -51 0 0 0 
922.9126 674.0274 -51 0 0 0 
909.454 724.2556 -51 0 0 0 
909.1952 725.2215 -51 0 0 0 
908.9364 726.1874 -51 0 0 0 
908.6776 727.1534 -51 0 0 0 
908.4188 728.1193 -51 0 0 0 
908.1599 729.0852 -51 0 0 0 
822.4908 1048.807 -51 0 0 0 
822.232 1049.773 -51 0 0 0 
821.9731 1050.739 -51 0 0 0 
821.7144 1051.704 -51 0 0 0 
821.4556 1052.67 -51 0 0 0 
821.1967 1053.636 -51 0 0 0 
820.9379 1054.602 -51 0 0 0 
820.6791 1055.568 -51 0 0 0 
926.2772 661.4704 -50 0 0 0 
926.0184 662.4363 -50 0 0 0 
925.7596 663.4022 -50 0 0 0 
925.5008 664.3682 -50 0 0 0 
925.2419 665.3341 -50 0 0 0 
924.9832 666.3 -50 0 0 0 
924.7244 667.2659 -50 0 0 0 
924.4655 668.2319 -50 0 0 0 
924.2067 669.1978 -50 0 0 0 
923.9479 670.1638 -50 0 0 0 
909.1952 725.2215 -50 0 0 0 
908.9364 726.1874 -50 0 0 0 
908.6776 727.1534 -50 0 0 0 
822.232 1049.773 -50 0 0 0 
821.9731 1050.739 -50 0 0 0 
821.7144 1051.704 -50 0 0 0 
821.4556 1052.67 -50 0 0 0 
821.1967 1053.636 -50 0 0 0 
820.9379 1054.602 -50 0 0 0 
820.6791 1055.568 -50 0 0 0 
820.4203 1056.534 -50 0 0 0 
820.1614 1057.5 -50 0 0 0 
926.7949 659.5386 -49 0 0 0 
926.5361 660.5045 -49 0 0 0 
926.2772 661.4704 -49 0 0 0 
926.0184 662.4363 -49 0 0 0 
925.7596 663.4022 -49 0 0 0 
925.5008 664.3682 -49 0 0 0 
925.2419 665.3341 -49 0 0 0 
924.9832 666.3 -49 0 0 0 
908.9364 726.1874 -49 0 0 0 
821.1967 1053.636 -49 0 0 0 
820.9379 1054.602 -49 0 0 0 
820.6791 1055.568 -49 0 0 0 
820.4203 1056.534 -49 0 0 0 
820.1614 1057.5 -49 0 0 0 
819.9026 1058.466 -49 0 0 0 
819.6438 1059.432 -49 0 0 0 
927.5714 656.6407 -48 0 0 0 
927.3125 657.6067 -48 0 0 0 
927.0537 658.5726 -48 0 0 0 
926.7949 659.5386 -48 0 0 0 
926.5361 660.5045 -48 0 0 0 
926.2772 661.4704 -48 0 0 0 
926.0184 662.4363 -48 0 0 0 
925.7596 663.4022 -48 0 0 0 
925.5008 664.3682 -48 0 0 0 
820.4203 1056.534 -48 0 0 0 
820.1614 1057.5 -48 0 0 0 
819.9026 1058.466 -48 0 0 0 
819.6438 1059.432 -48 0 0 0 
819.385 1060.398 -48 0 0 0 
819.1262 1061.364 -48 0 0 0 
818.8673 1062.33 -48 0 0 0 
818.6085 1063.296 -48 0 0 0 
928.089 654.7089 -47 0 0 0 
927.8302 655.6749 -47 0 0 0 
927.5714 656.6407 -47 0 0 0 
927.3125 657.6067 -47 0 0 0 
927.0537 658.5726 -47 0 0 0 
926.7949 659.5386 -47 0 0 0 
926.5361 660.5045 -47 0 0 0 
819.9026 1058.466 -47 0 0 0 
819.6438 1059.432 -47 0 0 0 
819.385 1060.398 -47 0 0 0 
819.1262 1061.364 -47 0 0 0 
818.8673 1062.33 -47 0 0 0 
818.6085 1063.296 -47 0 0 0 
818.3497 1064.261 -47 0 0 0 
928.3478 653.743 -46 0 0 0 
928.089 654.7089 -46 0 0 0 
927.8302 655.6749 -46 0 0 0 
927.5714 656.6407 -46 0 0 0 
927.3125 657.6067 -46 0 0 0 
927.0537 658.5726 -46 0 0 0 
819.6438 1059.432 -46 0 0 0 
819.385 1060.398 -46 0 0 0 
819.1262 1061.364 -46 0 0 0 
818.8673 1062.33 -46 0 0 0 
818.6085 1063.296 -46 0 0 0 
818.3497 1064.261 -46 0 0 0 
818.0909 1065.227 -46 0 0 0 
817.832 1066.193 -46 0 0 0 
817.5732 1067.159 -46 0 0 0 
928.8655 651.8112 -45 0 0 0 
928.6066 652.777 -45 0 0 0 
928.3478 653.743 -45 0 0 0 
928.089 654.7089 -45 0 0 0 
927.8302 655.6749 -45 0 0 0 
927.5714 656.6407 -45 0 0 0 
818.3497 1064.261 -45 0 0 0 
818.0909 1065.227 -45 0 0 0 
817.832 1066.193 -45 0 0 0 
817.5732 1067.159 -45 0 0 0 
817.3145 1068.125 -45 0 0 0 
817.0556 1069.091 -45 0 0 0 
816.7968 1070.057 -45 0 0 0 
929.3831 649.8793 -44 0 0 0 
929.1243 650.8452 -44 0 0 0 
928.8655 651.8112 -44 0 0 0 
928.6066 652.777 -44 0 0 0 
928.3478 653.743 -44 0 0 0 
817.832 1066.193 -44 0 0 0 
817.5732 1067.159 -44 0 0 0 
817.3145 1068.125 -44 0 0 0 
817.0556 1069.091 -44 0 0 0 
816.7968 1070.057 -44 0 0 0 
816.538 1071.023 -44 0 0 0 
816.2792 1071.989 -44 0 0 0 
929.9008 647.9474 -43 0 0 0 
929.6419 648.9133 -43 0 0 0 
929.3831 649.8793 -43 0 0 0 
929.1243 650.8452 -43 0 0 0 
928.8655 651.8112 -43 0 0 0 
928.6066 652.777 -43 0 0 0 
817.3145 1068.125 -43 0 0 0 
817.0556 1069.091 -43 0 0 0 
816.7968 1070.057 -43 0 0 0 
816.538 1071.023 -43 0 0 0 
816.2792 1071.989 -43 0 0 0 
816.0204 1072.955 -43 0 0 0 
815.7615 1073.921 -43 0 0 0 
815.5027 1074.887 -43 0 0 0 
930.4183 646.0156 -42 0 0 0 
930.1595 646.9815 -42 0 0 0 
929.9008 647.9474 -42 0 0 0 
929.6419 648.9133 -42 0 0 0 
929.3831 649.8793 -42 0 0 0 
929.1243 650.8452 -42 0 0 0 
816.538 1071.023 -42 0 0 0 
816.2792 1071.989 -42 0 0 0 
816.0204 1072.955 -42 0 0 0 
815.7615 1073.921 -42 0 0 0 
815.5027 1074.887 -42 0 0 0 
815.2439 1075.853 -42 0 0 0 
930.6772 645.0497 -41 0 0 0 
930.4183 646.0156 -41 0 0 0 
930.1595 646.9815 -41 0 0 0 
929.9008 647.9474 -41 0 0 0 
929.6419 648.9133 -41 0 0 0 
816.2792 1071.989 -41 0 0 0 
816.0204 1072.955 -41 0 0 0 
815.7615 1073.921 -41 0 0 0 
815.5027 1074.887 -41 0 0 0 
815.2439 1075.853 -41 0 0 0 
814.9851 1076.818 -41 0 0 0 
814.7263 1077.784 -41 0 0 0 
931.1948 643.1178 -40 0 0 0 
930.936 644.0837 -40 0 0 0 
930.6772 645.0497 -40 0 0 0 
930.4183 646.0156 -40 0 0 0 
930.1595 646.9815 -40 0 0 0 
815.5027 1074.887 -40 0 0 0 
815.2439 1075.853 -40 0 0 0 
814.9851 1076.818 -40 0 0 0 
814.7263 1077.784 -40 0 0 0 
814.4674 1078.75 -40 0 0 0 
814.2086 1079.716 -40 0 0 0 
813.9498 1080.682 -40 0 0 0 
931.4536 642.1519 -39 0 0 0 
931.1948 643.1178 -39 0 0 0 
930.936 644.0837 -39 0 0 0 
930.6772 645.0497 -39 0 0 0 
930.4183 646.0156 -39 0 0 0 
814.9851 1076.818 -39 0 0 0 
814.7263 1077.784 -39 0 0 0 
814.4674 1078.75 -39 0 0 0 
814.2086 1079.716 -39 0 0 0 
813.9498 1080.682 -39 0 0 0 
813.691 1081.648 -39 0 0 0 
813.4321 1082.614 -39 0 0 0 
931.7125 641.186 -38 0 0 0 
931.4536 642.1519 -38 0 0 0 
931.1948 643.1178 -38 0 0 0 
930.936 644.0837 -38 0 0 0 
814.4674 1078.75 -38 0 0 0 
814.2086 1079.716 -38 0 0 0 
813.9498 1080.682 -38 0 0 0 
813.691 1081.648 -38 0 0 0 
813.4321 1082.614 -38 0 0 0 
813.1733 1083.58 -38 0 0 0 
812.9146 1084.546 -38 0 0 0 
932.2301 639.2541 -37 0 0 0 
931.9713 640.22 -37 0 0 0 
931.7125 641.186 -37 0 0 0 
931.4536 642.1519 -37 0 0 0 
813.9498 1080.682 -37 0 0 0 
813.691 1081.648 -37 0 0 0 
813.4321 1082.614 -37 0 0 0 
813.1733 1083.58 -37 0 0 0 
812.9146 1084.546 -37 0 0 0 
812.6557 1085.512 -37 0 0 0 
812.3969 1086.478 -37 0 0 0 
812.1381 1087.444 -37 0 0 0 
932.4889 638.2881 -36 0 0 0 
932.2301 639.2541 -36 0 0 0 
931.9713 640.22 -36 0 0 0 
931.7125 641.186 -36 0 0 0 
813.1733 1083.58 -36 0 0 0 
812.9146 1084.546 -36 0 0 0 
812.6557 1085.512 -36 0 0 0 
812.3969 1086.478 -36 0 0 0 
812.1381 1087.444 -36 0 0 0 
811.8793 1088.41 -36 0 0 0 
811.6204 1089.375 -36 0 0 0 
932.7477 637.3223 -35 0 0 0 
932.4889 638.2881 -35 0 0 0 
932.2301 639.2541 -35 0 0 0 
812.6557 1085.512 -35 0 0 0 
812.3969 1086.478 -35 0 0 0 
812.1381 1087.444 -35 0 0 0 
811.8793 1088.41 -35 0 0 0 
811.6204 1089.375 -35 0 0 0 
811.3616 1090.341 -35 0 0 0 
811.1028 1091.307 -35 0 0 0 
810.844 1092.273 -35 0 0 0 
933.2654 635.3904 -34 0 0 0 
933.0065 636.3563 -34 0 0 0 
932.7477 637.3223 -34 0 0 0 
932.4889 638.2881 -34 0 0 0 
811.8793 1088.41 -34 0 0 0 
811.6204 1089.375 -34 0 0 0 
811.3616 1090.341 -34 0 0 0 
811.1028 1091.307 -34 0 0 0 
810.844 1092.273 -34 0 0 0 
810.5851 1093.239 -34 0 0 0 
810.3263 1094.205 -34 0 0 0 
933.5242 634.4245 -33 0 0 0 
933.2654 635.3904 -33 0 0 0 
933.0065 636.3563 -33 0 0 0 
932.7477 637.3223 -33 0 0 0 
811.1028 1091.307 -33 0 0 0 
810.844 1092.273 -33 0 0 0 
810.5851 1093.239 -33 0 0 0 
810.3263 1094.205 -33 0 0 0 
810.0675 1095.171 -33 0 0 0 
809.8087 1096.137 -33 0 0 0 
933.783 633.4586 -32 0 0 0 
933.5242 634.4245 -32 0 0 0 
933.2654 635.3904 -32 0 0 0 
933.0065 636.3563 -32 0 0 0 
810.844 1092.273 -32 0 0 0 
810.5851 1093.239 -32 0 0 0 
810.3263 1094.205 -32 0 0 0 
810.0675 1095.171 -32 0 0 0 
809.8087 1096.137 -32 0 0 0 
809.5499 1097.103 -32 0 0 0 
934.0418 632.4926 -31 0 0 0 
933.783 633.4586 -31 0 0 0 
933.5242 634.4245 -31 0 0 0 
810.3263 1094.205 -31 0 0 0 
810.0675 1095.171 -31 0 0 0 
809.8087 1096.137 -31 0 0 0 
809.5499 1097.103 -31 0 0 0 
809.291 1098.069 -31 0 0 0 
809.0322 1099.035 -31 0 0 0 
934.5594 630.5608 -30 0 0 0 
934.3007 631.5267 -30 0 0 0 
934.0418 632.4926 -30 0 0 0 
933.783 633.4586 -30 0 0 0 
809.8087 1096.137 -30 0 0 0 
809.5499 1097.103 -30 0 0 0 
809.291 1098.069 -30 0 0 0 
809.0322 1099.035 -30 0 0 0 
808.7734 1100.001 -30 0 0 0 
808.5146 1100.967 -30 0 0 0 
934.8183 629.5948 -29 0 0 0 
934.5594 630.5608 -29 0 0 0 
934.3007 631.5267 -29 0 0 0 
934.0418 632.4926 -29 0 0 0 
809.291 1098.069 -29 0 0 0 
809.0322 1099.035 -29 0 0 0 
808.7734 1100.001 -29 0 0 0 
808.5146 1100.967 -29 0 0 0 
808.2557 1101.933 -29 0 0 0 
935.0771 628.6289 -28 0 0 0 
934.8183 629.5948 -28 0 0 0 
934.5594 630.5608 -28 0 0 0 
808.7734 1100.001 -28 0 0 0 
808.5146 1100.967 -28 0 0 0 
808.2557 1101.933 -28 0 0 0 
807.9969 1102.898 -28 0 0 0 
807.7382 1103.864 -28 0 0 0 
935.3359 627.663 -27 0 0 0 
935.0771 628.6289 -27 0 0 0 
934.8183 629.5948 -27 0 0 0 
808.5146 1100.967 -27 0 0 0 
808.2557 1101.933 -27 0 0 0 
807.9969 1102.898 -27 0 0 0 
807.7382 1103.864 -27 0 0 0 
807.4793 1104.83 -27 0 0 0 
935.5947 626.6971 -26 0 0 0 
935.3359 627.663 -26 0 0 0 
935.0771 628.6289 -26 0 0 0 
934.8183 629.5948 -26 0 0 0 
807.9969 1102.898 -26 0 0 0 
807.7382 1103.864 -26 0 0 0 
807.4793 1104.83 -26 0 0 0 
807.2205 1105.796 -26 0 0 0 
935.8536 625.7311 -25 0 0 0 
935.5947 626.6971 -25 0 0 0 
935.3359 627.663 -25 0 0 0 
935.0771 628.6289 -25 0 0 0 
807.4793 1104.83 -25 0 0 0 
807.2205 1105.796 -25 0 0 0 
806.9617 1106.762 -25 0 0 0 
806.7029 1107.728 -25 0 0 0 
935.8536 625.7311 -24 0 0 0 
935.5947 626.6971 -24 0 0 0 
935.3359 627.663 -24 0 0 0 
807.2205 1105.796 -24 0 0 0 
806.9617 1106.762 -24 0 0 0 
806.7029 1107.728 -24 0 0 0 
806.444 1108.694 -24 0 0 0 
806.1852 1109.66 -24 0 0 0 
935.8536 625.7311 -23 0 0 0 
935.5947 626.6971 -23 0 0 0 
806.9617 1106.762 -23 0 0 0 
806.7029 1107.728 -23 0 0 0 
806.444 1108.694 -23 0 0 0 
806.1852 1109.66 -23 0 0 0 
805.9264 1110.626 -23 0 0 0 
805.6676 1111.592 -23 0 0 0 
936.1124 624.7652 -22 0 0 0 
935.8536 625.7311 -22 0 0 0 
935.5947 626.6971 -22 0 0 0 
806.444 1108.694 -22 0 0 0 
806.1852 1109.66 -22 0 0 0 
805.9264 1110.626 -22 0 0 0 
805.6676 1111.592 -22 0 0 0 
805.4088 1112.558 -22 0 0 0 
805.1499 1113.524 -22 0 0 0 
804.8911 1114.49 -22 0 0 0 
936.1124 624.7652 -21 0 0 0 
935.8536 625.7311 -21 0 0 0 
805.4088 1112.558 -21 0 0 0 
805.1499 1113.524 -21 0 0 0 
804.8911 1114.49 -21 0 0 0 
804.6323 1115.456 -21 0 0 0 
804.3735 1116.422 -21 0 0 0 
804.1146 1117.387 -21 0 0 0 
936.3712 623.7993 -20 0 0 0 
936.1124 624.7652 -20 0 0 0 
804.3735 1116.422 -20 0 0 0 
804.1146 1117.387 -20 0 0 0 
803.8558 1118.353 -20 0 0 0 
803.597 1119.319 -20 0 0 0 
936.63 622.8334 -19 0 0 0 
936.3712 623.7993 -19 0 0 0 
803.3382 1120.285 -19 0 0 0 
803.0793 1121.251 -19 0 0 0 
802.8206 1122.217 -19 0 0 0 
936.63 622.8334 -18 0 0 0 
936.3712 623.7993 -18 0 0 0 
803.0793 1121.251 -18 0 0 0 
802.8206 1122.217 -18 0 0 0 
802.5618 1123.183 -18 0 0 0 
802.3029 1124.149 -18 0 0 0 
936.8889 621.8674 -17 0 0 0 
936.63 622.8334 -17 0 0 0 
802.5618 1123.183 -17 0 0 0 
802.3029 1124.149 -17 0 0 0 
802.0441 1125.115 -17 0 0 0 
801.7853 1126.081 -17 0 0 0 
801.5265 1127.047 -17 0 0 0 
801.2677 1128.013 -17 0 0 0 
937.1476 620.9015 -16 0 0 0 
936.8889 621.8674 -16 0 0 0 
936.63 622.8334 -16 0 0 0 
802.0441 1125.115 -16 0 0 0 
801.7853 1126.081 -16 0 0 0 
801.5265 1127.047 -16 0 0 0 
801.2677 1128.013 -16 0 0 0 
801.0089 1128.979 -16 0 0 0 
800.75 1129.944 -16 0 0 0 
800.4912 1130.91 -16 0 0 0 
937.1476 620.9015 -15 0 0 0 
936.8889 621.8674 -15 0 0 0 
801.2677 1128.013 -15 0 0 0 
801.0089 1128.979 -15 0 0 0 
800.75 1129.944 -15 0 0 0 
800.4912 1130.91 -15 0 0 0 
800.2324 1131.876 -15 0 0 0 
799.9736 1132.842 -15 0 0 0 
799.7147 1133.808 -15 0 0 0 
937.4065 619.9356 -14 0 0 0 
937.1476 620.9015 -14 0 0 0 
936.8889 621.8674 -14 0 0 0 
800.75 1129.944 -14 0 0 0 
800.4912 1130.91 -14 0 0 0 
800.2324 1131.876 -14 0 0 0 
799.9736 1132.842 -14 0 0 0 
799.7147 1133.808 -14 0 0 0 
799.4559 1134.774 -14 0 0 0 
799.1971 1135.74 -14 0 0 0 
937.4065 619.9356 -13 0 0 0 
937.1476 620.9015 -13 0 0 0 
800.2324 1131.876 -13 0 0 0 
799.9736 1132.842 -13 0 0 0 
799.7147 1133.808 -13 0 0 0 
799.4559 1134.774 -13 0 0 0 
799.1971 1135.74 -13 0 0 0 
798.9383 1136.706 -13 0 0 0 
798.6794 1137.672 -13 0 0 0 
798.4207 1138.638 -13 0 0 0 
798.1619 1139.604 -13 0 0 0 
797.903 1140.57 -13 0 0 0 
937.6653 618.9697 -12 0 0 0 
937.4065 619.9356 -12 0 0 0 
937.1476 620.9015 -12 0 0 0 
799.1971 1135.74 -12 0 0 0 
798.9383 1136.706 -12 0 0 0 
798.6794 1137.672 -12 0 0 0 
798.4207 1138.638 -12 0 0 0 
798.1619 1139.604 -12 0 0 0 
797.903 1140.57 -12 0 0 0 
797.6442 1141.536 -12 0 0 0 
797.3854 1142.501 -12 0 0 0 
937.6653 618.9697 -11 0 0 0 
937.4065 619.9356 -11 0 0 0 
798.1619 1139.604 -11 0 0 0 
797.903 1140.57 -11 0 0 0 
797.6442 1141.536 -11 0 0 0 
