ply
format ascii 1.0
comment VCGLIB generated
element vertex 1721
property float x
property float y
property float z
property float nx
property float ny
property float nz
element face 0
property list uchar int vertex_indices
end_header
860.5372 906.8156 21 0 0 0 
860.2784 907.7815 21 0 0 0 
860.0196 908.7473 21 0 0 0 
859.7607 909.7134 21 0 0 0 
859.502 910.6792 21 0 0 0 
859.2431 911.6453 21 0 0 0 
858.9843 912.6111 21 0 0 0 
858.7255 913.577 21 0 0 0 
858.4667 914.543 21 0 0 0 
858.2078 915.5089 21 0 0 0 
857.949 916.4749 21 0 0 0 
857.6902 917.4407 21 0 0 0 
857.4314 918.4067 21 0 0 0 
857.1726 919.3726 21 0 0 0 
856.9138 920.3385 21 0 0 0 
856.6549 921.3044 21 0 0 0 
856.3961 922.2704 21 0 0 0 
856.1373 923.2363 21 0 0 0 
855.8785 924.2021 21 0 0 0 
855.6196 925.1682 21 0 0 0 
855.3608 926.134 21 0 0 0 
863.6431 895.2244 22 0 0 0 
863.3842 896.1904 22 0 0 0 
863.1254 897.1562 22 0 0 0 
862.8666 898.1222 22 0 0 0 
862.6078 899.0881 22 0 0 0 
862.3489 900.0541 22 0 0 0 
862.0901 901.02 22 0 0 0 
861.8313 901.9858 22 0 0 0 
861.5725 902.9519 22 0 0 0 
861.3137 903.9177 22 0 0 0 
861.0549 904.8838 22 0 0 0 
860.796 905.8496 22 0 0 0 
860.5372 906.8156 22 0 0 0 
860.2784 907.7815 22 0 0 0 
860.0196 908.7473 22 0 0 0 
859.7607 909.7134 22 0 0 0 
859.502 910.6792 22 0 0 0 
859.2431 911.6453 22 0 0 0 
857.4314 918.4067 22 0 0 0 
857.1726 919.3726 22 0 0 0 
856.9138 920.3385 22 0 0 0 
856.6549 921.3044 22 0 0 0 
856.3961 922.2704 22 0 0 0 
856.1373 923.2363 22 0 0 0 
855.8785 924.2021 22 0 0 0 
855.6196 925.1682 22 0 0 0 
855.3608 926.134 22 0 0 0 
855.1021 927.1 22 0 0 0 
854.8432 928.0659 22 0 0 0 
854.5844 929.0319 22 0 0 0 
864.6783 891.3607 23 0 0 0 
864.4195 892.3267 23 0 0 0 
864.1607 893.2926 23 0 0 0 
863.9019 894.2585 23 0 0 0 
863.6431 895.2244 23 0 0 0 
863.3842 896.1904 23 0 0 0 
863.1254 897.1562 23 0 0 0 
862.8666 898.1222 23 0 0 0 
862.6078 899.0881 23 0 0 0 
862.3489 900.0541 23 0 0 0 
862.0901 901.02 23 0 0 0 
861.8313 901.9858 23 0 0 0 
861.5725 902.9519 23 0 0 0 
861.3137 903.9177 23 0 0 0 
861.0549 904.8838 23 0 0 0 
860.796 905.8496 23 0 0 0 
856.9138 920.3385 23 0 0 0 
856.6549 921.3044 23 0 0 0 
856.3961 922.2704 23 0 0 0 
856.1373 923.2363 23 0 0 0 
855.8785 924.2021 23 0 0 0 
855.6196 925.1682 23 0 0 0 
855.3608 926.134 23 0 0 0 
855.1021 927.1 23 0 0 0 
854.8432 928.0659 23 0 0 0 
854.5844 929.0319 23 0 0 0 
854.3256 929.9978 23 0 0 0 
854.0668 930.9636 23 0 0 0 
866.2312 885.5652 24 0 0 0 
865.9724 886.5311 24 0 0 0 
865.7136 887.4971 24 0 0 0 
865.4548 888.4629 24 0 0 0 
865.1959 889.429 24 0 0 0 
864.9371 890.3948 24 0 0 0 
864.6783 891.3607 24 0 0 0 
864.4195 892.3267 24 0 0 0 
864.1607 893.2926 24 0 0 0 
863.9019 894.2585 24 0 0 0 
863.6431 895.2244 24 0 0 0 
863.3842 896.1904 24 0 0 0 
863.1254 897.1562 24 0 0 0 
862.8666 898.1222 24 0 0 0 
862.6078 899.0881 24 0 0 0 
862.3489 900.0541 24 0 0 0 
862.0901 901.02 24 0 0 0 
861.8313 901.9858 24 0 0 0 
861.5725 902.9519 24 0 0 0 
861.3137 903.9177 24 0 0 0 
861.0549 904.8838 24 0 0 0 
855.6196 925.1682 24 0 0 0 
855.3608 926.134 24 0 0 0 
855.1021 927.1 24 0 0 0 
854.8432 928.0659 24 0 0 0 
854.5844 929.0319 24 0 0 0 
854.3256 929.9978 24 0 0 0 
854.0668 930.9636 24 0 0 0 
853.8079 931.9297 24 0 0 0 
853.5491 932.8955 24 0 0 0 
867.7842 879.7697 25 0 0 0 
867.5253 880.7356 25 0 0 0 
867.2665 881.7014 25 0 0 0 
867.0077 882.6675 25 0 0 0 
866.7489 883.6333 25 0 0 0 
866.4901 884.5992 25 0 0 0 
866.2312 885.5652 25 0 0 0 
865.9724 886.5311 25 0 0 0 
865.7136 887.4971 25 0 0 0 
865.4548 888.4629 25 0 0 0 
865.1959 889.429 25 0 0 0 
864.9371 890.3948 25 0 0 0 
864.6783 891.3607 25 0 0 0 
864.4195 892.3267 25 0 0 0 
864.1607 893.2926 25 0 0 0 
863.9019 894.2585 25 0 0 0 
863.6431 895.2244 25 0 0 0 
863.3842 896.1904 25 0 0 0 
863.1254 897.1562 25 0 0 0 
862.8666 898.1222 25 0 0 0 
862.6078 899.0881 25 0 0 0 
862.3489 900.0541 25 0 0 0 
854.8432 928.0659 25 0 0 0 
854.5844 929.0319 25 0 0 0 
854.3256 929.9978 25 0 0 0 
854.0668 930.9636 25 0 0 0 
853.8079 931.9297 25 0 0 0 
853.5491 932.8955 25 0 0 0 
853.2903 933.8615 25 0 0 0 
853.0315 934.8274 25 0 0 0 
852.7726 935.7933 25 0 0 0 
852.5138 936.7593 25 0 0 0 
868.3018 877.8378 26 0 0 0 
868.043 878.8037 26 0 0 0 
867.7842 879.7697 26 0 0 0 
867.5253 880.7356 26 0 0 0 
867.2665 881.7014 26 0 0 0 
867.0077 882.6675 26 0 0 0 
866.7489 883.6333 26 0 0 0 
866.4901 884.5992 26 0 0 0 
866.2312 885.5652 26 0 0 0 
865.9724 886.5311 26 0 0 0 
865.7136 887.4971 26 0 0 0 
865.4548 888.4629 26 0 0 0 
865.1959 889.429 26 0 0 0 
864.9371 890.3948 26 0 0 0 
864.6783 891.3607 26 0 0 0 
864.4195 892.3267 26 0 0 0 
854.3256 929.9978 26 0 0 0 
854.0668 930.9636 26 0 0 0 
853.8079 931.9297 26 0 0 0 
853.5491 932.8955 26 0 0 0 
853.2903 933.8615 26 0 0 0 
853.0315 934.8274 26 0 0 0 
852.7726 935.7933 26 0 0 0 
852.5138 936.7593 26 0 0 0 
852.255 937.7251 26 0 0 0 
851.9962 938.6912 26 0 0 0 
851.7374 939.657 26 0 0 0 
851.4785 940.623 26 0 0 0 
851.2197 941.5889 26 0 0 0 
868.5606 876.8718 27 0 0 0 
868.3018 877.8378 27 0 0 0 
868.043 878.8037 27 0 0 0 
867.7842 879.7697 27 0 0 0 
867.5253 880.7356 27 0 0 0 
867.2665 881.7014 27 0 0 0 
867.0077 882.6675 27 0 0 0 
866.7489 883.6333 27 0 0 0 
866.4901 884.5992 27 0 0 0 
866.2312 885.5652 27 0 0 0 
865.9724 886.5311 27 0 0 0 
865.7136 887.4971 27 0 0 0 
865.4548 888.4629 27 0 0 0 
854.0668 930.9636 27 0 0 0 
853.8079 931.9297 27 0 0 0 
853.5491 932.8955 27 0 0 0 
853.2903 933.8615 27 0 0 0 
853.0315 934.8274 27 0 0 0 
852.7726 935.7933 27 0 0 0 
852.5138 936.7593 27 0 0 0 
852.255 937.7251 27 0 0 0 
851.9962 938.6912 27 0 0 0 
851.7374 939.657 27 0 0 0 
851.4785 940.623 27 0 0 0 
851.2197 941.5889 27 0 0 0 
850.9609 942.5548 27 0 0 0 
850.7021 943.5208 27 0 0 0 
850.4432 944.4866 27 0 0 0 
868.8195 875.906 28 0 0 0 
868.5606 876.8718 28 0 0 0 
868.3018 877.8378 28 0 0 0 
868.043 878.8037 28 0 0 0 
867.7842 879.7697 28 0 0 0 
867.5253 880.7356 28 0 0 0 
867.2665 881.7014 28 0 0 0 
867.0077 882.6675 28 0 0 0 
866.7489 883.6333 28 0 0 0 
853.5491 932.8955 28 0 0 0 
853.2903 933.8615 28 0 0 0 
853.0315 934.8274 28 0 0 0 
852.7726 935.7933 28 0 0 0 
852.5138 936.7593 28 0 0 0 
852.255 937.7251 28 0 0 0 
851.9962 938.6912 28 0 0 0 
851.7374 939.657 28 0 0 0 
851.4785 940.623 28 0 0 0 
851.2197 941.5889 28 0 0 0 
850.9609 942.5548 28 0 0 0 
850.7021 943.5208 28 0 0 0 
850.4432 944.4866 28 0 0 0 
850.1844 945.4526 28 0 0 0 
849.9257 946.4185 28 0 0 0 
869.337 873.9741 29 0 0 0 
869.0782 874.9399 29 0 0 0 
868.8195 875.906 29 0 0 0 
868.5606 876.8718 29 0 0 0 
868.3018 877.8378 29 0 0 0 
868.043 878.8037 29 0 0 0 
867.7842 879.7697 29 0 0 0 
867.5253 880.7356 29 0 0 0 
852.5138 936.7593 29 0 0 0 
852.255 937.7251 29 0 0 0 
851.9962 938.6912 29 0 0 0 
851.7374 939.657 29 0 0 0 
851.4785 940.623 29 0 0 0 
851.2197 941.5889 29 0 0 0 
850.9609 942.5548 29 0 0 0 
850.7021 943.5208 29 0 0 0 
850.4432 944.4866 29 0 0 0 
850.1844 945.4526 29 0 0 0 
849.9257 946.4185 29 0 0 0 
849.6668 947.3845 29 0 0 0 
849.408 948.3503 29 0 0 0 
869.5959 873.0082 30 0 0 0 
869.337 873.9741 30 0 0 0 
869.0782 874.9399 30 0 0 0 
868.8195 875.906 30 0 0 0 
868.5606 876.8718 30 0 0 0 
868.3018 877.8378 30 0 0 0 
868.043 878.8037 30 0 0 0 
851.7374 939.657 30 0 0 0 
851.4785 940.623 30 0 0 0 
851.2197 941.5889 30 0 0 0 
850.9609 942.5548 30 0 0 0 
850.7021 943.5208 30 0 0 0 
850.4432 944.4866 30 0 0 0 
850.1844 945.4526 30 0 0 0 
849.9257 946.4185 30 0 0 0 
849.6668 947.3845 30 0 0 0 
849.408 948.3503 30 0 0 0 
849.1492 949.3163 30 0 0 0 
848.8904 950.2822 30 0 0 0 
848.6315 951.2482 30 0 0 0 
870.1135 871.0763 31 0 0 0 
869.8547 872.0422 31 0 0 0 
869.5959 873.0082 31 0 0 0 
869.337 873.9741 31 0 0 0 
869.0782 874.9399 31 0 0 0 
868.8195 875.906 31 0 0 0 
868.5606 876.8718 31 0 0 0 
851.2197 941.5889 31 0 0 0 
850.9609 942.5548 31 0 0 0 
850.7021 943.5208 31 0 0 0 
850.4432 944.4866 31 0 0 0 
850.1844 945.4526 31 0 0 0 
849.9257 946.4185 31 0 0 0 
849.6668 947.3845 31 0 0 0 
849.408 948.3503 31 0 0 0 
849.1492 949.3163 31 0 0 0 
848.8904 950.2822 31 0 0 0 
848.6315 951.2482 31 0 0 0 
848.3727 952.2141 31 0 0 0 
848.1139 953.1799 31 0 0 0 
870.3723 870.1104 32 0 0 0 
870.1135 871.0763 32 0 0 0 
869.8547 872.0422 32 0 0 0 
869.5959 873.0082 32 0 0 0 
869.337 873.9741 32 0 0 0 
869.0782 874.9399 32 0 0 0 
868.8195 875.906 32 0 0 0 
850.7021 943.5208 32 0 0 0 
850.4432 944.4866 32 0 0 0 
850.1844 945.4526 32 0 0 0 
849.9257 946.4185 32 0 0 0 
849.6668 947.3845 32 0 0 0 
849.408 948.3503 32 0 0 0 
849.1492 949.3163 32 0 0 0 
848.8904 950.2822 32 0 0 0 
848.6315 951.2482 32 0 0 0 
848.3727 952.2141 32 0 0 0 
848.1139 953.1799 32 0 0 0 
847.8551 954.146 32 0 0 0 
847.5963 955.1118 32 0 0 0 
847.3375 956.0778 32 0 0 0 
847.0786 957.0437 32 0 0 0 
870.89 868.1785 33 0 0 0 
870.6312 869.1445 33 0 0 0 
870.3723 870.1104 33 0 0 0 
870.1135 871.0763 33 0 0 0 
869.8547 872.0422 33 0 0 0 
869.5959 873.0082 33 0 0 0 
849.6668 947.3845 33 0 0 0 
849.408 948.3503 33 0 0 0 
849.1492 949.3163 33 0 0 0 
848.8904 950.2822 33 0 0 0 
848.6315 951.2482 33 0 0 0 
848.3727 952.2141 33 0 0 0 
848.1139 953.1799 33 0 0 0 
847.8551 954.146 33 0 0 0 
847.5963 955.1118 33 0 0 0 
847.3375 956.0778 33 0 0 0 
847.0786 957.0437 33 0 0 0 
846.8198 958.0096 33 0 0 0 
846.561 958.9756 33 0 0 0 
871.1488 867.2126 34 0 0 0 
870.89 868.1785 34 0 0 0 
870.6312 869.1445 34 0 0 0 
870.3723 870.1104 34 0 0 0 
870.1135 871.0763 34 0 0 0 
869.8547 872.0422 34 0 0 0 
848.8904 950.2822 34 0 0 0 
848.6315 951.2482 34 0 0 0 
848.3727 952.2141 34 0 0 0 
848.1139 953.1799 34 0 0 0 
847.8551 954.146 34 0 0 0 
847.5963 955.1118 34 0 0 0 
847.3375 956.0778 34 0 0 0 
847.0786 957.0437 34 0 0 0 
846.8198 958.0096 34 0 0 0 
846.561 958.9756 34 0 0 0 
846.3022 959.9414 34 0 0 0 
846.0433 960.9075 34 0 0 0 
845.7845 961.8733 34 0 0 0 
845.5257 962.8392 34 0 0 0 
871.6664 865.2808 35 0 0 0 
871.4076 866.2466 35 0 0 0 
871.1488 867.2126 35 0 0 0 
870.89 868.1785 35 0 0 0 
870.6312 869.1445 35 0 0 0 
870.3723 870.1104 35 0 0 0 
870.1135 871.0763 35 0 0 0 
848.3727 952.2141 35 0 0 0 
848.1139 953.1799 35 0 0 0 
847.8551 954.146 35 0 0 0 
847.5963 955.1118 35 0 0 0 
847.3375 956.0778 35 0 0 0 
847.0786 957.0437 35 0 0 0 
846.8198 958.0096 35 0 0 0 
846.561 958.9756 35 0 0 0 
846.3022 959.9414 35 0 0 0 
846.0433 960.9075 35 0 0 0 
845.7845 961.8733 35 0 0 0 
845.5257 962.8392 35 0 0 0 
845.2669 963.8052 35 0 0 0 
845.0081 964.7711 35 0 0 0 
844.7493 965.7371 35 0 0 0 
871.9253 864.3148 36 0 0 0 
871.6664 865.2808 36 0 0 0 
871.4076 866.2466 36 0 0 0 
871.1488 867.2126 36 0 0 0 
870.89 868.1785 36 0 0 0 
870.6312 869.1445 36 0 0 0 
870.3723 870.1104 36 0 0 0 
847.3375 956.0778 36 0 0 0 
847.0786 957.0437 36 0 0 0 
846.8198 958.0096 36 0 0 0 
846.561 958.9756 36 0 0 0 
846.3022 959.9414 36 0 0 0 
846.0433 960.9075 36 0 0 0 
845.7845 961.8733 36 0 0 0 
845.5257 962.8392 36 0 0 0 
845.2669 963.8052 36 0 0 0 
845.0081 964.7711 36 0 0 0 
844.7493 965.7371 36 0 0 0 
844.4904 966.7029 36 0 0 0 
844.2316 967.6689 36 0 0 0 
843.9728 968.6348 36 0 0 0 
843.714 969.6007 36 0 0 0 
843.4551 970.5667 36 0 0 0 
843.1964 971.5326 36 0 0 0 
872.4429 862.3829 37 0 0 0 
872.1841 863.3489 37 0 0 0 
871.9253 864.3148 37 0 0 0 
871.6664 865.2808 37 0 0 0 
871.4076 866.2466 37 0 0 0 
871.1488 867.2126 37 0 0 0 
870.89 868.1785 37 0 0 0 
870.6312 869.1445 37 0 0 0 
846.3022 959.9414 37 0 0 0 
846.0433 960.9075 37 0 0 0 
845.7845 961.8733 37 0 0 0 
845.5257 962.8392 37 0 0 0 
845.2669 963.8052 37 0 0 0 
845.0081 964.7711 37 0 0 0 
844.7493 965.7371 37 0 0 0 
844.4904 966.7029 37 0 0 0 
844.2316 967.6689 37 0 0 0 
843.9728 968.6348 37 0 0 0 
843.714 969.6007 37 0 0 0 
843.4551 970.5667 37 0 0 0 
843.1964 971.5326 37 0 0 0 
842.9375 972.4985 37 0 0 0 
842.6787 973.4644 37 0 0 0 
842.4199 974.4304 37 0 0 0 
842.1611 975.3962 37 0 0 0 
872.9605 860.4512 38 0 0 0 
872.7017 861.417 38 0 0 0 
872.4429 862.3829 38 0 0 0 
872.1841 863.3489 38 0 0 0 
871.9253 864.3148 38 0 0 0 
871.6664 865.2808 38 0 0 0 
871.4076 866.2466 38 0 0 0 
871.1488 867.2126 38 0 0 0 
845.0081 964.7711 38 0 0 0 
844.2316 967.6689 38 0 0 0 
843.9728 968.6348 38 0 0 0 
843.714 969.6007 38 0 0 0 
843.4551 970.5667 38 0 0 0 
843.1964 971.5326 38 0 0 0 
842.9375 972.4985 38 0 0 0 
842.6787 973.4644 38 0 0 0 
842.4199 974.4304 38 0 0 0 
842.1611 975.3962 38 0 0 0 
841.9022 976.3622 38 0 0 0 
841.6434 977.3281 38 0 0 0 
841.3846 978.2941 38 0 0 0 
873.2194 859.4851 39 0 0 0 
872.9605 860.4512 39 0 0 0 
872.7017 861.417 39 0 0 0 
872.4429 862.3829 39 0 0 0 
872.1841 863.3489 39 0 0 0 
871.9253 864.3148 39 0 0 0 
871.6664 865.2808 39 0 0 0 
843.4551 970.5667 39 0 0 0 
843.1964 971.5326 39 0 0 0 
842.9375 972.4985 39 0 0 0 
842.6787 973.4644 39 0 0 0 
842.4199 974.4304 39 0 0 0 
842.1611 975.3962 39 0 0 0 
841.9022 976.3622 39 0 0 0 
841.6434 977.3281 39 0 0 0 
841.3846 978.2941 39 0 0 0 
841.1258 979.26 39 0 0 0 
840.8669 980.2258 39 0 0 0 
840.6082 981.1919 39 0 0 0 
840.3494 982.1577 39 0 0 0 
840.0905 983.1238 39 0 0 0 
839.8317 984.0896 39 0 0 0 
873.737 857.5533 40 0 0 0 
873.4781 858.5193 40 0 0 0 
873.2194 859.4851 40 0 0 0 
872.9605 860.4512 40 0 0 0 
872.7017 861.417 40 0 0 0 
872.4429 862.3829 40 0 0 0 
842.4199 974.4304 40 0 0 0 
842.1611 975.3962 40 0 0 0 
841.9022 976.3622 40 0 0 0 
841.6434 977.3281 40 0 0 0 
841.3846 978.2941 40 0 0 0 
841.1258 979.26 40 0 0 0 
840.8669 980.2258 40 0 0 0 
840.6082 981.1919 40 0 0 0 
840.3494 982.1577 40 0 0 0 
840.0905 983.1238 40 0 0 0 
839.8317 984.0896 40 0 0 0 
839.5729 985.0555 40 0 0 0 
839.3141 986.0215 40 0 0 0 
839.0552 986.9873 40 0 0 0 
838.7964 987.9534 40 0 0 0 
838.5376 988.9192 40 0 0 0 
838.2788 989.8853 40 0 0 0 
938.9594 614.14 41 0 0 0 
938.7006 615.106 41 0 0 0 
938.4418 616.0719 41 0 0 0 
874.2546 855.6215 41 0 0 0 
873.9958 856.5874 41 0 0 0 
873.737 857.5533 41 0 0 0 
873.4781 858.5193 41 0 0 0 
873.2194 859.4851 41 0 0 0 
872.9605 860.4512 41 0 0 0 
872.7017 861.417 41 0 0 0 
841.3846 978.2941 41 0 0 0 
841.1258 979.26 41 0 0 0 
840.8669 980.2258 41 0 0 0 
840.6082 981.1919 41 0 0 0 
840.3494 982.1577 41 0 0 0 
840.0905 983.1238 41 0 0 0 
839.8317 984.0896 41 0 0 0 
839.5729 985.0555 41 0 0 0 
839.3141 986.0215 41 0 0 0 
839.0552 986.9873 41 0 0 0 
838.7964 987.9534 41 0 0 0 
838.5376 988.9192 41 0 0 0 
838.2788 989.8853 41 0 0 0 
838.02 990.8511 41 0 0 0 
837.7611 991.817 41 0 0 0 
837.5023 992.783 41 0 0 0 
837.2435 993.7489 41 0 0 0 
836.9847 994.7148 41 0 0 0 
938.9594 614.14 42 0 0 0 
938.7006 615.106 42 0 0 0 
875.0311 852.7236 42 0 0 0 
874.7723 853.6897 42 0 0 0 
874.5134 854.6555 42 0 0 0 
874.2546 855.6215 42 0 0 0 
873.9958 856.5874 42 0 0 0 
873.737 857.5533 42 0 0 0 
873.4781 858.5193 42 0 0 0 
873.2194 859.4851 42 0 0 0 
872.9605 860.4512 42 0 0 0 
840.6082 981.1919 42 0 0 0 
840.3494 982.1577 42 0 0 0 
840.0905 983.1238 42 0 0 0 
839.8317 984.0896 42 0 0 0 
839.5729 985.0555 42 0 0 0 
839.3141 986.0215 42 0 0 0 
839.0552 986.9873 42 0 0 0 
838.7964 987.9534 42 0 0 0 
838.5376 988.9192 42 0 0 0 
838.2788 989.8853 42 0 0 0 
838.02 990.8511 42 0 0 0 
837.7611 991.817 42 0 0 0 
837.5023 992.783 42 0 0 0 
837.2435 993.7489 42 0 0 0 
836.9847 994.7148 42 0 0 0 
836.7258 995.6807 42 0 0 0 
836.467 996.6467 42 0 0 0 
836.2083 997.6125 42 0 0 0 
835.9494 998.5785 42 0 0 0 
835.6906 999.5444 42 0 0 0 
938.9594 614.14 43 0 0 0 
938.7006 615.106 43 0 0 0 
875.5487 850.7919 43 0 0 0 
875.2899 851.7578 43 0 0 0 
875.0311 852.7236 43 0 0 0 
874.7723 853.6897 43 0 0 0 
874.5134 854.6555 43 0 0 0 
874.2546 855.6215 43 0 0 0 
873.9958 856.5874 43 0 0 0 
873.737 857.5533 43 0 0 0 
839.8317 984.0896 43 0 0 0 
839.5729 985.0555 43 0 0 0 
839.3141 986.0215 43 0 0 0 
839.0552 986.9873 43 0 0 0 
838.7964 987.9534 43 0 0 0 
838.5376 988.9192 43 0 0 0 
838.2788 989.8853 43 0 0 0 
838.02 990.8511 43 0 0 0 
837.7611 991.817 43 0 0 0 
837.5023 992.783 43 0 0 0 
837.2435 993.7489 43 0 0 0 
836.9847 994.7148 43 0 0 0 
836.7258 995.6807 43 0 0 0 
836.467 996.6467 43 0 0 0 
836.2083 997.6125 43 0 0 0 
835.9494 998.5785 43 0 0 0 
835.6906 999.5444 43 0 0 0 
835.4318 1000.51 43 0 0 0 
835.173 1001.476 43 0 0 0 
834.9141 1002.442 43 0 0 0 
834.6553 1003.408 43 0 0 0 
938.9594 614.14 44 0 0 0 
938.7006 615.106 44 0 0 0 
876.0663 848.86 44 0 0 0 
875.8076 849.8259 44 0 0 0 
875.5487 850.7919 44 0 0 0 
875.2899 851.7578 44 0 0 0 
875.0311 852.7236 44 0 0 0 
874.7723 853.6897 44 0 0 0 
874.5134 854.6555 44 0 0 0 
874.2546 855.6215 44 0 0 0 
838.2788 989.8853 44 0 0 0 
838.02 990.8511 44 0 0 0 
837.7611 991.817 44 0 0 0 
837.5023 992.783 44 0 0 0 
837.2435 993.7489 44 0 0 0 
836.9847 994.7148 44 0 0 0 
836.7258 995.6807 44 0 0 0 
836.467 996.6467 44 0 0 0 
836.2083 997.6125 44 0 0 0 
835.9494 998.5785 44 0 0 0 
835.6906 999.5444 44 0 0 0 
835.4318 1000.51 44 0 0 0 
835.173 1001.476 44 0 0 0 
834.9141 1002.442 44 0 0 0 
834.6553 1003.408 44 0 0 0 
834.3965 1004.374 44 0 0 0 
834.1377 1005.34 44 0 0 0 
833.8788 1006.306 44 0 0 0 
833.6201 1007.272 44 0 0 0 
833.3612 1008.238 44 0 0 0 
939.2182 613.1741 45 0 0 0 
938.9594 614.14 45 0 0 0 
876.584 846.9282 45 0 0 0 
876.3252 847.894 45 0 0 0 
876.0663 848.86 45 0 0 0 
875.8076 849.8259 45 0 0 0 
875.5487 850.7919 45 0 0 0 
875.2899 851.7578 45 0 0 0 
875.0311 852.7236 45 0 0 0 
874.7723 853.6897 45 0 0 0 
874.5134 854.6555 45 0 0 0 
836.467 996.6467 45 0 0 0 
836.2083 997.6125 45 0 0 0 
835.9494 998.5785 45 0 0 0 
835.6906 999.5444 45 0 0 0 
835.4318 1000.51 45 0 0 0 
835.173 1001.476 45 0 0 0 
834.9141 1002.442 45 0 0 0 
834.6553 1003.408 45 0 0 0 
834.3965 1004.374 45 0 0 0 
834.1377 1005.34 45 0 0 0 
833.8788 1006.306 45 0 0 0 
833.6201 1007.272 45 0 0 0 
833.3612 1008.238 45 0 0 0 
833.1024 1009.204 45 0 0 0 
832.8436 1010.17 45 0 0 0 
832.5847 1011.135 45 0 0 0 
832.3259 1012.101 45 0 0 0 
832.0671 1013.067 45 0 0 0 
831.8083 1014.033 45 0 0 0 
831.5495 1014.999 45 0 0 0 
831.2906 1015.965 45 0 0 0 
831.0319 1016.931 45 0 0 0 
939.2182 613.1741 46 0 0 0 
938.9594 614.14 46 0 0 0 
877.1016 844.9963 46 0 0 0 
876.8428 845.9622 46 0 0 0 
876.584 846.9282 46 0 0 0 
876.3252 847.894 46 0 0 0 
876.0663 848.86 46 0 0 0 
875.8076 849.8259 46 0 0 0 
875.5487 850.7919 46 0 0 0 
875.2899 851.7578 46 0 0 0 
834.1377 1005.34 46 0 0 0 
833.8788 1006.306 46 0 0 0 
833.6201 1007.272 46 0 0 0 
833.3612 1008.238 46 0 0 0 
833.1024 1009.204 46 0 0 0 
832.8436 1010.17 46 0 0 0 
832.5847 1011.135 46 0 0 0 
832.3259 1012.101 46 0 0 0 
832.0671 1013.067 46 0 0 0 
831.8083 1014.033 46 0 0 0 
831.5495 1014.999 46 0 0 0 
831.2906 1015.965 46 0 0 0 
831.0319 1016.931 46 0 0 0 
830.7731 1017.897 46 0 0 0 
830.5142 1018.863 46 0 0 0 
830.2554 1019.829 46 0 0 0 
829.9966 1020.795 46 0 0 0 
829.7378 1021.761 46 0 0 0 
829.4789 1022.727 46 0 0 0 
829.2201 1023.693 46 0 0 0 
828.9613 1024.658 46 0 0 0 
828.7025 1025.625 46 0 0 0 
939.2182 613.1741 47 0 0 0 
938.9594 614.14 47 0 0 0 
877.6193 843.0645 47 0 0 0 
877.3605 844.0304 47 0 0 0 
877.1016 844.9963 47 0 0 0 
876.8428 845.9622 47 0 0 0 
876.584 846.9282 47 0 0 0 
876.3252 847.894 47 0 0 0 
876.0663 848.86 47 0 0 0 
875.8076 849.8259 47 0 0 0 
875.5487 850.7919 47 0 0 0 
833.1024 1009.204 47 0 0 0 
832.8436 1010.17 47 0 0 0 
832.5847 1011.135 47 0 0 0 
832.3259 1012.101 47 0 0 0 
832.0671 1013.067 47 0 0 0 
831.8083 1014.033 47 0 0 0 
831.5495 1014.999 47 0 0 0 
831.2906 1015.965 47 0 0 0 
831.0319 1016.931 47 0 0 0 
830.7731 1017.897 47 0 0 0 
830.5142 1018.863 47 0 0 0 
830.2554 1019.829 47 0 0 0 
829.9966 1020.795 47 0 0 0 
829.7378 1021.761 47 0 0 0 
829.4789 1022.727 47 0 0 0 
829.2201 1023.693 47 0 0 0 
828.9613 1024.658 47 0 0 0 
828.7025 1025.625 47 0 0 0 
828.4437 1026.59 47 0 0 0 
828.1848 1027.556 47 0 0 0 
827.926 1028.522 47 0 0 0 
827.6672 1029.488 47 0 0 0 
827.4084 1030.454 47 0 0 0 
827.1495 1031.42 47 0 0 0 
939.2182 613.1741 48 0 0 0 
878.1369 841.1326 48 0 0 0 
877.8781 842.0985 48 0 0 0 
877.6193 843.0645 48 0 0 0 
877.3605 844.0304 48 0 0 0 
877.1016 844.9963 48 0 0 0 
876.8428 845.9622 48 0 0 0 
876.584 846.9282 48 0 0 0 
876.3252 847.894 48 0 0 0 
876.0663 848.86 48 0 0 0 
831.2906 1015.965 48 0 0 0 
831.0319 1016.931 48 0 0 0 
830.7731 1017.897 48 0 0 0 
830.5142 1018.863 48 0 0 0 
830.2554 1019.829 48 0 0 0 
829.9966 1020.795 48 0 0 0 
829.7378 1021.761 48 0 0 0 
829.4789 1022.727 48 0 0 0 
829.2201 1023.693 48 0 0 0 
828.9613 1024.658 48 0 0 0 
828.7025 1025.625 48 0 0 0 
828.4437 1026.59 48 0 0 0 
828.1848 1027.556 48 0 0 0 
827.926 1028.522 48 0 0 0 
827.6672 1029.488 48 0 0 0 
827.4084 1030.454 48 0 0 0 
827.1495 1031.42 48 0 0 0 
826.8907 1032.386 48 0 0 0 
826.632 1033.352 48 0 0 0 
826.3731 1034.318 48 0 0 0 
939.2182 613.1741 49 0 0 0 
878.6545 839.2007 49 0 0 0 
878.3958 840.1667 49 0 0 0 
878.1369 841.1326 49 0 0 0 
877.8781 842.0985 49 0 0 0 
877.6193 843.0645 49 0 0 0 
877.3605 844.0304 49 0 0 0 
877.1016 844.9963 49 0 0 0 
876.8428 845.9622 49 0 0 0 
876.584 846.9282 49 0 0 0 
876.3252 847.894 49 0 0 0 
829.2201 1023.693 49 0 0 0 
828.9613 1024.658 49 0 0 0 
828.7025 1025.625 49 0 0 0 
828.4437 1026.59 49 0 0 0 
828.1848 1027.556 49 0 0 0 
827.926 1028.522 49 0 0 0 
827.6672 1029.488 49 0 0 0 
827.4084 1030.454 49 0 0 0 
827.1495 1031.42 49 0 0 0 
826.8907 1032.386 49 0 0 0 
826.632 1033.352 49 0 0 0 
826.3731 1034.318 49 0 0 0 
826.1143 1035.284 49 0 0 0 
825.8555 1036.25 49 0 0 0 
825.5967 1037.216 49 0 0 0 
825.3378 1038.181 49 0 0 0 
825.079 1039.147 49 0 0 0 
939.4771 612.2082 50 0 0 0 
939.2182 613.1741 50 0 0 0 
879.431 836.303 50 0 0 0 
879.1722 837.2689 50 0 0 0 
878.9134 838.2348 50 0 0 0 
878.6545 839.2007 50 0 0 0 
878.3958 840.1667 50 0 0 0 
878.1369 841.1326 50 0 0 0 
877.8781 842.0985 50 0 0 0 
877.6193 843.0645 50 0 0 0 
827.6672 1029.488 50 0 0 0 
827.4084 1030.454 50 0 0 0 
827.1495 1031.42 50 0 0 0 
826.8907 1032.386 50 0 0 0 
826.632 1033.352 50 0 0 0 
826.3731 1034.318 50 0 0 0 
826.1143 1035.284 50 0 0 0 
825.8555 1036.25 50 0 0 0 
825.5967 1037.216 50 0 0 0 
825.3378 1038.181 50 0 0 0 
825.079 1039.147 50 0 0 0 
824.8202 1040.113 50 0 0 0 
824.5614 1041.079 50 0 0 0 
824.3026 1042.045 50 0 0 0 
824.0437 1043.011 50 0 0 0 
823.7849 1043.977 50 0 0 0 
939.4771 612.2082 51 0 0 0 
939.2182 613.1741 51 0 0 0 
879.9486 834.3711 51 0 0 0 
879.6898 835.337 51 0 0 0 
879.431 836.303 51 0 0 0 
879.1722 837.2689 51 0 0 0 
878.9134 838.2348 51 0 0 0 
878.6545 839.2007 51 0 0 0 
878.3958 840.1667 51 0 0 0 
878.1369 841.1326 51 0 0 0 
877.8781 842.0985 51 0 0 0 
825.079 1039.147 51 0 0 0 
824.8202 1040.113 51 0 0 0 
824.5614 1041.079 51 0 0 0 
824.3026 1042.045 51 0 0 0 
824.0437 1043.011 51 0 0 0 
823.7849 1043.977 51 0 0 0 
823.5261 1044.943 51 0 0 0 
823.2673 1045.909 51 0 0 0 
823.0084 1046.875 51 0 0 0 
822.7496 1047.841 51 0 0 0 
822.4908 1048.807 51 0 0 0 
822.232 1049.773 51 0 0 0 
939.4771 612.2082 52 0 0 0 
939.2182 613.1741 52 0 0 0 
880.7251 831.4733 52 0 0 0 
880.4663 832.4393 52 0 0 0 
880.2075 833.4052 52 0 0 0 
879.9486 834.3711 52 0 0 0 
879.6898 835.337 52 0 0 0 
879.431 836.303 52 0 0 0 
879.1722 837.2689 52 0 0 0 
878.9134 838.2348 52 0 0 0 
878.6545 839.2007 52 0 0 0 
823.7849 1043.977 52 0 0 0 
823.5261 1044.943 52 0 0 0 
823.2673 1045.909 52 0 0 0 
823.0084 1046.875 52 0 0 0 
822.7496 1047.841 52 0 0 0 
822.4908 1048.807 52 0 0 0 
822.232 1049.773 52 0 0 0 
821.9731 1050.739 52 0 0 0 
821.7144 1051.704 52 0 0 0 
821.4556 1052.67 52 0 0 0 
821.1967 1053.636 52 0 0 0 
820.9379 1054.602 52 0 0 0 
820.6791 1055.568 52 0 0 0 
820.4203 1056.534 52 0 0 0 
939.4771 612.2082 53 0 0 0 
939.2182 613.1741 53 0 0 0 
881.2427 829.5415 53 0 0 0 
880.9839 830.5074 53 0 0 0 
880.7251 831.4733 53 0 0 0 
880.4663 832.4393 53 0 0 0 
880.2075 833.4052 53 0 0 0 
879.9486 834.3711 53 0 0 0 
879.6898 835.337 53 0 0 0 
879.431 836.303 53 0 0 0 
879.1722 837.2689 53 0 0 0 
821.9731 1050.739 53 0 0 0 
821.7144 1051.704 53 0 0 0 
821.4556 1052.67 53 0 0 0 
821.1967 1053.636 53 0 0 0 
820.9379 1054.602 53 0 0 0 
820.6791 1055.568 53 0 0 0 
820.4203 1056.534 53 0 0 0 
820.1614 1057.5 53 0 0 0 
819.9026 1058.466 53 0 0 0 
819.6438 1059.432 53 0 0 0 
819.385 1060.398 53 0 0 0 
819.1262 1061.364 53 0 0 0 
818.8673 1062.33 53 0 0 0 
818.6085 1063.296 53 0 0 0 
939.4771 612.2082 54 0 0 0 
939.2182 613.1741 54 0 0 0 
881.7604 827.6096 54 0 0 0 
881.5016 828.5756 54 0 0 0 
881.2427 829.5415 54 0 0 0 
880.9839 830.5074 54 0 0 0 
880.7251 831.4733 54 0 0 0 
880.4663 832.4393 54 0 0 0 
880.2075 833.4052 54 0 0 0 
821.4556 1052.67 54 0 0 0 
821.1967 1053.636 54 0 0 0 
820.9379 1054.602 54 0 0 0 
820.6791 1055.568 54 0 0 0 
820.4203 1056.534 54 0 0 0 
820.1614 1057.5 54 0 0 0 
819.385 1060.398 54 0 0 0 
819.1262 1061.364 54 0 0 0 
818.8673 1062.33 54 0 0 0 
818.6085 1063.296 54 0 0 0 
818.3497 1064.261 54 0 0 0 
818.0909 1065.227 54 0 0 0 
817.832 1066.193 54 0 0 0 
817.5732 1067.159 54 0 0 0 
817.3145 1068.125 54 0 0 0 
939.4771 612.2082 55 0 0 0 
939.2182 613.1741 55 0 0 0 
882.7957 823.7459 55 0 0 0 
882.5369 824.7119 55 0 0 0 
882.278 825.6778 55 0 0 0 
882.0192 826.6437 55 0 0 0 
881.7604 827.6096 55 0 0 0 
881.5016 828.5756 55 0 0 0 
881.2427 829.5415 55 0 0 0 
880.9839 830.5074 55 0 0 0 
880.7251 831.4733 55 0 0 0 
880.4663 832.4393 55 0 0 0 
818.6085 1063.296 55 0 0 0 
818.3497 1064.261 55 0 0 0 
818.0909 1065.227 55 0 0 0 
817.832 1066.193 55 0 0 0 
817.5732 1067.159 55 0 0 0 
817.3145 1068.125 55 0 0 0 
817.0556 1069.091 55 0 0 0 
816.7968 1070.057 55 0 0 0 
816.538 1071.023 55 0 0 0 
816.2792 1071.989 55 0 0 0 
816.0204 1072.955 55 0 0 0 
815.7615 1073.921 55 0 0 0 
815.2439 1075.853 55 0 0 0 
939.7358 611.2422 56 0 0 0 
939.4771 612.2082 56 0 0 0 
939.2182 613.1741 56 0 0 0 
883.3133 821.8141 56 0 0 0 
883.0544 822.78 56 0 0 0 
882.7957 823.7459 56 0 0 0 
882.5369 824.7119 56 0 0 0 
882.278 825.6778 56 0 0 0 
882.0192 826.6437 56 0 0 0 
881.7604 827.6096 56 0 0 0 
881.5016 828.5756 56 0 0 0 
881.2427 829.5415 56 0 0 0 
880.9839 830.5074 56 0 0 0 
817.0556 1069.091 56 0 0 0 
816.7968 1070.057 56 0 0 0 
816.538 1071.023 56 0 0 0 
816.2792 1071.989 56 0 0 0 
816.0204 1072.955 56 0 0 0 
815.7615 1073.921 56 0 0 0 
815.5027 1074.887 56 0 0 0 
815.2439 1075.853 56 0 0 0 
814.9851 1076.818 56 0 0 0 
814.7263 1077.784 56 0 0 0 
814.4674 1078.75 56 0 0 0 
814.2086 1079.716 56 0 0 0 
939.7358 611.2422 57 0 0 0 
939.4771 612.2082 57 0 0 0 
939.2182 613.1741 57 0 0 0 
884.0897 818.9163 57 0 0 0 
883.8309 819.8822 57 0 0 0 
883.5721 820.8481 57 0 0 0 
883.3133 821.8141 57 0 0 0 
883.0544 822.78 57 0 0 0 
882.7957 823.7459 57 0 0 0 
882.5369 824.7119 57 0 0 0 
882.278 825.6778 57 0 0 0 
882.0192 826.6437 57 0 0 0 
816.2792 1071.989 57 0 0 0 
816.0204 1072.955 57 0 0 0 
815.7615 1073.921 57 0 0 0 
815.5027 1074.887 57 0 0 0 
815.2439 1075.853 57 0 0 0 
814.9851 1076.818 57 0 0 0 
814.7263 1077.784 57 0 0 0 
814.4674 1078.75 57 0 0 0 
814.2086 1079.716 57 0 0 0 
813.9498 1080.682 57 0 0 0 
813.691 1081.648 57 0 0 0 
813.4321 1082.614 57 0 0 0 
939.7358 611.2422 58 0 0 0 
939.4771 612.2082 58 0 0 0 
884.6074 816.9844 58 0 0 0 
884.3486 817.9504 58 0 0 0 
884.0897 818.9163 58 0 0 0 
883.8309 819.8822 58 0 0 0 
883.5721 820.8481 58 0 0 0 
883.3133 821.8141 58 0 0 0 
883.0544 822.78 58 0 0 0 
882.7957 823.7459 58 0 0 0 
882.5369 824.7119 58 0 0 0 
882.278 825.6778 58 0 0 0 
815.2439 1075.853 58 0 0 0 
814.9851 1076.818 58 0 0 0 
814.7263 1077.784 58 0 0 0 
814.4674 1078.75 58 0 0 0 
814.2086 1079.716 58 0 0 0 
813.9498 1080.682 58 0 0 0 
813.691 1081.648 58 0 0 0 
813.4321 1082.614 58 0 0 0 
813.1733 1083.58 58 0 0 0 
812.9146 1084.546 58 0 0 0 
812.6557 1085.512 58 0 0 0 
812.3969 1086.478 58 0 0 0 
939.7358 611.2422 59 0 0 0 
939.4771 612.2082 59 0 0 0 
885.125 815.0526 59 0 0 0 
884.8662 816.0186 59 0 0 0 
884.6074 816.9844 59 0 0 0 
884.3486 817.9504 59 0 0 0 
884.0897 818.9163 59 0 0 0 
883.8309 819.8822 59 0 0 0 
883.5721 820.8481 59 0 0 0 
883.3133 821.8141 59 0 0 0 
883.0544 822.78 59 0 0 0 
814.4674 1078.75 59 0 0 0 
814.2086 1079.716 59 0 0 0 
813.9498 1080.682 59 0 0 0 
813.691 1081.648 59 0 0 0 
813.4321 1082.614 59 0 0 0 
813.1733 1083.58 59 0 0 0 
812.9146 1084.546 59 0 0 0 
812.6557 1085.512 59 0 0 0 
812.3969 1086.478 59 0 0 0 
812.1381 1087.444 59 0 0 0 
811.8793 1088.41 59 0 0 0 
811.6204 1089.375 59 0 0 0 
811.3616 1090.341 59 0 0 0 
811.1028 1091.307 59 0 0 0 
939.7358 611.2422 60 0 0 0 
939.4771 612.2082 60 0 0 0 
885.9015 812.1548 60 0 0 0 
885.6427 813.1207 60 0 0 0 
885.3839 814.0867 60 0 0 0 
885.125 815.0526 60 0 0 0 
884.8662 816.0186 60 0 0 0 
884.6074 816.9844 60 0 0 0 
884.3486 817.9504 60 0 0 0 
884.0897 818.9163 60 0 0 0 
813.691 1081.648 60 0 0 0 
813.4321 1082.614 60 0 0 0 
813.1733 1083.58 60 0 0 0 
812.9146 1084.546 60 0 0 0 
812.6557 1085.512 60 0 0 0 
812.3969 1086.478 60 0 0 0 
812.1381 1087.444 60 0 0 0 
811.8793 1088.41 60 0 0 0 
811.6204 1089.375 60 0 0 0 
811.3616 1090.341 60 0 0 0 
811.1028 1091.307 60 0 0 0 
810.844 1092.273 60 0 0 0 
810.5851 1093.239 60 0 0 0 
810.3263 1094.205 60 0 0 0 
810.0675 1095.171 60 0 0 0 
939.7358 611.2422 61 0 0 0 
939.4771 612.2082 61 0 0 0 
886.678 809.257 61 0 0 0 
886.4191 810.223 61 0 0 0 
886.1603 811.1889 61 0 0 0 
885.9015 812.1548 61 0 0 0 
885.6427 813.1207 61 0 0 0 
885.3839 814.0867 61 0 0 0 
885.125 815.0526 61 0 0 0 
884.8662 816.0186 61 0 0 0 
884.6074 816.9844 61 0 0 0 
812.6557 1085.512 61 0 0 0 
812.3969 1086.478 61 0 0 0 
812.1381 1087.444 61 0 0 0 
811.8793 1088.41 61 0 0 0 
811.6204 1089.375 61 0 0 0 
811.3616 1090.341 61 0 0 0 
811.1028 1091.307 61 0 0 0 
810.844 1092.273 61 0 0 0 
810.5851 1093.239 61 0 0 0 
810.3263 1094.205 61 0 0 0 
810.0675 1095.171 61 0 0 0 
809.8087 1096.137 61 0 0 0 
809.5499 1097.103 61 0 0 0 
809.291 1098.069 61 0 0 0 
939.7358 611.2422 62 0 0 0 
939.4771 612.2082 62 0 0 0 
939.2182 613.1741 62 0 0 0 
886.9368 808.2911 62 0 0 0 
886.678 809.257 62 0 0 0 
886.4191 810.223 62 0 0 0 
886.1603 811.1889 62 0 0 0 
885.9015 812.1548 62 0 0 0 
885.6427 813.1207 62 0 0 0 
885.3839 814.0867 62 0 0 0 
885.125 815.0526 62 0 0 0 
811.8793 1088.41 62 0 0 0 
811.6204 1089.375 62 0 0 0 
811.3616 1090.341 62 0 0 0 
811.1028 1091.307 62 0 0 0 
810.844 1092.273 62 0 0 0 
810.5851 1093.239 62 0 0 0 
810.3263 1094.205 62 0 0 0 
810.0675 1095.171 62 0 0 0 
809.8087 1096.137 62 0 0 0 
809.5499 1097.103 62 0 0 0 
809.291 1098.069 62 0 0 0 
809.0322 1099.035 62 0 0 0 
808.7734 1100.001 62 0 0 0 
808.5146 1100.967 62 0 0 0 
808.2557 1101.933 62 0 0 0 
939.4771 612.2082 63 0 0 0 
939.2182 613.1741 63 0 0 0 
887.972 804.4274 63 0 0 0 
887.7132 805.3934 63 0 0 0 
887.4544 806.3593 63 0 0 0 
887.1956 807.3252 63 0 0 0 
886.9368 808.2911 63 0 0 0 
886.678 809.257 63 0 0 0 
886.4191 810.223 63 0 0 0 
810.3263 1094.205 63 0 0 0 
810.0675 1095.171 63 0 0 0 
809.8087 1096.137 63 0 0 0 
809.5499 1097.103 63 0 0 0 
809.291 1098.069 63 0 0 0 
809.0322 1099.035 63 0 0 0 
808.7734 1100.001 63 0 0 0 
808.5146 1100.967 63 0 0 0 
808.2557 1101.933 63 0 0 0 
807.9969 1102.898 63 0 0 0 
807.7382 1103.864 63 0 0 0 
807.4793 1104.83 63 0 0 0 
807.2205 1105.796 63 0 0 0 
806.9617 1106.762 63 0 0 0 
939.4771 612.2082 64 0 0 0 
939.2182 613.1741 64 0 0 0 
938.9594 614.14 64 0 0 0 
888.7485 801.5297 64 0 0 0 
888.4897 802.4955 64 0 0 0 
888.2308 803.4615 64 0 0 0 
887.972 804.4274 64 0 0 0 
887.7132 805.3934 64 0 0 0 
887.4544 806.3593 64 0 0 0 
887.1956 807.3252 64 0 0 0 
886.9368 808.2911 64 0 0 0 
809.8087 1096.137 64 0 0 0 
809.5499 1097.103 64 0 0 0 
809.291 1098.069 64 0 0 0 
809.0322 1099.035 64 0 0 0 
808.7734 1100.001 64 0 0 0 
808.5146 1100.967 64 0 0 0 
808.2557 1101.933 64 0 0 0 
807.9969 1102.898 64 0 0 0 
807.7382 1103.864 64 0 0 0 
807.4793 1104.83 64 0 0 0 
807.2205 1105.796 64 0 0 0 
806.9617 1106.762 64 0 0 0 
806.7029 1107.728 64 0 0 0 
806.444 1108.694 64 0 0 0 
806.1852 1109.66 64 0 0 0 
805.9264 1110.626 64 0 0 0 
939.2182 613.1741 65 0 0 0 
938.9594 614.14 65 0 0 0 
889.2661 799.5978 65 0 0 0 
889.0073 800.5637 65 0 0 0 
888.7485 801.5297 65 0 0 0 
888.4897 802.4955 65 0 0 0 
888.2308 803.4615 65 0 0 0 
887.972 804.4274 65 0 0 0 
887.7132 805.3934 65 0 0 0 
887.4544 806.3593 65 0 0 0 
887.1956 807.3252 65 0 0 0 
807.7382 1103.864 65 0 0 0 
807.4793 1104.83 65 0 0 0 
807.2205 1105.796 65 0 0 0 
806.9617 1106.762 65 0 0 0 
806.7029 1107.728 65 0 0 0 
806.444 1108.694 65 0 0 0 
806.1852 1109.66 65 0 0 0 
805.9264 1110.626 65 0 0 0 
805.6676 1111.592 65 0 0 0 
805.4088 1112.558 65 0 0 0 
805.1499 1113.524 65 0 0 0 
804.8911 1114.49 65 0 0 0 
804.6323 1115.456 65 0 0 0 
939.2182 613.1741 66 0 0 0 
938.9594 614.14 66 0 0 0 
938.7006 615.106 66 0 0 0 
889.7838 797.666 66 0 0 0 
889.525 798.6318 66 0 0 0 
889.2661 799.5978 66 0 0 0 
889.0073 800.5637 66 0 0 0 
888.7485 801.5297 66 0 0 0 
888.4897 802.4955 66 0 0 0 
888.2308 803.4615 66 0 0 0 
887.972 804.4274 66 0 0 0 
887.7132 805.3934 66 0 0 0 
887.4544 806.3593 66 0 0 0 
807.2205 1105.796 66 0 0 0 
806.9617 1106.762 66 0 0 0 
806.7029 1107.728 66 0 0 0 
806.444 1108.694 66 0 0 0 
806.1852 1109.66 66 0 0 0 
805.9264 1110.626 66 0 0 0 
805.6676 1111.592 66 0 0 0 
805.4088 1112.558 66 0 0 0 
805.1499 1113.524 66 0 0 0 
804.8911 1114.49 66 0 0 0 
804.6323 1115.456 66 0 0 0 
804.3735 1116.422 66 0 0 0 
804.1146 1117.387 66 0 0 0 
803.8558 1118.353 66 0 0 0 
803.597 1119.319 66 0 0 0 
939.2182 613.1741 67 0 0 0 
938.9594 614.14 67 0 0 0 
938.7006 615.106 67 0 0 0 
890.5602 794.7682 67 0 0 0 
890.3014 795.7341 67 0 0 0 
890.0426 796.7 67 0 0 0 
889.7838 797.666 67 0 0 0 
889.525 798.6318 67 0 0 0 
889.2661 799.5978 67 0 0 0 
889.0073 800.5637 67 0 0 0 
888.7485 801.5297 67 0 0 0 
888.4897 802.4955 67 0 0 0 
888.2308 803.4615 67 0 0 0 
806.1852 1109.66 67 0 0 0 
805.9264 1110.626 67 0 0 0 
805.6676 1111.592 67 0 0 0 
805.4088 1112.558 67 0 0 0 
805.1499 1113.524 67 0 0 0 
804.8911 1114.49 67 0 0 0 
804.6323 1115.456 67 0 0 0 
804.3735 1116.422 67 0 0 0 
804.1146 1117.387 67 0 0 0 
803.8558 1118.353 67 0 0 0 
803.597 1119.319 67 0 0 0 
803.3382 1120.285 67 0 0 0 
803.0793 1121.251 67 0 0 0 
802.8206 1122.217 67 0 0 0 
802.5618 1123.183 67 0 0 0 
802.3029 1124.149 67 0 0 0 
802.0441 1125.115 67 0 0 0 
801.7853 1126.081 67 0 0 0 
939.4771 612.2082 68 0 0 0 
939.2182 613.1741 68 0 0 0 
938.9594 614.14 68 0 0 0 
938.7006 615.106 68 0 0 0 
938.4418 616.0719 68 0 0 0 
891.3367 791.8704 68 0 0 0 
891.0779 792.8363 68 0 0 0 
890.819 793.8022 68 0 0 0 
890.5602 794.7682 68 0 0 0 
890.3014 795.7341 68 0 0 0 
890.0426 796.7 68 0 0 0 
889.7838 797.666 68 0 0 0 
889.525 798.6318 68 0 0 0 
889.2661 799.5978 68 0 0 0 
805.1499 1113.524 68 0 0 0 
804.8911 1114.49 68 0 0 0 
804.6323 1115.456 68 0 0 0 
804.3735 1116.422 68 0 0 0 
804.1146 1117.387 68 0 0 0 
803.8558 1118.353 68 0 0 0 
803.597 1119.319 68 0 0 0 
803.3382 1120.285 68 0 0 0 
803.0793 1121.251 68 0 0 0 
802.8206 1122.217 68 0 0 0 
802.5618 1123.183 68 0 0 0 
802.3029 1124.149 68 0 0 0 
802.0441 1125.115 68 0 0 0 
801.7853 1126.081 68 0 0 0 
801.5265 1127.047 68 0 0 0 
801.2677 1128.013 68 0 0 0 
801.0089 1128.979 68 0 0 0 
800.75 1129.944 68 0 0 0 
939.2182 613.1741 69 0 0 0 
938.9594 614.14 69 0 0 0 
938.7006 615.106 69 0 0 0 
938.4418 616.0719 69 0 0 0 
892.1132 788.9726 69 0 0 0 
891.8543 789.9385 69 0 0 0 
891.5955 790.9045 69 0 0 0 
891.3367 791.8704 69 0 0 0 
891.0779 792.8363 69 0 0 0 
890.819 793.8022 69 0 0 0 
890.5602 794.7682 69 0 0 0 
890.3014 795.7341 69 0 0 0 
890.0426 796.7 69 0 0 0 
889.7838 797.666 69 0 0 0 
802.8206 1122.217 69 0 0 0 
802.5618 1123.183 69 0 0 0 
802.3029 1124.149 69 0 0 0 
802.0441 1125.115 69 0 0 0 
801.7853 1126.081 69 0 0 0 
801.5265 1127.047 69 0 0 0 
801.2677 1128.013 69 0 0 0 
801.0089 1128.979 69 0 0 0 
800.75 1129.944 69 0 0 0 
800.4912 1130.91 69 0 0 0 
800.2324 1131.876 69 0 0 0 
799.9736 1132.842 69 0 0 0 
799.7147 1133.808 69 0 0 0 
799.4559 1134.774 69 0 0 0 
799.1971 1135.74 69 0 0 0 
938.9594 614.14 70 0 0 0 
938.7006 615.106 70 0 0 0 
938.4418 616.0719 70 0 0 0 
892.8896 786.0748 70 0 0 0 
892.6308 787.0408 70 0 0 0 
892.3719 788.0067 70 0 0 0 
892.1132 788.9726 70 0 0 0 
891.8543 789.9385 70 0 0 0 
891.5955 790.9045 70 0 0 0 
891.3367 791.8704 70 0 0 0 
891.0779 792.8363 70 0 0 0 
890.819 793.8022 70 0 0 0 
890.5602 794.7682 70 0 0 0 
801.7853 1126.081 70 0 0 0 
801.5265 1127.047 70 0 0 0 
801.2677 1128.013 70 0 0 0 
801.0089 1128.979 70 0 0 0 
800.75 1129.944 70 0 0 0 
800.4912 1130.91 70 0 0 0 
800.2324 1131.876 70 0 0 0 
799.9736 1132.842 70 0 0 0 
799.7147 1133.808 70 0 0 0 
799.4559 1134.774 70 0 0 0 
799.1971 1135.74 70 0 0 0 
798.9383 1136.706 70 0 0 0 
798.6794 1137.672 70 0 0 0 
798.4207 1138.638 70 0 0 0 
798.1619 1139.604 70 0 0 0 
797.903 1140.57 70 0 0 0 
938.7006 615.106 71 0 0 0 
938.4418 616.0719 71 0 0 0 
893.6661 783.1771 71 0 0 0 
893.4072 784.1429 71 0 0 0 
893.1484 785.1089 71 0 0 0 
892.8896 786.0748 71 0 0 0 
892.6308 787.0408 71 0 0 0 
892.3719 788.0067 71 0 0 0 
892.1132 788.9726 71 0 0 0 
891.8543 789.9385 71 0 0 0 
891.5955 790.9045 71 0 0 0 
891.3367 791.8704 71 0 0 0 
891.0779 792.8363 71 0 0 0 
800.4912 1130.91 71 0 0 0 
800.2324 1131.876 71 0 0 0 
799.9736 1132.842 71 0 0 0 
799.7147 1133.808 71 0 0 0 
799.4559 1134.774 71 0 0 0 
799.1971 1135.74 71 0 0 0 
798.9383 1136.706 71 0 0 0 
798.6794 1137.672 71 0 0 0 
798.4207 1138.638 71 0 0 0 
798.1619 1139.604 71 0 0 0 
797.903 1140.57 71 0 0 0 
797.6442 1141.536 71 0 0 0 
797.3854 1142.501 71 0 0 0 
797.1266 1143.467 71 0 0 0 
796.8677 1144.433 71 0 0 0 
938.7006 615.106 72 0 0 0 
938.4418 616.0719 72 0 0 0 
938.1829 617.0378 72 0 0 0 
894.1837 781.2452 72 0 0 0 
893.9249 782.2111 72 0 0 0 
893.6661 783.1771 72 0 0 0 
893.4072 784.1429 72 0 0 0 
893.1484 785.1089 72 0 0 0 
892.8896 786.0748 72 0 0 0 
892.6308 787.0408 72 0 0 0 
892.3719 788.0067 72 0 0 0 
892.1132 788.9726 72 0 0 0 
891.8543 789.9385 72 0 0 0 
891.5955 790.9045 72 0 0 0 
799.4559 1134.774 72 0 0 0 
799.1971 1135.74 72 0 0 0 
798.9383 1136.706 72 0 0 0 
798.6794 1137.672 72 0 0 0 
798.4207 1138.638 72 0 0 0 
798.1619 1139.604 72 0 0 0 
797.903 1140.57 72 0 0 0 
797.6442 1141.536 72 0 0 0 
797.3854 1142.501 72 0 0 0 
797.1266 1143.467 72 0 0 0 
796.8677 1144.433 72 0 0 0 
796.6089 1145.399 72 0 0 0 
796.3501 1146.365 72 0 0 0 
796.0913 1147.331 72 0 0 0 
938.4418 616.0719 73 0 0 0 
938.1829 617.0378 73 0 0 0 
894.9601 778.3474 73 0 0 0 
894.7013 779.3134 73 0 0 0 
894.4425 780.2793 73 0 0 0 
894.1837 781.2452 73 0 0 0 
893.9249 782.2111 73 0 0 0 
893.6661 783.1771 73 0 0 0 
893.4072 784.1429 73 0 0 0 
893.1484 785.1089 73 0 0 0 
892.8896 786.0748 73 0 0 0 
797.3854 1142.501 73 0 0 0 
797.1266 1143.467 73 0 0 0 
796.8677 1144.433 73 0 0 0 
796.6089 1145.399 73 0 0 0 
796.3501 1146.365 73 0 0 0 
796.0913 1147.331 73 0 0 0 
795.8325 1148.297 73 0 0 0 
795.5736 1149.263 73 0 0 0 
795.3148 1150.229 73 0 0 0 
938.4418 616.0719 74 0 0 0 
938.1829 617.0378 74 0 0 0 
937.9241 618.0037 74 0 0 0 
895.7366 775.4496 74 0 0 0 
895.4778 776.4156 74 0 0 0 
895.219 777.3815 74 0 0 0 
894.9601 778.3474 74 0 0 0 
894.7013 779.3134 74 0 0 0 
894.4425 780.2793 74 0 0 0 
894.1837 781.2452 74 0 0 0 
893.9249 782.2111 74 0 0 0 
893.6661 783.1771 74 0 0 0 
893.4072 784.1429 74 0 0 0 
893.1484 785.1089 74 0 0 0 
796.8677 1144.433 74 0 0 0 
796.6089 1145.399 74 0 0 0 
796.3501 1146.365 74 0 0 0 
796.0913 1147.331 74 0 0 0 
795.8325 1148.297 74 0 0 0 
795.5736 1149.263 74 0 0 0 
795.3148 1150.229 74 0 0 0 
795.056 1151.195 74 0 0 0 
794.7972 1152.161 74 0 0 0 
938.1829 617.0378 75 0 0 0 
937.9241 618.0037 75 0 0 0 
896.5131 772.5519 75 0 0 0 
896.2543 773.5178 75 0 0 0 
895.9954 774.4837 75 0 0 0 
895.7366 775.4496 75 0 0 0 
895.4778 776.4156 75 0 0 0 
895.219 777.3815 75 0 0 0 
894.9601 778.3474 75 0 0 0 
894.7013 779.3134 75 0 0 0 
894.4425 780.2793 75 0 0 0 
894.1837 781.2452 75 0 0 0 
796.0913 1147.331 75 0 0 0 
795.8325 1148.297 75 0 0 0 
795.5736 1149.263 75 0 0 0 
795.3148 1150.229 75 0 0 0 
795.056 1151.195 75 0 0 0 
794.7972 1152.161 75 0 0 0 
938.1829 617.0378 76 0 0 0 
937.9241 618.0037 76 0 0 0 
897.2896 769.6541 76 0 0 0 
897.0307 770.62 76 0 0 0 
896.7719 771.5859 76 0 0 0 
896.5131 772.5519 76 0 0 0 
896.2543 773.5178 76 0 0 0 
895.9954 774.4837 76 0 0 0 
895.7366 775.4496 76 0 0 0 
895.4778 776.4156 76 0 0 0 
895.219 777.3815 76 0 0 0 
894.9601 778.3474 76 0 0 0 
795.3148 1150.229 76 0 0 0 
795.056 1151.195 76 0 0 0 
794.7972 1152.161 76 0 0 0 
937.9241 618.0037 77 0 0 0 
937.6653 618.9697 77 0 0 0 
898.066 766.7563 77 0 0 0 
897.8071 767.7222 77 0 0 0 
897.5483 768.6882 77 0 0 0 
897.2896 769.6541 77 0 0 0 
897.0307 770.62 77 0 0 0 
896.7719 771.5859 77 0 0 0 
896.5131 772.5519 77 0 0 0 
896.2543 773.5178 77 0 0 0 
895.9954 774.4837 77 0 0 0 
794.7972 1152.161 77 0 0 0 
937.9241 618.0037 78 0 0 0 
937.6653 618.9697 78 0 0 0 
937.4065 619.9356 78 0 0 0 
899.1013 762.8926 78 0 0 0 
898.8424 763.8585 78 0 0 0 
898.5836 764.8245 78 0 0 0 
898.3248 765.7904 78 0 0 0 
898.066 766.7563 78 0 0 0 
897.8071 767.7222 78 0 0 0 
897.5483 768.6882 78 0 0 0 
897.2896 769.6541 78 0 0 0 
897.0307 770.62 78 0 0 0 
896.7719 771.5859 78 0 0 0 
937.6653 618.9697 79 0 0 0 
937.4065 619.9356 79 0 0 0 
900.1365 759.0289 79 0 0 0 
899.8777 759.9948 79 0 0 0 
899.6189 760.9608 79 0 0 0 
899.3601 761.9267 79 0 0 0 
899.1013 762.8926 79 0 0 0 
898.8424 763.8585 79 0 0 0 
898.5836 764.8245 79 0 0 0 
898.3248 765.7904 79 0 0 0 
898.066 766.7563 79 0 0 0 
897.8071 767.7222 79 0 0 0 
937.6653 618.9697 80 0 0 0 
937.4065 619.9356 80 0 0 0 
937.1476 620.9015 80 0 0 0 
900.913 756.1311 80 0 0 0 
900.6542 757.097 80 0 0 0 
900.3954 758.063 80 0 0 0 
900.1365 759.0289 80 0 0 0 
899.8777 759.9948 80 0 0 0 
899.6189 760.9608 80 0 0 0 
899.3601 761.9267 80 0 0 0 
899.1013 762.8926 80 0 0 0 
898.8424 763.8585 80 0 0 0 
898.5836 764.8245 80 0 0 0 
898.3248 765.7904 80 0 0 0 
898.066 766.7563 80 0 0 0 
937.4065 619.9356 81 0 0 0 
937.1476 620.9015 81 0 0 0 
901.9482 752.2674 81 0 0 0 
901.6895 753.2333 81 0 0 0 
901.4307 754.1993 81 0 0 0 
901.1718 755.1652 81 0 0 0 
900.913 756.1311 81 0 0 0 
900.6542 757.097 81 0 0 0 
900.3954 758.063 81 0 0 0 
900.1365 759.0289 81 0 0 0 
899.8777 759.9948 81 0 0 0 
899.6189 760.9608 81 0 0 0 
899.3601 761.9267 81 0 0 0 
899.1013 762.8926 81 0 0 0 
937.1476 620.9015 82 0 0 0 
936.8889 621.8674 82 0 0 0 
902.7247 749.3696 82 0 0 0 
902.4659 750.3356 82 0 0 0 
902.2071 751.3015 82 0 0 0 
901.9482 752.2674 82 0 0 0 
901.6895 753.2333 82 0 0 0 
901.4307 754.1993 82 0 0 0 
901.1718 755.1652 82 0 0 0 
900.913 756.1311 82 0 0 0 
900.6542 757.097 82 0 0 0 
900.3954 758.063 82 0 0 0 
900.1365 759.0289 82 0 0 0 
899.8777 759.9948 82 0 0 0 
936.8889 621.8674 83 0 0 0 
936.63 622.8334 83 0 0 0 
903.76 745.5059 83 0 0 0 
903.5012 746.4719 83 0 0 0 
903.2424 747.4378 83 0 0 0 
902.9835 748.4037 83 0 0 0 
902.7247 749.3696 83 0 0 0 
902.4659 750.3356 83 0 0 0 
902.2071 751.3015 83 0 0 0 
901.9482 752.2674 83 0 0 0 
901.6895 753.2333 83 0 0 0 
901.4307 754.1993 83 0 0 0 
901.1718 755.1652 83 0 0 0 
900.913 756.1311 83 0 0 0 
900.6542 757.097 83 0 0 0 
936.8889 621.8674 84 0 0 0 
936.63 622.8334 84 0 0 0 
936.3712 623.7993 84 0 0 0 
904.7953 741.6422 84 0 0 0 
904.5364 742.6082 84 0 0 0 
904.2776 743.5741 84 0 0 0 
904.0188 744.54 84 0 0 0 
903.76 745.5059 84 0 0 0 
903.5012 746.4719 84 0 0 0 
903.2424 747.4378 84 0 0 0 
902.9835 748.4037 84 0 0 0 
902.7247 749.3696 84 0 0 0 
902.4659 750.3356 84 0 0 0 
902.2071 751.3015 84 0 0 0 
901.9482 752.2674 84 0 0 0 
901.6895 753.2333 84 0 0 0 
901.4307 754.1993 84 0 0 0 
936.63 622.8334 85 0 0 0 
936.3712 623.7993 85 0 0 0 
905.5717 738.7444 85 0 0 0 
905.3129 739.7104 85 0 0 0 
905.0541 740.6763 85 0 0 0 
904.7953 741.6422 85 0 0 0 
904.5364 742.6082 85 0 0 0 
904.2776 743.5741 85 0 0 0 
904.0188 744.54 85 0 0 0 
903.76 745.5059 85 0 0 0 
903.5012 746.4719 85 0 0 0 
903.2424 747.4378 85 0 0 0 
902.9835 748.4037 85 0 0 0 
902.7247 749.3696 85 0 0 0 
936.63 622.8334 86 0 0 0 
936.3712 623.7993 86 0 0 0 
936.1124 624.7652 86 0 0 0 
906.8658 733.9149 86 0 0 0 
906.607 734.8807 86 0 0 0 
906.3482 735.8467 86 0 0 0 
906.0894 736.8126 86 0 0 0 
905.8306 737.7786 86 0 0 0 
905.5717 738.7444 86 0 0 0 
905.3129 739.7104 86 0 0 0 
905.0541 740.6763 86 0 0 0 
904.7953 741.6422 86 0 0 0 
904.5364 742.6082 86 0 0 0 
904.2776 743.5741 86 0 0 0 
904.0188 744.54 86 0 0 0 
903.76 745.5059 86 0 0 0 
903.5012 746.4719 86 0 0 0 
903.2424 747.4378 86 0 0 0 
936.3712 623.7993 87 0 0 0 
936.1124 624.7652 87 0 0 0 
935.8536 625.7311 87 0 0 0 
908.6776 727.1534 87 0 0 0 
908.4188 728.1193 87 0 0 0 
908.1599 729.0852 87 0 0 0 
907.9011 730.0511 87 0 0 0 
907.6423 731.017 87 0 0 0 
907.3835 731.983 87 0 0 0 
907.1246 732.9489 87 0 0 0 
906.8658 733.9149 87 0 0 0 
906.607 734.8807 87 0 0 0 
906.3482 735.8467 87 0 0 0 
906.0894 736.8126 87 0 0 0 
905.8306 737.7786 87 0 0 0 
905.5717 738.7444 87 0 0 0 
905.3129 739.7104 87 0 0 0 
905.0541 740.6763 87 0 0 0 
904.7953 741.6422 87 0 0 0 
904.5364 742.6082 87 0 0 0 
904.2776 743.5741 87 0 0 0 
904.0188 744.54 87 0 0 0 
936.1124 624.7652 88 0 0 0 
935.8536 625.7311 88 0 0 0 
935.5947 626.6971 88 0 0 0 
908.6776 727.1534 88 0 0 0 
908.4188 728.1193 88 0 0 0 
908.1599 729.0852 88 0 0 0 
907.9011 730.0511 88 0 0 0 
907.6423 731.017 88 0 0 0 
907.3835 731.983 88 0 0 0 
907.1246 732.9489 88 0 0 0 
906.8658 733.9149 88 0 0 0 
906.607 734.8807 88 0 0 0 
906.3482 735.8467 88 0 0 0 
906.0894 736.8126 88 0 0 0 
905.8306 737.7786 88 0 0 0 
905.5717 738.7444 88 0 0 0 
905.3129 739.7104 88 0 0 0 
905.0541 740.6763 88 0 0 0 
935.8536 625.7311 89 0 0 0 
935.5947 626.6971 89 0 0 0 
935.3359 627.663 89 0 0 0 
908.6776 727.1534 89 0 0 0 
908.4188 728.1193 89 0 0 0 
908.1599 729.0852 89 0 0 0 
907.9011 730.0511 89 0 0 0 
907.6423 731.017 89 0 0 0 
907.3835 731.983 89 0 0 0 
907.1246 732.9489 89 0 0 0 
906.8658 733.9149 89 0 0 0 
906.607 734.8807 89 0 0 0 
935.5947 626.6971 90 0 0 0 
935.3359 627.663 90 0 0 0 
935.0771 628.6289 90 0 0 0 
908.9364 726.1874 90 0 0 0 
908.6776 727.1534 90 0 0 0 
908.4188 728.1193 90 0 0 0 
908.1599 729.0852 90 0 0 0 
907.9011 730.0511 90 0 0 0 
907.6423 731.017 90 0 0 0 
907.3835 731.983 90 0 0 0 
935.0771 628.6289 91 0 0 0 
934.8183 629.5948 91 0 0 0 
934.5594 630.5608 91 0 0 0 
909.454 724.2556 91 0 0 0 
909.1952 725.2215 91 0 0 0 
908.9364 726.1874 91 0 0 0 
908.6776 727.1534 91 0 0 0 
908.4188 728.1193 91 0 0 0 
908.1599 729.0852 91 0 0 0 
907.9011 730.0511 91 0 0 0 
934.8183 629.5948 92 0 0 0 
934.5594 630.5608 92 0 0 0 
934.3007 631.5267 92 0 0 0 
909.7128 723.2897 92 0 0 0 
909.454 724.2556 92 0 0 0 
909.1952 725.2215 92 0 0 0 
908.9364 726.1874 92 0 0 0 
908.6776 727.1534 92 0 0 0 
908.4188 728.1193 92 0 0 0 
908.1599 729.0852 92 0 0 0 
934.5594 630.5608 93 0 0 0 
934.3007 631.5267 93 0 0 0 
934.0418 632.4926 93 0 0 0 
933.783 633.4586 93 0 0 0 
910.2305 721.3578 93 0 0 0 
909.9717 722.3237 93 0 0 0 
909.7128 723.2897 93 0 0 0 
909.454 724.2556 93 0 0 0 
909.1952 725.2215 93 0 0 0 
908.9364 726.1874 93 0 0 0 
908.6776 727.1534 93 0 0 0 
934.3007 631.5267 94 0 0 0 
934.0418 632.4926 94 0 0 0 
933.783 633.4586 94 0 0 0 
933.5242 634.4245 94 0 0 0 
933.2654 635.3904 94 0 0 0 
910.4893 720.3918 94 0 0 0 
910.2305 721.3578 94 0 0 0 
909.9717 722.3237 94 0 0 0 
909.7128 723.2897 94 0 0 0 
909.454 724.2556 94 0 0 0 
909.1952 725.2215 94 0 0 0 
908.9364 726.1874 94 0 0 0 
934.0418 632.4926 95 0 0 0 
933.783 633.4586 95 0 0 0 
933.5242 634.4245 95 0 0 0 
933.2654 635.3904 95 0 0 0 
933.0065 636.3563 95 0 0 0 
911.007 718.46 95 0 0 0 
910.7481 719.426 95 0 0 0 
910.4893 720.3918 95 0 0 0 
910.2305 721.3578 95 0 0 0 
909.9717 722.3237 95 0 0 0 
909.7128 723.2897 95 0 0 0 
909.454 724.2556 95 0 0 0 
933.783 633.4586 96 0 0 0 
933.5242 634.4245 96 0 0 0 
933.2654 635.3904 96 0 0 0 
933.0065 636.3563 96 0 0 0 
932.7477 637.3223 96 0 0 0 
932.4889 638.2881 96 0 0 0 
911.7834 715.5623 96 0 0 0 
911.5245 716.5281 96 0 0 0 
911.2657 717.4941 96 0 0 0 
911.007 718.46 96 0 0 0 
910.7481 719.426 96 0 0 0 
910.4893 720.3918 96 0 0 0 
910.2305 721.3578 96 0 0 0 
933.2654 635.3904 97 0 0 0 
933.0065 636.3563 97 0 0 0 
932.7477 637.3223 97 0 0 0 
932.4889 638.2881 97 0 0 0 
932.2301 639.2541 97 0 0 0 
931.9713 640.22 97 0 0 0 
931.7125 641.186 97 0 0 0 
912.301 713.6304 97 0 0 0 
912.0422 714.5963 97 0 0 0 
911.7834 715.5623 97 0 0 0 
911.5245 716.5281 97 0 0 0 
