ply
format ascii 1.0
comment VCGLIB generated
element vertex 1604
property float x
property float y
property float z
property float nx
property float ny
property float nz
element face 0
property list uchar int vertex_indices
end_header
1020.439 1775 42.28629 0 0 0 
1020.439 1776 42.28629 0 0 0 
1020.439 1777 42.28629 0 0 0 
1020.439 1778 42.28629 0 0 0 
1020.439 1779 42.28629 0 0 0 
1020.439 1780 42.28629 0 0 0 
1020.439 1781 42.28629 0 0 0 
1020.439 1782 42.28629 0 0 0 
1020.439 1783 42.28629 0 0 0 
1020.439 1784 42.28629 0 0 0 
1020.439 1785 42.28629 0 0 0 
1020.439 1786 42.28629 0 0 0 
1020.439 1787 42.28629 0 0 0 
1020.439 1788 42.28629 0 0 0 
1020.439 1789 42.28629 0 0 0 
1020.439 1790 42.28629 0 0 0 
1020.439 1791 42.28629 0 0 0 
1020.439 1792 42.28629 0 0 0 
1020.439 1793 42.28629 0 0 0 
1020.439 1794 42.28629 0 0 0 
1020.439 1795 42.28629 0 0 0 
1020.439 1796 42.28629 0 0 0 
1020.439 1797 42.28629 0 0 0 
1020.439 1798 42.28629 0 0 0 
1020.439 1799 42.28629 0 0 0 
1020.439 1800 42.28629 0 0 0 
1020.439 1801 42.28629 0 0 0 
1020.439 1802 42.28629 0 0 0 
1020.439 1803 42.28629 0 0 0 
1020.439 1804 42.28629 0 0 0 
1020.439 1805 42.28629 0 0 0 
1020.439 1806 42.28629 0 0 0 
1020.439 1807 42.28629 0 0 0 
1020.439 1808 42.28629 0 0 0 
1020.439 1809 42.28629 0 0 0 
1020.439 1810 42.28629 0 0 0 
1020.439 1811 42.28629 0 0 0 
1020.439 1812 42.28629 0 0 0 
1020.439 1813 42.28629 0 0 0 
1020.439 1850 42.28629 0 0 0 
1020.439 1851 42.28629 0 0 0 
1020.439 1852 42.28629 0 0 0 
1020.439 1856 42.28629 0 0 0 
1020.439 1865 42.28629 0 0 0 
1020.439 1869 42.28629 0 0 0 
1020.439 1870 42.28629 0 0 0 
1020.439 1871 42.28629 0 0 0 
1020.439 1872 42.28629 0 0 0 
1020.439 1873 42.28629 0 0 0 
1020.439 1874 42.28629 0 0 0 
1020.439 1875 42.28629 0 0 0 
1020.439 1876 42.28629 0 0 0 
1020.439 1877 42.28629 0 0 0 
1020.439 1878 42.28629 0 0 0 
1020.439 1879 42.28629 0 0 0 
1020.439 1880 42.28629 0 0 0 
1020.439 1881 42.28629 0 0 0 
1020.439 1882 42.28629 0 0 0 
1020.439 1883 42.28629 0 0 0 
1020.439 1884 42.28629 0 0 0 
1020.439 1885 42.28629 0 0 0 
1020.508 1744 43.28384 0 0 0 
1020.508 1745 43.28384 0 0 0 
1020.508 1746 43.28384 0 0 0 
1020.508 1747 43.28384 0 0 0 
1020.508 1748 43.28384 0 0 0 
1020.508 1749 43.28384 0 0 0 
1020.508 1750 43.28384 0 0 0 
1020.508 1751 43.28384 0 0 0 
1020.508 1752 43.28384 0 0 0 
1020.508 1753 43.28384 0 0 0 
1020.508 1754 43.28384 0 0 0 
1020.508 1755 43.28384 0 0 0 
1020.508 1756 43.28384 0 0 0 
1020.508 1757 43.28384 0 0 0 
1020.508 1758 43.28384 0 0 0 
1020.508 1759 43.28384 0 0 0 
1020.508 1760 43.28384 0 0 0 
1020.508 1761 43.28384 0 0 0 
1020.508 1762 43.28384 0 0 0 
1020.508 1763 43.28384 0 0 0 
1020.508 1764 43.28384 0 0 0 
1020.508 1765 43.28384 0 0 0 
1020.508 1766 43.28384 0 0 0 
1020.508 1767 43.28384 0 0 0 
1020.508 1768 43.28384 0 0 0 
1020.508 1769 43.28384 0 0 0 
1020.508 1770 43.28384 0 0 0 
1020.508 1777 43.28384 0 0 0 
1020.508 1778 43.28384 0 0 0 
1020.508 1802 43.28384 0 0 0 
1020.508 1875 43.28384 0 0 0 
1020.508 1876 43.28384 0 0 0 
1020.508 1877 43.28384 0 0 0 
1020.508 1878 43.28384 0 0 0 
1020.508 1879 43.28384 0 0 0 
1020.508 1880 43.28384 0 0 0 
1020.508 1881 43.28384 0 0 0 
1020.508 1882 43.28384 0 0 0 
1020.508 1883 43.28384 0 0 0 
1020.508 1884 43.28384 0 0 0 
1020.508 1885 43.28384 0 0 0 
1020.508 1886 43.28384 0 0 0 
1020.508 1887 43.28384 0 0 0 
1020.508 1888 43.28384 0 0 0 
1020.508 1889 43.28384 0 0 0 
1020.578 1734 44.2814 0 0 0 
1020.578 1735 44.2814 0 0 0 
1020.578 1736 44.2814 0 0 0 
1020.578 1737 44.2814 0 0 0 
1020.578 1738 44.2814 0 0 0 
1020.578 1739 44.2814 0 0 0 
1020.578 1740 44.2814 0 0 0 
1020.578 1741 44.2814 0 0 0 
1020.578 1742 44.2814 0 0 0 
1020.578 1743 44.2814 0 0 0 
1020.578 1744 44.2814 0 0 0 
1020.578 1745 44.2814 0 0 0 
1020.578 1746 44.2814 0 0 0 
1020.578 1747 44.2814 0 0 0 
1020.578 1748 44.2814 0 0 0 
1020.578 1749 44.2814 0 0 0 
1020.578 1750 44.2814 0 0 0 
1020.578 1751 44.2814 0 0 0 
1020.578 1752 44.2814 0 0 0 
1020.578 1753 44.2814 0 0 0 
1020.578 1754 44.2814 0 0 0 
1020.578 1755 44.2814 0 0 0 
1020.578 1756 44.2814 0 0 0 
1020.578 1757 44.2814 0 0 0 
1020.578 1758 44.2814 0 0 0 
1020.578 1880 44.2814 0 0 0 
1020.578 1881 44.2814 0 0 0 
1020.578 1882 44.2814 0 0 0 
1020.578 1883 44.2814 0 0 0 
1020.578 1884 44.2814 0 0 0 
1020.578 1885 44.2814 0 0 0 
1020.578 1886 44.2814 0 0 0 
1020.578 1887 44.2814 0 0 0 
1020.578 1888 44.2814 0 0 0 
1020.578 1889 44.2814 0 0 0 
1020.578 1890 44.2814 0 0 0 
1020.578 1891 44.2814 0 0 0 
1020.578 1892 44.2814 0 0 0 
1020.578 1893 44.2814 0 0 0 
1020.648 1720 45.27896 0 0 0 
1020.648 1721 45.27896 0 0 0 
1020.648 1722 45.27896 0 0 0 
1020.648 1723 45.27896 0 0 0 
1020.648 1724 45.27896 0 0 0 
1020.648 1725 45.27896 0 0 0 
1020.648 1726 45.27896 0 0 0 
1020.648 1727 45.27896 0 0 0 
1020.648 1728 45.27896 0 0 0 
1020.648 1729 45.27896 0 0 0 
1020.648 1730 45.27896 0 0 0 
1020.648 1731 45.27896 0 0 0 
1020.648 1733 45.27896 0 0 0 
1020.648 1734 45.27896 0 0 0 
1020.648 1735 45.27896 0 0 0 
1020.648 1736 45.27896 0 0 0 
1020.648 1737 45.27896 0 0 0 
1020.648 1738 45.27896 0 0 0 
1020.648 1739 45.27896 0 0 0 
1020.648 1740 45.27896 0 0 0 
1020.648 1741 45.27896 0 0 0 
1020.648 1742 45.27896 0 0 0 
1020.648 1743 45.27896 0 0 0 
1020.648 1744 45.27896 0 0 0 
1020.648 1745 45.27896 0 0 0 
1020.648 1746 45.27896 0 0 0 
1020.648 1747 45.27896 0 0 0 
1020.648 1748 45.27896 0 0 0 
1020.648 1749 45.27896 0 0 0 
1020.648 1884 45.27896 0 0 0 
1020.648 1885 45.27896 0 0 0 
1020.648 1886 45.27896 0 0 0 
1020.648 1887 45.27896 0 0 0 
1020.648 1888 45.27896 0 0 0 
1020.648 1889 45.27896 0 0 0 
1020.648 1890 45.27896 0 0 0 
1020.648 1891 45.27896 0 0 0 
1020.648 1892 45.27896 0 0 0 
1020.648 1893 45.27896 0 0 0 
1020.648 1894 45.27896 0 0 0 
1020.648 1895 45.27896 0 0 0 
1020.648 1896 45.27896 0 0 0 
1020.648 1897 45.27896 0 0 0 
1020.648 1898 45.27896 0 0 0 
1020.718 1708 46.27652 0 0 0 
1020.718 1709 46.27652 0 0 0 
1020.718 1710 46.27652 0 0 0 
1020.718 1711 46.27652 0 0 0 
1020.718 1712 46.27652 0 0 0 
1020.718 1713 46.27652 0 0 0 
1020.718 1714 46.27652 0 0 0 
1020.718 1715 46.27652 0 0 0 
1020.718 1716 46.27652 0 0 0 
1020.718 1717 46.27652 0 0 0 
1020.718 1718 46.27652 0 0 0 
1020.718 1719 46.27652 0 0 0 
1020.718 1720 46.27652 0 0 0 
1020.718 1721 46.27652 0 0 0 
1020.718 1722 46.27652 0 0 0 
1020.718 1723 46.27652 0 0 0 
1020.718 1724 46.27652 0 0 0 
1020.718 1725 46.27652 0 0 0 
1020.718 1726 46.27652 0 0 0 
1020.718 1727 46.27652 0 0 0 
1020.718 1728 46.27652 0 0 0 
1020.718 1729 46.27652 0 0 0 
1020.718 1734 46.27652 0 0 0 
1020.718 1735 46.27652 0 0 0 
1020.718 1736 46.27652 0 0 0 
1020.718 1739 46.27652 0 0 0 
1020.718 1740 46.27652 0 0 0 
1020.718 1741 46.27652 0 0 0 
1020.718 1892 46.27652 0 0 0 
1020.718 1893 46.27652 0 0 0 
1020.718 1894 46.27652 0 0 0 
1020.718 1895 46.27652 0 0 0 
1020.718 1896 46.27652 0 0 0 
1020.718 1897 46.27652 0 0 0 
1020.718 1898 46.27652 0 0 0 
1020.718 1899 46.27652 0 0 0 
1020.718 1900 46.27652 0 0 0 
1020.718 1901 46.27652 0 0 0 
1020.718 1902 46.27652 0 0 0 
1020.787 1694 47.27411 0 0 0 
1020.787 1695 47.27411 0 0 0 
1020.787 1696 47.27411 0 0 0 
1020.787 1697 47.27411 0 0 0 
1020.787 1698 47.27411 0 0 0 
1020.787 1699 47.27411 0 0 0 
1020.787 1700 47.27411 0 0 0 
1020.787 1701 47.27411 0 0 0 
1020.787 1702 47.27411 0 0 0 
1020.787 1703 47.27411 0 0 0 
1020.787 1704 47.27411 0 0 0 
1020.787 1705 47.27411 0 0 0 
1020.787 1706 47.27411 0 0 0 
1020.787 1707 47.27411 0 0 0 
1020.787 1708 47.27411 0 0 0 
1020.787 1709 47.27411 0 0 0 
1020.787 1710 47.27411 0 0 0 
1020.787 1711 47.27411 0 0 0 
1020.787 1712 47.27411 0 0 0 
1020.787 1713 47.27411 0 0 0 
1020.787 1714 47.27411 0 0 0 
1020.787 1715 47.27411 0 0 0 
1020.787 1716 47.27411 0 0 0 
1020.787 1717 47.27411 0 0 0 
1020.787 1718 47.27411 0 0 0 
1020.787 1719 47.27411 0 0 0 
1020.787 1720 47.27411 0 0 0 
1020.787 1721 47.27411 0 0 0 
1020.787 1722 47.27411 0 0 0 
1020.787 1723 47.27411 0 0 0 
1020.787 1724 47.27411 0 0 0 
1020.787 1725 47.27411 0 0 0 
1020.787 1726 47.27411 0 0 0 
1020.787 1898 47.27411 0 0 0 
1020.787 1899 47.27411 0 0 0 
1020.787 1900 47.27411 0 0 0 
1020.787 1901 47.27411 0 0 0 
1020.787 1902 47.27411 0 0 0 
1020.787 1903 47.27411 0 0 0 
1020.787 1904 47.27411 0 0 0 
1020.857 1681 48.27167 0 0 0 
1020.857 1682 48.27167 0 0 0 
1020.857 1683 48.27167 0 0 0 
1020.857 1685 48.27167 0 0 0 
1020.857 1686 48.27167 0 0 0 
1020.857 1687 48.27167 0 0 0 
1020.857 1688 48.27167 0 0 0 
1020.857 1689 48.27167 0 0 0 
1020.857 1690 48.27167 0 0 0 
1020.857 1691 48.27167 0 0 0 
1020.857 1692 48.27167 0 0 0 
1020.857 1693 48.27167 0 0 0 
1020.857 1694 48.27167 0 0 0 
1020.857 1695 48.27167 0 0 0 
1020.857 1696 48.27167 0 0 0 
1020.857 1697 48.27167 0 0 0 
1020.857 1698 48.27167 0 0 0 
1020.857 1699 48.27167 0 0 0 
1020.857 1700 48.27167 0 0 0 
1020.857 1701 48.27167 0 0 0 
1020.857 1702 48.27167 0 0 0 
1020.857 1703 48.27167 0 0 0 
1020.857 1704 48.27167 0 0 0 
1020.857 1705 48.27167 0 0 0 
1020.857 1706 48.27167 0 0 0 
1020.857 1707 48.27167 0 0 0 
1020.857 1708 48.27167 0 0 0 
1020.857 1709 48.27167 0 0 0 
1020.857 1710 48.27167 0 0 0 
1020.857 1711 48.27167 0 0 0 
1020.857 1712 48.27167 0 0 0 
1020.857 1713 48.27167 0 0 0 
1020.857 1716 48.27167 0 0 0 
1020.857 1717 48.27167 0 0 0 
1020.857 1718 48.27167 0 0 0 
1020.857 1719 48.27167 0 0 0 
1020.857 1720 48.27167 0 0 0 
1020.857 1900 48.27167 0 0 0 
1020.857 1901 48.27167 0 0 0 
1020.857 1902 48.27167 0 0 0 
1020.857 1903 48.27167 0 0 0 
1020.857 1904 48.27167 0 0 0 
1020.857 1905 48.27167 0 0 0 
1020.857 1906 48.27167 0 0 0 
1020.857 1907 48.27167 0 0 0 
1020.927 1673 49.26923 0 0 0 
1020.927 1674 49.26923 0 0 0 
1020.927 1675 49.26923 0 0 0 
1020.927 1676 49.26923 0 0 0 
1020.927 1677 49.26923 0 0 0 
1020.927 1678 49.26923 0 0 0 
1020.927 1679 49.26923 0 0 0 
1020.927 1680 49.26923 0 0 0 
1020.927 1681 49.26923 0 0 0 
1020.927 1682 49.26923 0 0 0 
1020.927 1683 49.26923 0 0 0 
1020.927 1684 49.26923 0 0 0 
1020.927 1685 49.26923 0 0 0 
1020.927 1686 49.26923 0 0 0 
1020.927 1687 49.26923 0 0 0 
1020.927 1688 49.26923 0 0 0 
1020.927 1689 49.26923 0 0 0 
1020.927 1690 49.26923 0 0 0 
1020.927 1691 49.26923 0 0 0 
1020.927 1692 49.26923 0 0 0 
1020.927 1693 49.26923 0 0 0 
1020.927 1694 49.26923 0 0 0 
1020.927 1695 49.26923 0 0 0 
1020.927 1696 49.26923 0 0 0 
1020.927 1697 49.26923 0 0 0 
1020.927 1698 49.26923 0 0 0 
1020.927 1699 49.26923 0 0 0 
1020.927 1700 49.26923 0 0 0 
1020.927 1701 49.26923 0 0 0 
1020.927 1702 49.26923 0 0 0 
1020.927 1703 49.26923 0 0 0 
1020.927 1704 49.26923 0 0 0 
1020.927 1903 49.26923 0 0 0 
1020.927 1904 49.26923 0 0 0 
1020.927 1905 49.26923 0 0 0 
1020.927 1906 49.26923 0 0 0 
1020.927 1907 49.26923 0 0 0 
1020.927 1908 49.26923 0 0 0 
1020.927 1909 49.26923 0 0 0 
1020.927 1910 49.26923 0 0 0 
1020.997 1660 50.26678 0 0 0 
1020.997 1664 50.26678 0 0 0 
1020.997 1665 50.26678 0 0 0 
1020.997 1666 50.26678 0 0 0 
1020.997 1667 50.26678 0 0 0 
1020.997 1668 50.26678 0 0 0 
1020.997 1669 50.26678 0 0 0 
1020.997 1670 50.26678 0 0 0 
1020.997 1671 50.26678 0 0 0 
1020.997 1672 50.26678 0 0 0 
1020.997 1673 50.26678 0 0 0 
1020.997 1674 50.26678 0 0 0 
1020.997 1675 50.26678 0 0 0 
1020.997 1676 50.26678 0 0 0 
1020.997 1677 50.26678 0 0 0 
1020.997 1678 50.26678 0 0 0 
1020.997 1679 50.26678 0 0 0 
1020.997 1680 50.26678 0 0 0 
1020.997 1681 50.26678 0 0 0 
1020.997 1682 50.26678 0 0 0 
1020.997 1683 50.26678 0 0 0 
1020.997 1684 50.26678 0 0 0 
1020.997 1685 50.26678 0 0 0 
1020.997 1686 50.26678 0 0 0 
1020.997 1687 50.26678 0 0 0 
1020.997 1688 50.26678 0 0 0 
1020.997 1689 50.26678 0 0 0 
1020.997 1690 50.26678 0 0 0 
1020.997 1691 50.26678 0 0 0 
1020.997 1692 50.26678 0 0 0 
1020.997 1906 50.26678 0 0 0 
1020.997 1907 50.26678 0 0 0 
1020.997 1908 50.26678 0 0 0 
1020.997 1909 50.26678 0 0 0 
1020.997 1910 50.26678 0 0 0 
1020.997 1911 50.26678 0 0 0 
1021.066 1558 51.26434 0 0 0 
1021.066 1559 51.26434 0 0 0 
1021.066 1560 51.26434 0 0 0 
1021.066 1561 51.26434 0 0 0 
1021.066 1562 51.26434 0 0 0 
1021.066 1563 51.26434 0 0 0 
1021.066 1564 51.26434 0 0 0 
1021.066 1565 51.26434 0 0 0 
1021.066 1566 51.26434 0 0 0 
1021.066 1567 51.26434 0 0 0 
1021.066 1568 51.26434 0 0 0 
1021.066 1640 51.26434 0 0 0 
1021.066 1645 51.26434 0 0 0 
1021.066 1646 51.26434 0 0 0 
1021.066 1647 51.26434 0 0 0 
1021.066 1648 51.26434 0 0 0 
1021.066 1649 51.26434 0 0 0 
1021.066 1650 51.26434 0 0 0 
1021.066 1651 51.26434 0 0 0 
1021.066 1652 51.26434 0 0 0 
1021.066 1653 51.26434 0 0 0 
1021.066 1654 51.26434 0 0 0 
1021.066 1655 51.26434 0 0 0 
1021.066 1656 51.26434 0 0 0 
1021.066 1657 51.26434 0 0 0 
1021.066 1658 51.26434 0 0 0 
1021.066 1659 51.26434 0 0 0 
1021.066 1660 51.26434 0 0 0 
1021.066 1661 51.26434 0 0 0 
1021.066 1662 51.26434 0 0 0 
1021.066 1663 51.26434 0 0 0 
1021.066 1664 51.26434 0 0 0 
1021.066 1665 51.26434 0 0 0 
1021.066 1666 51.26434 0 0 0 
1021.066 1667 51.26434 0 0 0 
1021.066 1668 51.26434 0 0 0 
1021.066 1669 51.26434 0 0 0 
1021.066 1670 51.26434 0 0 0 
1021.066 1671 51.26434 0 0 0 
1021.066 1672 51.26434 0 0 0 
1021.066 1673 51.26434 0 0 0 
1021.066 1674 51.26434 0 0 0 
1021.066 1675 51.26434 0 0 0 
1021.066 1676 51.26434 0 0 0 
1021.066 1677 51.26434 0 0 0 
1021.066 1678 51.26434 0 0 0 
1021.066 1679 51.26434 0 0 0 
1021.066 1680 51.26434 0 0 0 
1021.066 1681 51.26434 0 0 0 
1021.066 1684 51.26434 0 0 0 
1021.066 1909 51.26434 0 0 0 
1021.066 1910 51.26434 0 0 0 
1021.066 1911 51.26434 0 0 0 
1021.066 1912 51.26434 0 0 0 
1021.136 1553 52.2619 0 0 0 
1021.136 1554 52.2619 0 0 0 
1021.136 1555 52.2619 0 0 0 
1021.136 1556 52.2619 0 0 0 
1021.136 1557 52.2619 0 0 0 
1021.136 1558 52.2619 0 0 0 
1021.136 1559 52.2619 0 0 0 
1021.136 1560 52.2619 0 0 0 
1021.136 1561 52.2619 0 0 0 
1021.136 1562 52.2619 0 0 0 
1021.136 1563 52.2619 0 0 0 
1021.136 1564 52.2619 0 0 0 
1021.136 1565 52.2619 0 0 0 
1021.136 1566 52.2619 0 0 0 
1021.136 1567 52.2619 0 0 0 
1021.136 1568 52.2619 0 0 0 
1021.136 1569 52.2619 0 0 0 
1021.136 1570 52.2619 0 0 0 
1021.136 1571 52.2619 0 0 0 
1021.136 1572 52.2619 0 0 0 
1021.136 1573 52.2619 0 0 0 
1021.136 1574 52.2619 0 0 0 
1021.136 1575 52.2619 0 0 0 
1021.136 1576 52.2619 0 0 0 
1021.136 1577 52.2619 0 0 0 
1021.136 1578 52.2619 0 0 0 
1021.136 1579 52.2619 0 0 0 
1021.136 1580 52.2619 0 0 0 
1021.136 1581 52.2619 0 0 0 
1021.136 1582 52.2619 0 0 0 
1021.136 1583 52.2619 0 0 0 
1021.136 1584 52.2619 0 0 0 
1021.136 1585 52.2619 0 0 0 
1021.136 1586 52.2619 0 0 0 
1021.136 1587 52.2619 0 0 0 
1021.136 1588 52.2619 0 0 0 
1021.136 1589 52.2619 0 0 0 
1021.136 1590 52.2619 0 0 0 
1021.136 1591 52.2619 0 0 0 
1021.136 1592 52.2619 0 0 0 
1021.136 1593 52.2619 0 0 0 
1021.136 1594 52.2619 0 0 0 
1021.136 1595 52.2619 0 0 0 
1021.136 1596 52.2619 0 0 0 
1021.136 1597 52.2619 0 0 0 
1021.136 1598 52.2619 0 0 0 
1021.136 1599 52.2619 0 0 0 
1021.136 1600 52.2619 0 0 0 
1021.136 1601 52.2619 0 0 0 
1021.136 1602 52.2619 0 0 0 
1021.136 1603 52.2619 0 0 0 
1021.136 1604 52.2619 0 0 0 
1021.136 1605 52.2619 0 0 0 
1021.136 1606 52.2619 0 0 0 
1021.136 1607 52.2619 0 0 0 
1021.136 1608 52.2619 0 0 0 
1021.136 1609 52.2619 0 0 0 
1021.136 1610 52.2619 0 0 0 
1021.136 1611 52.2619 0 0 0 
1021.136 1612 52.2619 0 0 0 
1021.136 1613 52.2619 0 0 0 
1021.136 1614 52.2619 0 0 0 
1021.136 1615 52.2619 0 0 0 
1021.136 1616 52.2619 0 0 0 
1021.136 1617 52.2619 0 0 0 
1021.136 1618 52.2619 0 0 0 
1021.136 1619 52.2619 0 0 0 
1021.136 1620 52.2619 0 0 0 
1021.136 1621 52.2619 0 0 0 
1021.136 1622 52.2619 0 0 0 
1021.136 1623 52.2619 0 0 0 
1021.136 1624 52.2619 0 0 0 
1021.136 1625 52.2619 0 0 0 
1021.136 1626 52.2619 0 0 0 
1021.136 1627 52.2619 0 0 0 
1021.136 1628 52.2619 0 0 0 
1021.136 1629 52.2619 0 0 0 
1021.136 1630 52.2619 0 0 0 
1021.136 1631 52.2619 0 0 0 
1021.136 1632 52.2619 0 0 0 
1021.136 1633 52.2619 0 0 0 
1021.136 1634 52.2619 0 0 0 
1021.136 1635 52.2619 0 0 0 
1021.136 1636 52.2619 0 0 0 
1021.136 1637 52.2619 0 0 0 
1021.136 1638 52.2619 0 0 0 
1021.136 1639 52.2619 0 0 0 
1021.136 1640 52.2619 0 0 0 
1021.136 1641 52.2619 0 0 0 
1021.136 1642 52.2619 0 0 0 
1021.136 1643 52.2619 0 0 0 
1021.136 1644 52.2619 0 0 0 
1021.136 1645 52.2619 0 0 0 
1021.136 1646 52.2619 0 0 0 
1021.136 1647 52.2619 0 0 0 
1021.136 1648 52.2619 0 0 0 
1021.136 1649 52.2619 0 0 0 
1021.136 1650 52.2619 0 0 0 
1021.136 1651 52.2619 0 0 0 
1021.136 1652 52.2619 0 0 0 
1021.136 1653 52.2619 0 0 0 
1021.136 1654 52.2619 0 0 0 
1021.136 1655 52.2619 0 0 0 
1021.136 1656 52.2619 0 0 0 
1021.136 1657 52.2619 0 0 0 
1021.136 1658 52.2619 0 0 0 
1021.136 1659 52.2619 0 0 0 
1021.136 1660 52.2619 0 0 0 
1021.136 1661 52.2619 0 0 0 
1021.136 1662 52.2619 0 0 0 
1021.136 1663 52.2619 0 0 0 
1021.136 1664 52.2619 0 0 0 
1021.136 1665 52.2619 0 0 0 
1021.136 1666 52.2619 0 0 0 
1021.136 1667 52.2619 0 0 0 
1021.136 1668 52.2619 0 0 0 
1021.136 1669 52.2619 0 0 0 
1021.136 1670 52.2619 0 0 0 
1021.136 1671 52.2619 0 0 0 
1021.136 1672 52.2619 0 0 0 
1021.136 1673 52.2619 0 0 0 
1021.136 1674 52.2619 0 0 0 
1021.136 1675 52.2619 0 0 0 
1021.136 1676 52.2619 0 0 0 
1021.136 1911 52.2619 0 0 0 
1021.136 1912 52.2619 0 0 0 
1021.206 1550 53.25949 0 0 0 
1021.206 1551 53.25949 0 0 0 
1021.206 1552 53.25949 0 0 0 
1021.206 1553 53.25949 0 0 0 
1021.206 1554 53.25949 0 0 0 
1021.206 1555 53.25949 0 0 0 
1021.206 1556 53.25949 0 0 0 
1021.206 1557 53.25949 0 0 0 
1021.206 1558 53.25949 0 0 0 
1021.206 1559 53.25949 0 0 0 
1021.206 1560 53.25949 0 0 0 
1021.206 1561 53.25949 0 0 0 
1021.206 1562 53.25949 0 0 0 
1021.206 1563 53.25949 0 0 0 
1021.206 1564 53.25949 0 0 0 
1021.206 1565 53.25949 0 0 0 
1021.206 1566 53.25949 0 0 0 
1021.206 1567 53.25949 0 0 0 
1021.206 1568 53.25949 0 0 0 
1021.206 1569 53.25949 0 0 0 
1021.206 1570 53.25949 0 0 0 
1021.206 1571 53.25949 0 0 0 
1021.206 1572 53.25949 0 0 0 
1021.206 1573 53.25949 0 0 0 
1021.206 1574 53.25949 0 0 0 
1021.206 1575 53.25949 0 0 0 
1021.206 1576 53.25949 0 0 0 
1021.206 1577 53.25949 0 0 0 
1021.206 1578 53.25949 0 0 0 
1021.206 1579 53.25949 0 0 0 
1021.206 1580 53.25949 0 0 0 
1021.206 1581 53.25949 0 0 0 
1021.206 1582 53.25949 0 0 0 
1021.206 1583 53.25949 0 0 0 
1021.206 1584 53.25949 0 0 0 
1021.206 1585 53.25949 0 0 0 
1021.206 1586 53.25949 0 0 0 
1021.206 1587 53.25949 0 0 0 
1021.206 1588 53.25949 0 0 0 
1021.206 1589 53.25949 0 0 0 
1021.206 1590 53.25949 0 0 0 
1021.206 1591 53.25949 0 0 0 
1021.206 1592 53.25949 0 0 0 
1021.206 1593 53.25949 0 0 0 
1021.206 1594 53.25949 0 0 0 
1021.206 1595 53.25949 0 0 0 
1021.206 1596 53.25949 0 0 0 
1021.206 1597 53.25949 0 0 0 
1021.206 1598 53.25949 0 0 0 
1021.206 1599 53.25949 0 0 0 
1021.206 1600 53.25949 0 0 0 
1021.206 1601 53.25949 0 0 0 
1021.206 1602 53.25949 0 0 0 
1021.206 1603 53.25949 0 0 0 
1021.206 1604 53.25949 0 0 0 
1021.206 1605 53.25949 0 0 0 
1021.206 1606 53.25949 0 0 0 
1021.206 1607 53.25949 0 0 0 
1021.206 1608 53.25949 0 0 0 
1021.206 1609 53.25949 0 0 0 
1021.206 1610 53.25949 0 0 0 
1021.206 1611 53.25949 0 0 0 
1021.206 1612 53.25949 0 0 0 
1021.206 1613 53.25949 0 0 0 
1021.206 1614 53.25949 0 0 0 
1021.206 1615 53.25949 0 0 0 
1021.206 1616 53.25949 0 0 0 
1021.206 1617 53.25949 0 0 0 
1021.206 1618 53.25949 0 0 0 
1021.206 1619 53.25949 0 0 0 
1021.206 1620 53.25949 0 0 0 
1021.206 1621 53.25949 0 0 0 
1021.206 1622 53.25949 0 0 0 
1021.206 1623 53.25949 0 0 0 
1021.206 1624 53.25949 0 0 0 
1021.206 1625 53.25949 0 0 0 
1021.206 1626 53.25949 0 0 0 
1021.206 1627 53.25949 0 0 0 
1021.206 1628 53.25949 0 0 0 
1021.206 1629 53.25949 0 0 0 
1021.206 1630 53.25949 0 0 0 
1021.206 1631 53.25949 0 0 0 
1021.206 1632 53.25949 0 0 0 
1021.206 1633 53.25949 0 0 0 
1021.206 1634 53.25949 0 0 0 
1021.206 1635 53.25949 0 0 0 
1021.206 1636 53.25949 0 0 0 
1021.206 1637 53.25949 0 0 0 
1021.206 1638 53.25949 0 0 0 
1021.206 1639 53.25949 0 0 0 
1021.206 1640 53.25949 0 0 0 
1021.206 1641 53.25949 0 0 0 
1021.206 1642 53.25949 0 0 0 
1021.206 1643 53.25949 0 0 0 
1021.206 1644 53.25949 0 0 0 
1021.206 1645 53.25949 0 0 0 
1021.206 1646 53.25949 0 0 0 
1021.206 1647 53.25949 0 0 0 
1021.206 1648 53.25949 0 0 0 
1021.206 1649 53.25949 0 0 0 
1021.206 1650 53.25949 0 0 0 
1021.206 1651 53.25949 0 0 0 
1021.206 1652 53.25949 0 0 0 
1021.206 1653 53.25949 0 0 0 
1021.206 1654 53.25949 0 0 0 
1021.206 1655 53.25949 0 0 0 
1021.206 1656 53.25949 0 0 0 
1021.206 1657 53.25949 0 0 0 
1021.206 1658 53.25949 0 0 0 
1021.206 1659 53.25949 0 0 0 
1021.206 1660 53.25949 0 0 0 
1021.206 1661 53.25949 0 0 0 
1021.206 1662 53.25949 0 0 0 
1021.206 1663 53.25949 0 0 0 
1021.206 1664 53.25949 0 0 0 
1021.206 1665 53.25949 0 0 0 
1021.206 1666 53.25949 0 0 0 
1021.206 1667 53.25949 0 0 0 
1021.206 1668 53.25949 0 0 0 
1021.206 1912 53.25949 0 0 0 
1021.276 1548 54.25705 0 0 0 
1021.276 1549 54.25705 0 0 0 
1021.276 1550 54.25705 0 0 0 
1021.276 1551 54.25705 0 0 0 
1021.276 1552 54.25705 0 0 0 
1021.276 1553 54.25705 0 0 0 
1021.276 1554 54.25705 0 0 0 
1021.276 1555 54.25705 0 0 0 
1021.276 1556 54.25705 0 0 0 
1021.276 1557 54.25705 0 0 0 
1021.276 1558 54.25705 0 0 0 
1021.276 1559 54.25705 0 0 0 
1021.276 1560 54.25705 0 0 0 
1021.276 1561 54.25705 0 0 0 
1021.276 1562 54.25705 0 0 0 
1021.276 1563 54.25705 0 0 0 
1021.276 1564 54.25705 0 0 0 
1021.276 1565 54.25705 0 0 0 
1021.276 1566 54.25705 0 0 0 
1021.276 1567 54.25705 0 0 0 
1021.276 1568 54.25705 0 0 0 
1021.276 1569 54.25705 0 0 0 
1021.276 1573 54.25705 0 0 0 
1021.276 1574 54.25705 0 0 0 
1021.276 1575 54.25705 0 0 0 
1021.276 1576 54.25705 0 0 0 
1021.276 1577 54.25705 0 0 0 
1021.276 1578 54.25705 0 0 0 
1021.276 1579 54.25705 0 0 0 
1021.276 1580 54.25705 0 0 0 
1021.276 1581 54.25705 0 0 0 
1021.276 1582 54.25705 0 0 0 
1021.276 1583 54.25705 0 0 0 
1021.276 1584 54.25705 0 0 0 
1021.276 1585 54.25705 0 0 0 
1021.276 1586 54.25705 0 0 0 
1021.276 1587 54.25705 0 0 0 
1021.276 1588 54.25705 0 0 0 
1021.276 1589 54.25705 0 0 0 
1021.276 1590 54.25705 0 0 0 
1021.276 1591 54.25705 0 0 0 
1021.276 1592 54.25705 0 0 0 
1021.276 1593 54.25705 0 0 0 
1021.276 1594 54.25705 0 0 0 
1021.276 1595 54.25705 0 0 0 
1021.276 1596 54.25705 0 0 0 
1021.276 1597 54.25705 0 0 0 
1021.276 1598 54.25705 0 0 0 
1021.276 1599 54.25705 0 0 0 
1021.276 1600 54.25705 0 0 0 
1021.276 1601 54.25705 0 0 0 
1021.276 1602 54.25705 0 0 0 
1021.276 1603 54.25705 0 0 0 
1021.276 1604 54.25705 0 0 0 
1021.276 1605 54.25705 0 0 0 
1021.276 1606 54.25705 0 0 0 
1021.276 1607 54.25705 0 0 0 
1021.276 1608 54.25705 0 0 0 
1021.276 1609 54.25705 0 0 0 
1021.276 1610 54.25705 0 0 0 
1021.276 1611 54.25705 0 0 0 
1021.276 1612 54.25705 0 0 0 
1021.276 1613 54.25705 0 0 0 
1021.276 1614 54.25705 0 0 0 
1021.276 1615 54.25705 0 0 0 
1021.276 1616 54.25705 0 0 0 
1021.276 1617 54.25705 0 0 0 
1021.276 1618 54.25705 0 0 0 
1021.276 1619 54.25705 0 0 0 
1021.276 1620 54.25705 0 0 0 
1021.276 1621 54.25705 0 0 0 
1021.276 1622 54.25705 0 0 0 
1021.276 1623 54.25705 0 0 0 
1021.276 1624 54.25705 0 0 0 
1021.276 1625 54.25705 0 0 0 
1021.276 1626 54.25705 0 0 0 
1021.276 1627 54.25705 0 0 0 
1021.276 1628 54.25705 0 0 0 
1021.276 1629 54.25705 0 0 0 
1021.276 1630 54.25705 0 0 0 
1021.276 1631 54.25705 0 0 0 
1021.276 1632 54.25705 0 0 0 
1021.276 1633 54.25705 0 0 0 
1021.276 1634 54.25705 0 0 0 
1021.276 1635 54.25705 0 0 0 
1021.276 1636 54.25705 0 0 0 
1021.276 1637 54.25705 0 0 0 
1021.276 1638 54.25705 0 0 0 
1021.276 1639 54.25705 0 0 0 
1021.276 1640 54.25705 0 0 0 
1021.276 1641 54.25705 0 0 0 
1021.276 1642 54.25705 0 0 0 
1021.276 1643 54.25705 0 0 0 
1021.276 1644 54.25705 0 0 0 
1021.276 1645 54.25705 0 0 0 
1021.276 1646 54.25705 0 0 0 
1021.276 1647 54.25705 0 0 0 
1021.276 1648 54.25705 0 0 0 
1021.276 1649 54.25705 0 0 0 
1021.276 1650 54.25705 0 0 0 
1021.276 1651 54.25705 0 0 0 
1021.276 1652 54.25705 0 0 0 
1021.276 1653 54.25705 0 0 0 
1021.346 1544 55.25461 0 0 0 
1021.346 1545 55.25461 0 0 0 
1021.346 1546 55.25461 0 0 0 
1021.346 1547 55.25461 0 0 0 
1021.346 1548 55.25461 0 0 0 
1021.346 1549 55.25461 0 0 0 
1021.346 1550 55.25461 0 0 0 
1021.346 1551 55.25461 0 0 0 
1021.346 1552 55.25461 0 0 0 
1021.346 1553 55.25461 0 0 0 
1021.346 1554 55.25461 0 0 0 
1021.346 1555 55.25461 0 0 0 
1021.346 1556 55.25461 0 0 0 
1021.346 1557 55.25461 0 0 0 
1021.346 1558 55.25461 0 0 0 
1021.346 1559 55.25461 0 0 0 
1021.346 1560 55.25461 0 0 0 
1021.346 1561 55.25461 0 0 0 
1021.346 1562 55.25461 0 0 0 
1021.346 1563 55.25461 0 0 0 
1021.346 1564 55.25461 0 0 0 
1021.346 1565 55.25461 0 0 0 
1021.346 1584 55.25461 0 0 0 
1021.346 1585 55.25461 0 0 0 
1021.346 1586 55.25461 0 0 0 
1021.346 1587 55.25461 0 0 0 
1021.346 1588 55.25461 0 0 0 
1021.346 1589 55.25461 0 0 0 
1021.346 1590 55.25461 0 0 0 
1021.346 1591 55.25461 0 0 0 
1021.346 1592 55.25461 0 0 0 
1021.346 1593 55.25461 0 0 0 
1021.346 1594 55.25461 0 0 0 
1021.346 1595 55.25461 0 0 0 
1021.346 1596 55.25461 0 0 0 
1021.346 1597 55.25461 0 0 0 
1021.346 1598 55.25461 0 0 0 
1021.346 1599 55.25461 0 0 0 
1021.346 1600 55.25461 0 0 0 
1021.346 1601 55.25461 0 0 0 
1021.346 1602 55.25461 0 0 0 
1021.346 1603 55.25461 0 0 0 
1021.346 1617 55.25461 0 0 0 
1021.346 1618 55.25461 0 0 0 
1021.346 1626 55.25461 0 0 0 
1021.346 1627 55.25461 0 0 0 
1021.415 1542 56.25217 0 0 0 
1021.415 1543 56.25217 0 0 0 
1021.415 1544 56.25217 0 0 0 
1021.415 1545 56.25217 0 0 0 
1021.415 1546 56.25217 0 0 0 
1021.415 1547 56.25217 0 0 0 
1021.415 1548 56.25217 0 0 0 
1021.415 1549 56.25217 0 0 0 
1021.415 1550 56.25217 0 0 0 
1021.415 1551 56.25217 0 0 0 
1021.415 1552 56.25217 0 0 0 
1021.415 1553 56.25217 0 0 0 
1021.415 1554 56.25217 0 0 0 
1021.415 1555 56.25217 0 0 0 
1021.485 1541 57.24973 0 0 0 
1021.485 1542 57.24973 0 0 0 
1021.485 1543 57.24973 0 0 0 
1021.485 1544 57.24973 0 0 0 
1021.485 1545 57.24973 0 0 0 
1021.485 1546 57.24973 0 0 0 
1021.485 1547 57.24973 0 0 0 
1021.485 1548 57.24973 0 0 0 
1021.555 1537 58.24731 0 0 0 
1021.555 1538 58.24731 0 0 0 
1021.555 1539 58.24731 0 0 0 
1021.555 1540 58.24731 0 0 0 
1021.555 1541 58.24731 0 0 0 
1021.555 1542 58.24731 0 0 0 
1021.555 1543 58.24731 0 0 0 
1021.555 1544 58.24731 0 0 0 
1021.555 1545 58.24731 0 0 0 
1021.625 1533 59.24487 0 0 0 
1021.625 1534 59.24487 0 0 0 
1021.625 1535 59.24487 0 0 0 
1021.625 1536 59.24487 0 0 0 
1021.625 1537 59.24487 0 0 0 
1021.625 1538 59.24487 0 0 0 
1021.625 1539 59.24487 0 0 0 
1021.625 1540 59.24487 0 0 0 
1021.625 1541 59.24487 0 0 0 
1021.694 1521 60.24243 0 0 0 
1021.694 1522 60.24243 0 0 0 
1021.694 1523 60.24243 0 0 0 
1021.694 1524 60.24243 0 0 0 
1021.694 1525 60.24243 0 0 0 
1021.694 1526 60.24243 0 0 0 
1021.694 1527 60.24243 0 0 0 
1021.694 1528 60.24243 0 0 0 
1021.694 1529 60.24243 0 0 0 
1021.694 1530 60.24243 0 0 0 
1021.694 1531 60.24243 0 0 0 
1021.694 1532 60.24243 0 0 0 
1021.694 1533 60.24243 0 0 0 
1021.694 1534 60.24243 0 0 0 
1021.694 1535 60.24243 0 0 0 
1021.694 1536 60.24243 0 0 0 
1021.694 1537 60.24243 0 0 0 
1021.694 1538 60.24243 0 0 0 
1021.694 1539 60.24243 0 0 0 
1021.694 1540 60.24243 0 0 0 
1021.764 1520 61.23999 0 0 0 
1021.764 1521 61.23999 0 0 0 
1021.764 1522 61.23999 0 0 0 
1021.764 1523 61.23999 0 0 0 
1021.764 1524 61.23999 0 0 0 
1021.764 1525 61.23999 0 0 0 
1021.764 1526 61.23999 0 0 0 
1021.764 1527 61.23999 0 0 0 
1021.764 1528 61.23999 0 0 0 
1021.764 1529 61.23999 0 0 0 
1021.764 1530 61.23999 0 0 0 
1021.764 1531 61.23999 0 0 0 
1021.764 1532 61.23999 0 0 0 
1021.764 1533 61.23999 0 0 0 
1021.764 1534 61.23999 0 0 0 
1021.764 1535 61.23999 0 0 0 
1021.764 1536 61.23999 0 0 0 
1021.764 1537 61.23999 0 0 0 
1021.764 1538 61.23999 0 0 0 
1021.764 1539 61.23999 0 0 0 
1021.834 1520 62.23755 0 0 0 
1021.834 1521 62.23755 0 0 0 
1021.834 1522 62.23755 0 0 0 
1021.834 1523 62.23755 0 0 0 
1021.834 1524 62.23755 0 0 0 
1021.834 1525 62.23755 0 0 0 
1021.834 1526 62.23755 0 0 0 
1021.834 1527 62.23755 0 0 0 
1021.834 1528 62.23755 0 0 0 
1021.834 1529 62.23755 0 0 0 
1021.834 1530 62.23755 0 0 0 
1021.834 1531 62.23755 0 0 0 
1021.834 1532 62.23755 0 0 0 
1021.834 1533 62.23755 0 0 0 
1021.834 1534 62.23755 0 0 0 
1021.834 1535 62.23755 0 0 0 
1021.834 1536 62.23755 0 0 0 
1021.834 1537 62.23755 0 0 0 
1021.904 1518 63.23511 0 0 0 
1021.904 1519 63.23511 0 0 0 
1021.904 1520 63.23511 0 0 0 
1021.904 1521 63.23511 0 0 0 
1021.904 1522 63.23511 0 0 0 
1021.904 1523 63.23511 0 0 0 
1021.904 1524 63.23511 0 0 0 
1021.904 1525 63.23511 0 0 0 
1021.904 1526 63.23511 0 0 0 
1021.904 1527 63.23511 0 0 0 
1021.904 1528 63.23511 0 0 0 
1021.904 1529 63.23511 0 0 0 
1021.904 1530 63.23511 0 0 0 
1021.904 1531 63.23511 0 0 0 
1021.973 1517 64.2327 0 0 0 
1021.973 1518 64.2327 0 0 0 
1021.973 1519 64.2327 0 0 0 
1021.973 1520 64.2327 0 0 0 
1021.973 1521 64.2327 0 0 0 
1022.043 1515 65.23026 0 0 0 
1022.043 1516 65.23026 0 0 0 
1022.043 1517 65.23026 0 0 0 
1022.043 1518 65.23026 0 0 0 
1022.043 1519 65.23026 0 0 0 
1022.043 1520 65.23026 0 0 0 
1022.113 1514 66.22781 0 0 0 
1022.113 1515 66.22781 0 0 0 
1022.113 1516 66.22781 0 0 0 
1022.113 1517 66.22781 0 0 0 
1022.113 1518 66.22781 0 0 0 
1022.113 1519 66.22781 0 0 0 
1022.183 1512 67.22537 0 0 0 
1022.183 1513 67.22537 0 0 0 
1022.183 1514 67.22537 0 0 0 
1022.183 1515 67.22537 0 0 0 
1022.183 1516 67.22537 0 0 0 
1022.183 1517 67.22537 0 0 0 
1022.183 1518 67.22537 0 0 0 
1022.252 1510 68.22293 0 0 0 
1022.252 1511 68.22293 0 0 0 
1022.252 1512 68.22293 0 0 0 
1022.252 1513 68.22293 0 0 0 
1022.252 1514 68.22293 0 0 0 
1022.252 1515 68.22293 0 0 0 
1022.252 1516 68.22293 0 0 0 
1022.252 1517 68.22293 0 0 0 
1022.322 1508 69.22052 0 0 0 
1022.322 1509 69.22052 0 0 0 
1022.322 1510 69.22052 0 0 0 
1022.322 1511 69.22052 0 0 0 
1022.322 1512 69.22052 0 0 0 
1022.322 1513 69.22052 0 0 0 
1022.322 1514 69.22052 0 0 0 
1022.392 1505 70.21808 0 0 0 
1022.392 1506 70.21808 0 0 0 
1022.392 1507 70.21808 0 0 0 
1022.392 1508 70.21808 0 0 0 
1022.392 1509 70.21808 0 0 0 
1022.392 1510 70.21808 0 0 0 
1022.392 1511 70.21808 0 0 0 
1022.392 1512 70.21808 0 0 0 
1022.462 1503 71.21564 0 0 0 
1022.462 1504 71.21564 0 0 0 
1022.462 1505 71.21564 0 0 0 
1022.462 1506 71.21564 0 0 0 
1022.462 1507 71.21564 0 0 0 
1022.462 1508 71.21564 0 0 0 
1022.462 1509 71.21564 0 0 0 
1022.462 1510 71.21564 0 0 0 
1022.462 1511 71.21564 0 0 0 
1022.462 1512 71.21564 0 0 0 
1022.531 1501 72.2132 0 0 0 
1022.531 1502 72.2132 0 0 0 
1022.531 1503 72.2132 0 0 0 
1022.531 1504 72.2132 0 0 0 
1022.531 1505 72.2132 0 0 0 
1022.531 1506 72.2132 0 0 0 
1022.531 1507 72.2132 0 0 0 
1022.531 1508 72.2132 0 0 0 
1022.531 1509 72.2132 0 0 0 
1022.601 1496 73.21075 0 0 0 
1022.601 1497 73.21075 0 0 0 
1022.601 1498 73.21075 0 0 0 
1022.601 1499 73.21075 0 0 0 
1022.601 1500 73.21075 0 0 0 
1022.601 1501 73.21075 0 0 0 
1022.601 1502 73.21075 0 0 0 
1022.601 1503 73.21075 0 0 0 
1022.601 1504 73.21075 0 0 0 
1022.601 1505 73.21075 0 0 0 
1022.601 1506 73.21075 0 0 0 
1022.601 1507 73.21075 0 0 0 
1022.601 1508 73.21075 0 0 0 
1022.671 1482 74.20831 0 0 0 
1022.671 1489 74.20831 0 0 0 
1022.671 1490 74.20831 0 0 0 
1022.671 1491 74.20831 0 0 0 
1022.671 1492 74.20831 0 0 0 
1022.671 1493 74.20831 0 0 0 
1022.671 1494 74.20831 0 0 0 
1022.671 1495 74.20831 0 0 0 
1022.671 1496 74.20831 0 0 0 
1022.671 1497 74.20831 0 0 0 
1022.671 1498 74.20831 0 0 0 
1022.671 1499 74.20831 0 0 0 
1022.671 1500 74.20831 0 0 0 
1022.671 1501 74.20831 0 0 0 
1022.671 1502 74.20831 0 0 0 
1022.671 1503 74.20831 0 0 0 
1022.671 1504 74.20831 0 0 0 
1022.671 1505 74.20831 0 0 0 
1022.671 1506 74.20831 0 0 0 
1022.741 1476 75.2059 0 0 0 
1022.741 1477 75.2059 0 0 0 
1022.741 1478 75.2059 0 0 0 
1022.741 1479 75.2059 0 0 0 
1022.741 1480 75.2059 0 0 0 
1022.741 1481 75.2059 0 0 0 
1022.741 1482 75.2059 0 0 0 
1022.741 1483 75.2059 0 0 0 
1022.741 1484 75.2059 0 0 0 
1022.741 1485 75.2059 0 0 0 
1022.741 1486 75.2059 0 0 0 
1022.741 1487 75.2059 0 0 0 
1022.741 1488 75.2059 0 0 0 
1022.741 1489 75.2059 0 0 0 
1022.741 1490 75.2059 0 0 0 
1022.741 1491 75.2059 0 0 0 
1022.741 1492 75.2059 0 0 0 
1022.741 1493 75.2059 0 0 0 
1022.741 1494 75.2059 0 0 0 
1022.741 1495 75.2059 0 0 0 
1022.741 1496 75.2059 0 0 0 
1022.741 1497 75.2059 0 0 0 
1022.741 1498 75.2059 0 0 0 
1022.741 1499 75.2059 0 0 0 
1022.741 1500 75.2059 0 0 0 
1022.741 1501 75.2059 0 0 0 
1022.741 1502 75.2059 0 0 0 
1022.741 1503 75.2059 0 0 0 
1022.741 1504 75.2059 0 0 0 
1022.81 1470 76.20346 0 0 0 
1022.81 1471 76.20346 0 0 0 
1022.81 1472 76.20346 0 0 0 
1022.81 1473 76.20346 0 0 0 
1022.81 1474 76.20346 0 0 0 
1022.81 1475 76.20346 0 0 0 
1022.81 1476 76.20346 0 0 0 
1022.81 1477 76.20346 0 0 0 
1022.81 1478 76.20346 0 0 0 
1022.81 1479 76.20346 0 0 0 
1022.81 1480 76.20346 0 0 0 
1022.81 1481 76.20346 0 0 0 
1022.81 1482 76.20346 0 0 0 
1022.81 1483 76.20346 0 0 0 
1022.81 1484 76.20346 0 0 0 
1022.81 1485 76.20346 0 0 0 
1022.81 1486 76.20346 0 0 0 
1022.81 1487 76.20346 0 0 0 
1022.81 1488 76.20346 0 0 0 
1022.81 1489 76.20346 0 0 0 
1022.81 1490 76.20346 0 0 0 
1022.81 1491 76.20346 0 0 0 
1022.81 1492 76.20346 0 0 0 
1022.81 1493 76.20346 0 0 0 
1022.81 1494 76.20346 0 0 0 
1022.81 1495 76.20346 0 0 0 
1022.81 1496 76.20346 0 0 0 
1022.81 1497 76.20346 0 0 0 
1022.81 1498 76.20346 0 0 0 
1022.81 1499 76.20346 0 0 0 
1022.81 1500 76.20346 0 0 0 
1022.88 1466 77.20102 0 0 0 
1022.88 1467 77.20102 0 0 0 
1022.88 1468 77.20102 0 0 0 
1022.88 1469 77.20102 0 0 0 
1022.88 1470 77.20102 0 0 0 
1022.88 1471 77.20102 0 0 0 
1022.88 1472 77.20102 0 0 0 
1022.88 1473 77.20102 0 0 0 
1022.88 1474 77.20102 0 0 0 
1022.88 1475 77.20102 0 0 0 
1022.88 1476 77.20102 0 0 0 
1022.88 1477 77.20102 0 0 0 
1022.88 1478 77.20102 0 0 0 
1022.88 1479 77.20102 0 0 0 
1022.88 1480 77.20102 0 0 0 
1022.88 1481 77.20102 0 0 0 
1022.88 1482 77.20102 0 0 0 
1022.88 1483 77.20102 0 0 0 
1022.88 1484 77.20102 0 0 0 
1022.88 1485 77.20102 0 0 0 
1022.88 1486 77.20102 0 0 0 
1022.88 1487 77.20102 0 0 0 
1022.88 1488 77.20102 0 0 0 
1022.88 1489 77.20102 0 0 0 
1022.88 1490 77.20102 0 0 0 
1022.88 1491 77.20102 0 0 0 
1022.88 1492 77.20102 0 0 0 
1022.88 1493 77.20102 0 0 0 
1022.88 1494 77.20102 0 0 0 
1022.88 1495 77.20102 0 0 0 
1022.88 1496 77.20102 0 0 0 
1022.88 1497 77.20102 0 0 0 
1022.88 1498 77.20102 0 0 0 
1022.95 1462 78.19858 0 0 0 
1022.95 1463 78.19858 0 0 0 
1022.95 1464 78.19858 0 0 0 
1022.95 1465 78.19858 0 0 0 
1022.95 1466 78.19858 0 0 0 
1022.95 1467 78.19858 0 0 0 
1022.95 1468 78.19858 0 0 0 
1022.95 1469 78.19858 0 0 0 
1022.95 1470 78.19858 0 0 0 
1022.95 1471 78.19858 0 0 0 
1022.95 1472 78.19858 0 0 0 
1022.95 1473 78.19858 0 0 0 
1022.95 1474 78.19858 0 0 0 
1022.95 1475 78.19858 0 0 0 
1022.95 1476 78.19858 0 0 0 
1022.95 1477 78.19858 0 0 0 
1022.95 1478 78.19858 0 0 0 
1022.95 1479 78.19858 0 0 0 
1022.95 1480 78.19858 0 0 0 
1022.95 1481 78.19858 0 0 0 
1022.95 1482 78.19858 0 0 0 
1022.95 1483 78.19858 0 0 0 
1022.95 1484 78.19858 0 0 0 
1022.95 1485 78.19858 0 0 0 
1022.95 1490 78.19858 0 0 0 
1022.95 1491 78.19858 0 0 0 
1022.95 1492 78.19858 0 0 0 
1022.95 1493 78.19858 0 0 0 
1022.95 1494 78.19858 0 0 0 
1022.95 1495 78.19858 0 0 0 
1023.02 1458 79.19614 0 0 0 
1023.02 1459 79.19614 0 0 0 
1023.02 1460 79.19614 0 0 0 
1023.02 1461 79.19614 0 0 0 
1023.02 1462 79.19614 0 0 0 
1023.02 1463 79.19614 0 0 0 
1023.02 1464 79.19614 0 0 0 
1023.02 1465 79.19614 0 0 0 
1023.02 1466 79.19614 0 0 0 
1023.02 1467 79.19614 0 0 0 
1023.02 1468 79.19614 0 0 0 
1023.02 1469 79.19614 0 0 0 
1023.02 1470 79.19614 0 0 0 
1023.02 1471 79.19614 0 0 0 
1023.02 1472 79.19614 0 0 0 
1023.02 1473 79.19614 0 0 0 
1023.02 1474 79.19614 0 0 0 
1023.02 1475 79.19614 0 0 0 
1023.02 1476 79.19614 0 0 0 
1023.02 1477 79.19614 0 0 0 
1023.089 1453 80.1937 0 0 0 
1023.089 1454 80.1937 0 0 0 
1023.089 1455 80.1937 0 0 0 
1023.089 1456 80.1937 0 0 0 
1023.089 1457 80.1937 0 0 0 
1023.089 1458 80.1937 0 0 0 
1023.089 1459 80.1937 0 0 0 
1023.089 1460 80.1937 0 0 0 
1023.089 1461 80.1937 0 0 0 
1023.089 1462 80.1937 0 0 0 
1023.089 1463 80.1937 0 0 0 
1023.089 1464 80.1937 0 0 0 
1023.089 1465 80.1937 0 0 0 
1023.089 1466 80.1937 0 0 0 
1023.089 1467 80.1937 0 0 0 
1023.089 1468 80.1937 0 0 0 
1023.089 1469 80.1937 0 0 0 
1023.089 1470 80.1937 0 0 0 
1023.089 1471 80.1937 0 0 0 
1023.089 1472 80.1937 0 0 0 
1023.159 1450 81.19128 0 0 0 
1023.159 1451 81.19128 0 0 0 
1023.159 1452 81.19128 0 0 0 
1023.159 1453 81.19128 0 0 0 
1023.159 1454 81.19128 0 0 0 
1023.159 1455 81.19128 0 0 0 
1023.159 1456 81.19128 0 0 0 
1023.159 1457 81.19128 0 0 0 
1023.159 1458 81.19128 0 0 0 
1023.159 1459 81.19128 0 0 0 
1023.159 1460 81.19128 0 0 0 
1023.159 1461 81.19128 0 0 0 
1023.159 1462 81.19128 0 0 0 
1023.159 1463 81.19128 0 0 0 
1023.159 1464 81.19128 0 0 0 
1023.229 1446 82.18884 0 0 0 
1023.229 1447 82.18884 0 0 0 
1023.229 1448 82.18884 0 0 0 
1023.229 1449 82.18884 0 0 0 
1023.229 1450 82.18884 0 0 0 
1023.229 1451 82.18884 0 0 0 
1023.229 1452 82.18884 0 0 0 
1023.229 1453 82.18884 0 0 0 
1023.229 1454 82.18884 0 0 0 
1023.229 1455 82.18884 0 0 0 
1023.229 1456 82.18884 0 0 0 
1023.229 1457 82.18884 0 0 0 
1023.229 1458 82.18884 0 0 0 
1023.229 1459 82.18884 0 0 0 
1023.229 1460 82.18884 0 0 0 
1023.299 1444 83.1864 0 0 0 
1023.299 1445 83.1864 0 0 0 
1023.299 1446 83.1864 0 0 0 
1023.299 1447 83.1864 0 0 0 
1023.299 1448 83.1864 0 0 0 
1023.299 1449 83.1864 0 0 0 
1023.299 1450 83.1864 0 0 0 
1023.299 1451 83.1864 0 0 0 
1023.299 1452 83.1864 0 0 0 
1023.299 1453 83.1864 0 0 0 
1023.299 1454 83.1864 0 0 0 
1023.299 1455 83.1864 0 0 0 
1023.299 1456 83.1864 0 0 0 
1023.368 1443 84.18396 0 0 0 
1023.368 1444 84.18396 0 0 0 
1023.368 1445 84.18396 0 0 0 
1023.368 1446 84.18396 0 0 0 
1023.368 1447 84.18396 0 0 0 
1023.368 1448 84.18396 0 0 0 
1023.368 1449 84.18396 0 0 0 
1023.368 1450 84.18396 0 0 0 
1023.368 1451 84.18396 0 0 0 
1023.368 1452 84.18396 0 0 0 
1023.368 1453 84.18396 0 0 0 
1023.368 1454 84.18396 0 0 0 
1023.438 1440 85.18152 0 0 0 
1023.438 1441 85.18152 0 0 0 
1023.438 1442 85.18152 0 0 0 
1023.438 1443 85.18152 0 0 0 
1023.438 1444 85.18152 0 0 0 
1023.438 1445 85.18152 0 0 0 
1023.438 1446 85.18152 0 0 0 
1023.438 1447 85.18152 0 0 0 
1023.438 1448 85.18152 0 0 0 
1023.438 1449 85.18152 0 0 0 
1023.438 1450 85.18152 0 0 0 
1023.438 1451 85.18152 0 0 0 
1023.508 1436 86.17911 0 0 0 
1023.508 1437 86.17911 0 0 0 
1023.508 1438 86.17911 0 0 0 
1023.508 1439 86.17911 0 0 0 
1023.508 1440 86.17911 0 0 0 
1023.508 1441 86.17911 0 0 0 
1023.508 1442 86.17911 0 0 0 
1023.508 1443 86.17911 0 0 0 
1023.508 1444 86.17911 0 0 0 
1023.508 1445 86.17911 0 0 0 
1023.508 1446 86.17911 0 0 0 
1023.508 1447 86.17911 0 0 0 
1023.508 1448 86.17911 0 0 0 
1023.578 1434 87.17667 0 0 0 
1023.578 1435 87.17667 0 0 0 
1023.578 1436 87.17667 0 0 0 
1023.578 1437 87.17667 0 0 0 
1023.578 1438 87.17667 0 0 0 
1023.578 1439 87.17667 0 0 0 
1023.578 1440 87.17667 0 0 0 
1023.578 1441 87.17667 0 0 0 
1023.578 1442 87.17667 0 0 0 
1023.578 1443 87.17667 0 0 0 
1023.578 1444 87.17667 0 0 0 
1023.578 1445 87.17667 0 0 0 
1023.578 1446 87.17667 0 0 0 
1023.647 1432 88.17422 0 0 0 
1023.647 1433 88.17422 0 0 0 
1023.647 1434 88.17422 0 0 0 
1023.647 1435 88.17422 0 0 0 
1023.647 1436 88.17422 0 0 0 
1023.647 1437 88.17422 0 0 0 
1023.647 1438 88.17422 0 0 0 
1023.647 1439 88.17422 0 0 0 
1023.647 1440 88.17422 0 0 0 
1023.647 1441 88.17422 0 0 0 
1023.647 1442 88.17422 0 0 0 
1023.647 1443 88.17422 0 0 0 
1023.647 1444 88.17422 0 0 0 
1023.717 1429 89.17178 0 0 0 
1023.717 1430 89.17178 0 0 0 
1023.717 1431 89.17178 0 0 0 
1023.717 1432 89.17178 0 0 0 
1023.717 1433 89.17178 0 0 0 
1023.717 1434 89.17178 0 0 0 
1023.717 1435 89.17178 0 0 0 
1023.717 1436 89.17178 0 0 0 
1023.717 1437 89.17178 0 0 0 
1023.717 1438 89.17178 0 0 0 
1023.717 1439 89.17178 0 0 0 
1023.717 1440 89.17178 0 0 0 
1023.717 1441 89.17178 0 0 0 
1023.717 1442 89.17178 0 0 0 
1023.787 1427 90.16934 0 0 0 
1023.787 1428 90.16934 0 0 0 
1023.787 1429 90.16934 0 0 0 
1023.787 1430 90.16934 0 0 0 
1023.787 1431 90.16934 0 0 0 
1023.787 1432 90.16934 0 0 0 
1023.787 1433 90.16934 0 0 0 
1023.787 1434 90.16934 0 0 0 
1023.787 1435 90.16934 0 0 0 
1023.787 1436 90.16934 0 0 0 
1023.857 1423 91.1669 0 0 0 
1023.857 1424 91.1669 0 0 0 
1023.857 1425 91.1669 0 0 0 
1023.857 1426 91.1669 0 0 0 
1023.857 1427 91.1669 0 0 0 
1023.857 1428 91.1669 0 0 0 
1023.857 1429 91.1669 0 0 0 
1023.857 1430 91.1669 0 0 0 
1023.857 1431 91.1669 0 0 0 
1023.857 1432 91.1669 0 0 0 
1023.857 1433 91.1669 0 0 0 
1023.927 1421 92.16449 0 0 0 
1023.927 1422 92.16449 0 0 0 
1023.927 1423 92.16449 0 0 0 
1023.927 1424 92.16449 0 0 0 
1023.927 1425 92.16449 0 0 0 
1023.927 1426 92.16449 0 0 0 
1023.927 1427 92.16449 0 0 0 
1023.927 1428 92.16449 0 0 0 
1023.927 1429 92.16449 0 0 0 
1023.927 1430 92.16449 0 0 0 
1023.927 1431 92.16449 0 0 0 
1023.996 1420 93.16205 0 0 0 
1023.996 1421 93.16205 0 0 0 
1023.996 1422 93.16205 0 0 0 
1023.996 1423 93.16205 0 0 0 
1023.996 1424 93.16205 0 0 0 
1023.996 1425 93.16205 0 0 0 
1023.996 1426 93.16205 0 0 0 
1023.996 1427 93.16205 0 0 0 
1023.996 1428 93.16205 0 0 0 
1023.996 1429 93.16205 0 0 0 
1023.996 1430 93.16205 0 0 0 
1024.066 1416 94.15961 0 0 0 
1024.066 1417 94.15961 0 0 0 
1024.066 1418 94.15961 0 0 0 
1024.066 1419 94.15961 0 0 0 
1024.066 1420 94.15961 0 0 0 
1024.066 1421 94.15961 0 0 0 
1024.066 1422 94.15961 0 0 0 
1024.066 1423 94.15961 0 0 0 
1024.066 1424 94.15961 0 0 0 
1024.066 1425 94.15961 0 0 0 
1024.066 1426 94.15961 0 0 0 
1024.066 1427 94.15961 0 0 0 
1024.136 1412 95.15717 0 0 0 
1024.136 1413 95.15717 0 0 0 
1024.136 1414 95.15717 0 0 0 
1024.136 1415 95.15717 0 0 0 
1024.136 1416 95.15717 0 0 0 
1024.136 1417 95.15717 0 0 0 
1024.136 1418 95.15717 0 0 0 
1024.136 1419 95.15717 0 0 0 
1024.136 1420 95.15717 0 0 0 
1024.136 1421 95.15717 0 0 0 
1024.136 1422 95.15717 0 0 0 
1024.136 1423 95.15717 0 0 0 
1024.136 1424 95.15717 0 0 0 
1024.206 1409 96.15472 0 0 0 
1024.206 1410 96.15472 0 0 0 
1024.206 1411 96.15472 0 0 0 
1024.206 1412 96.15472 0 0 0 
1024.206 1413 96.15472 0 0 0 
1024.206 1414 96.15472 0 0 0 
1024.206 1415 96.15472 0 0 0 
1024.206 1416 96.15472 0 0 0 
1024.206 1417 96.15472 0 0 0 
1024.206 1418 96.15472 0 0 0 
1024.206 1419 96.15472 0 0 0 
1024.206 1420 96.15472 0 0 0 
1024.206 1421 96.15472 0 0 0 
1024.206 1422 96.15472 0 0 0 
1024.206 1423 96.15472 0 0 0 
1024.275 1407 97.15231 0 0 0 
1024.275 1408 97.15231 0 0 0 
1024.275 1409 97.15231 0 0 0 
1024.275 1410 97.15231 0 0 0 
1024.275 1411 97.15231 0 0 0 
1024.275 1412 97.15231 0 0 0 
1024.275 1413 97.15231 0 0 0 
1024.275 1414 97.15231 0 0 0 
1024.275 1415 97.15231 0 0 0 
1024.275 1416 97.15231 0 0 0 
1024.275 1417 97.15231 0 0 0 
1024.275 1418 97.15231 0 0 0 
1024.345 1405 98.14987 0 0 0 
1024.345 1406 98.14987 0 0 0 
1024.345 1407 98.14987 0 0 0 
1024.345 1408 98.14987 0 0 0 
1024.345 1409 98.14987 0 0 0 
1024.345 1410 98.14987 0 0 0 
1024.345 1411 98.14987 0 0 0 
1024.345 1412 98.14987 0 0 0 
1024.345 1413 98.14987 0 0 0 
1024.345 1414 98.14987 0 0 0 
1024.345 1415 98.14987 0 0 0 
1024.345 1416 98.14987 0 0 0 
1024.415 1401 99.14743 0 0 0 
1024.415 1402 99.14743 0 0 0 
1024.415 1403 99.14743 0 0 0 
1024.415 1404 99.14743 0 0 0 
1024.415 1405 99.14743 0 0 0 
1024.415 1406 99.14743 0 0 0 
1024.415 1407 99.14743 0 0 0 
1024.415 1408 99.14743 0 0 0 
1024.415 1409 99.14743 0 0 0 
1024.415 1410 99.14743 0 0 0 
1024.415 1411 99.14743 0 0 0 
1024.415 1412 99.14743 0 0 0 
1024.415 1413 99.14743 0 0 0 
1024.415 1414 99.14743 0 0 0 
1024.484 1398 100.145 0 0 0 
1024.484 1399 100.145 0 0 0 
1024.484 1400 100.145 0 0 0 
1024.484 1401 100.145 0 0 0 
1024.484 1402 100.145 0 0 0 
1024.484 1403 100.145 0 0 0 
1024.484 1404 100.145 0 0 0 
1024.484 1405 100.145 0 0 0 
1024.484 1406 100.145 0 0 0 
1024.484 1407 100.145 0 0 0 
1024.484 1408 100.145 0 0 0 
1024.484 1409 100.145 0 0 0 
1024.484 1410 100.145 0 0 0 
1024.484 1411 100.145 0 0 0 
1024.484 1412 100.145 0 0 0 
1024.554 1396 101.1425 0 0 0 
1024.554 1397 101.1425 0 0 0 
1024.554 1398 101.1425 0 0 0 
1024.554 1399 101.1425 0 0 0 
1024.554 1400 101.1425 0 0 0 
1024.554 1401 101.1425 0 0 0 
1024.554 1402 101.1425 0 0 0 
1024.554 1403 101.1425 0 0 0 
1024.554 1404 101.1425 0 0 0 
1024.554 1405 101.1425 0 0 0 
1024.554 1406 101.1425 0 0 0 
1024.554 1407 101.1425 0 0 0 
1024.554 1408 101.1425 0 0 0 
1024.554 1409 101.1425 0 0 0 
1024.624 1394 102.1401 0 0 0 
1024.624 1395 102.1401 0 0 0 
1024.624 1396 102.1401 0 0 0 
1024.624 1397 102.1401 0 0 0 
1024.624 1398 102.1401 0 0 0 
1024.624 1399 102.1401 0 0 0 
1024.624 1400 102.1401 0 0 0 
1024.624 1401 102.1401 0 0 0 
1024.624 1402 102.1401 0 0 0 
1024.624 1403 102.1401 0 0 0 
1024.624 1404 102.1401 0 0 0 
1024.694 1391 103.1377 0 0 0 
1024.694 1392 103.1377 0 0 0 
1024.694 1393 103.1377 0 0 0 
1024.694 1394 103.1377 0 0 0 
1024.694 1395 103.1377 0 0 0 
1024.694 1396 103.1377 0 0 0 
1024.694 1397 103.1377 0 0 0 
1024.694 1398 103.1377 0 0 0 
1024.694 1399 103.1377 0 0 0 
1024.694 1400 103.1377 0 0 0 
1024.694 1401 103.1377 0 0 0 
1024.694 1402 103.1377 0 0 0 
1024.764 1388 104.1353 0 0 0 
1024.764 1389 104.1353 0 0 0 
1024.764 1390 104.1353 0 0 0 
1024.764 1391 104.1353 0 0 0 
1024.764 1392 104.1353 0 0 0 
1024.764 1393 104.1353 0 0 0 
1024.764 1394 104.1353 0 0 0 
1024.764 1395 104.1353 0 0 0 
1024.764 1396 104.1353 0 0 0 
1024.764 1397 104.1353 0 0 0 
1024.764 1398 104.1353 0 0 0 
1024.764 1399 104.1353 0 0 0 
1024.833 1386 105.1328 0 0 0 
1024.833 1387 105.1328 0 0 0 
1024.833 1388 105.1328 0 0 0 
1024.833 1389 105.1328 0 0 0 
1024.833 1390 105.1328 0 0 0 
1024.833 1391 105.1328 0 0 0 
1024.833 1392 105.1328 0 0 0 
1024.833 1393 105.1328 0 0 0 
1024.833 1394 105.1328 0 0 0 
1024.833 1395 105.1328 0 0 0 
1024.833 1396 105.1328 0 0 0 
1024.833 1397 105.1328 0 0 0 
1024.903 1382 106.1304 0 0 0 
1024.903 1383 106.1304 0 0 0 
1024.903 1384 106.1304 0 0 0 
1024.903 1385 106.1304 0 0 0 
1024.903 1386 106.1304 0 0 0 
1024.903 1387 106.1304 0 0 0 
1024.903 1388 106.1304 0 0 0 
1024.903 1389 106.1304 0 0 0 
1024.903 1390 106.1304 0 0 0 
1024.903 1391 106.1304 0 0 0 
1024.903 1392 106.1304 0 0 0 
1024.903 1393 106.1304 0 0 0 
1024.903 1394 106.1304 0 0 0 
1024.973 1380 107.1279 0 0 0 
1024.973 1381 107.1279 0 0 0 
1024.973 1382 107.1279 0 0 0 
1024.973 1383 107.1279 0 0 0 
1024.973 1384 107.1279 0 0 0 
1024.973 1385 107.1279 0 0 0 
1024.973 1386 107.1279 0 0 0 
1024.973 1387 107.1279 0 0 0 
1024.973 1388 107.1279 0 0 0 
1024.973 1389 107.1279 0 0 0 
1024.973 1390 107.1279 0 0 0 
1024.973 1391 107.1279 0 0 0 
1024.973 1392 107.1279 0 0 0 
1025.043 1377 108.1255 0 0 0 
1025.043 1378 108.1255 0 0 0 
1025.043 1379 108.1255 0 0 0 
1025.043 1380 108.1255 0 0 0 
1025.043 1381 108.1255 0 0 0 
1025.043 1382 108.1255 0 0 0 
1025.043 1383 108.1255 0 0 0 
1025.043 1384 108.1255 0 0 0 
1025.043 1385 108.1255 0 0 0 
1025.043 1386 108.1255 0 0 0 
1025.043 1387 108.1255 0 0 0 
1025.043 1388 108.1255 0 0 0 
1025.043 1389 108.1255 0 0 0 
1025.043 1390 108.1255 0 0 0 
1025.112 1373 109.1231 0 0 0 
1025.112 1374 109.1231 0 0 0 
1025.112 1375 109.1231 0 0 0 
1025.112 1376 109.1231 0 0 0 
1025.112 1377 109.1231 0 0 0 
1025.112 1378 109.1231 0 0 0 
1025.112 1379 109.1231 0 0 0 
1025.112 1380 109.1231 0 0 0 
1025.112 1381 109.1231 0 0 0 
1025.112 1382 109.1231 0 0 0 
1025.112 1383 109.1231 0 0 0 
1025.112 1384 109.1231 0 0 0 
1025.112 1385 109.1231 0 0 0 
1025.112 1386 109.1231 0 0 0 
1025.112 1387 109.1231 0 0 0 
1025.182 1370 110.1206 0 0 0 
1025.182 1371 110.1206 0 0 0 
1025.182 1372 110.1206 0 0 0 
1025.182 1373 110.1206 0 0 0 
1025.182 1374 110.1206 0 0 0 
1025.182 1375 110.1206 0 0 0 
1025.182 1376 110.1206 0 0 0 
1025.182 1377 110.1206 0 0 0 
1025.182 1378 110.1206 0 0 0 
1025.182 1379 110.1206 0 0 0 
1025.182 1380 110.1206 0 0 0 
1025.182 1381 110.1206 0 0 0 
1025.182 1382 110.1206 0 0 0 
1025.182 1383 110.1206 0 0 0 
1025.182 1384 110.1206 0 0 0 
1025.182 1385 110.1206 0 0 0 
1025.252 1366 111.1182 0 0 0 
1025.252 1367 111.1182 0 0 0 
1025.252 1368 111.1182 0 0 0 
1025.252 1369 111.1182 0 0 0 
1025.252 1370 111.1182 0 0 0 
