ply
format ascii 1.0
comment VCGLIB generated
element vertex 1555
property float x
property float y
property float z
property float nx
property float ny
property float nz
element face 0
property list uchar int vertex_indices
end_header
1013.254 1244 -60.46283 0 0 0 
1013.254 1245 -60.46283 0 0 0 
1013.254 1246 -60.46283 0 0 0 
1013.254 1247 -60.46283 0 0 0 
1013.254 1248 -60.46283 0 0 0 
1013.254 1249 -60.46283 0 0 0 
1013.254 1250 -60.46283 0 0 0 
1013.254 1251 -60.46283 0 0 0 
1013.254 1252 -60.46283 0 0 0 
1013.254 1253 -60.46283 0 0 0 
1013.254 1254 -60.46283 0 0 0 
1013.254 1279 -60.46283 0 0 0 
1013.254 1280 -60.46283 0 0 0 
1013.254 1281 -60.46283 0 0 0 
1013.254 1282 -60.46283 0 0 0 
1013.254 1283 -60.46283 0 0 0 
1013.254 1284 -60.46283 0 0 0 
1013.254 1285 -60.46283 0 0 0 
1013.254 1286 -60.46283 0 0 0 
1013.254 1287 -60.46283 0 0 0 
1013.254 1288 -60.46283 0 0 0 
1013.254 1289 -60.46283 0 0 0 
1013.254 1290 -60.46283 0 0 0 
1013.254 1291 -60.46283 0 0 0 
1013.254 1292 -60.46283 0 0 0 
1013.254 1293 -60.46283 0 0 0 
1013.254 1294 -60.46283 0 0 0 
1013.254 1295 -60.46283 0 0 0 
1013.254 1296 -60.46283 0 0 0 
1013.254 1297 -60.46283 0 0 0 
1013.254 1298 -60.46283 0 0 0 
1013.254 1299 -60.46283 0 0 0 
1013.254 1300 -60.46283 0 0 0 
1013.254 1301 -60.46283 0 0 0 
1013.254 1302 -60.46283 0 0 0 
1013.254 1303 -60.46283 0 0 0 
1013.254 1304 -60.46283 0 0 0 
1013.254 1305 -60.46283 0 0 0 
1013.254 1306 -60.46283 0 0 0 
1013.254 1307 -60.46283 0 0 0 
1013.254 1308 -60.46283 0 0 0 
1013.254 1309 -60.46283 0 0 0 
1013.254 1310 -60.46283 0 0 0 
1013.254 1311 -60.46283 0 0 0 
1013.254 1312 -60.46283 0 0 0 
1013.254 1313 -60.46283 0 0 0 
1013.254 1314 -60.46283 0 0 0 
1013.254 1315 -60.46283 0 0 0 
1013.254 1316 -60.46283 0 0 0 
1013.254 1317 -60.46283 0 0 0 
1013.254 1318 -60.46283 0 0 0 
1013.254 1583 -60.46283 0 0 0 
1013.254 1584 -60.46283 0 0 0 
1013.254 1585 -60.46283 0 0 0 
1013.254 1586 -60.46283 0 0 0 
1013.254 1587 -60.46283 0 0 0 
1013.254 1588 -60.46283 0 0 0 
1013.254 1589 -60.46283 0 0 0 
1013.254 1590 -60.46283 0 0 0 
1013.254 1591 -60.46283 0 0 0 
1013.254 1592 -60.46283 0 0 0 
1013.254 1593 -60.46283 0 0 0 
1013.254 1594 -60.46283 0 0 0 
1013.254 1595 -60.46283 0 0 0 
1013.254 1596 -60.46283 0 0 0 
1013.254 1597 -60.46283 0 0 0 
1013.254 1598 -60.46283 0 0 0 
1013.254 1599 -60.46283 0 0 0 
1013.254 1694 -60.46283 0 0 0 
1013.254 1695 -60.46283 0 0 0 
1013.254 1696 -60.46283 0 0 0 
1013.254 1697 -60.46283 0 0 0 
1013.254 1698 -60.46283 0 0 0 
1013.254 1699 -60.46283 0 0 0 
1013.254 1700 -60.46283 0 0 0 
1013.254 1701 -60.46283 0 0 0 
1013.254 1702 -60.46283 0 0 0 
1013.254 1703 -60.46283 0 0 0 
1013.254 1704 -60.46283 0 0 0 
1013.254 1705 -60.46283 0 0 0 
1013.254 1706 -60.46283 0 0 0 
1013.254 1707 -60.46283 0 0 0 
1013.323 1227 -59.46526 0 0 0 
1013.323 1228 -59.46526 0 0 0 
1013.323 1229 -59.46526 0 0 0 
1013.323 1230 -59.46526 0 0 0 
1013.323 1231 -59.46526 0 0 0 
1013.323 1232 -59.46526 0 0 0 
1013.323 1233 -59.46526 0 0 0 
1013.323 1234 -59.46526 0 0 0 
1013.323 1235 -59.46526 0 0 0 
1013.323 1236 -59.46526 0 0 0 
1013.323 1237 -59.46526 0 0 0 
1013.323 1238 -59.46526 0 0 0 
1013.323 1239 -59.46526 0 0 0 
1013.323 1297 -59.46526 0 0 0 
1013.323 1298 -59.46526 0 0 0 
1013.323 1299 -59.46526 0 0 0 
1013.323 1300 -59.46526 0 0 0 
1013.323 1301 -59.46526 0 0 0 
1013.323 1302 -59.46526 0 0 0 
1013.323 1303 -59.46526 0 0 0 
1013.323 1304 -59.46526 0 0 0 
1013.323 1305 -59.46526 0 0 0 
1013.323 1306 -59.46526 0 0 0 
1013.323 1307 -59.46526 0 0 0 
1013.323 1308 -59.46526 0 0 0 
1013.323 1309 -59.46526 0 0 0 
1013.323 1310 -59.46526 0 0 0 
1013.323 1311 -59.46526 0 0 0 
1013.323 1312 -59.46526 0 0 0 
1013.323 1313 -59.46526 0 0 0 
1013.323 1314 -59.46526 0 0 0 
1013.323 1315 -59.46526 0 0 0 
1013.323 1316 -59.46526 0 0 0 
1013.323 1317 -59.46526 0 0 0 
1013.323 1318 -59.46526 0 0 0 
1013.323 1319 -59.46526 0 0 0 
1013.323 1320 -59.46526 0 0 0 
1013.323 1321 -59.46526 0 0 0 
1013.323 1322 -59.46526 0 0 0 
1013.323 1323 -59.46526 0 0 0 
1013.323 1324 -59.46526 0 0 0 
1013.323 1325 -59.46526 0 0 0 
1013.323 1326 -59.46526 0 0 0 
1013.323 1327 -59.46526 0 0 0 
1013.323 1578 -59.46526 0 0 0 
1013.323 1579 -59.46526 0 0 0 
1013.323 1580 -59.46526 0 0 0 
1013.323 1581 -59.46526 0 0 0 
1013.323 1582 -59.46526 0 0 0 
1013.323 1583 -59.46526 0 0 0 
1013.323 1584 -59.46526 0 0 0 
1013.323 1585 -59.46526 0 0 0 
1013.323 1586 -59.46526 0 0 0 
1013.323 1587 -59.46526 0 0 0 
1013.323 1588 -59.46526 0 0 0 
1013.323 1589 -59.46526 0 0 0 
1013.323 1590 -59.46526 0 0 0 
1013.323 1591 -59.46526 0 0 0 
1013.323 1592 -59.46526 0 0 0 
1013.323 1593 -59.46526 0 0 0 
1013.323 1594 -59.46526 0 0 0 
1013.323 1595 -59.46526 0 0 0 
1013.323 1596 -59.46526 0 0 0 
1013.323 1698 -59.46526 0 0 0 
1013.323 1699 -59.46526 0 0 0 
1013.323 1700 -59.46526 0 0 0 
1013.323 1701 -59.46526 0 0 0 
1013.323 1702 -59.46526 0 0 0 
1013.323 1703 -59.46526 0 0 0 
1013.323 1704 -59.46526 0 0 0 
1013.323 1705 -59.46526 0 0 0 
1013.323 1706 -59.46526 0 0 0 
1013.323 1707 -59.46526 0 0 0 
1013.323 1708 -59.46526 0 0 0 
1013.323 1709 -59.46526 0 0 0 
1013.323 1710 -59.46526 0 0 0 
1013.323 1711 -59.46526 0 0 0 
1013.393 1228 -58.4677 0 0 0 
1013.393 1229 -58.4677 0 0 0 
1013.393 1230 -58.4677 0 0 0 
1013.393 1231 -58.4677 0 0 0 
1013.393 1232 -58.4677 0 0 0 
1013.393 1233 -58.4677 0 0 0 
1013.393 1306 -58.4677 0 0 0 
1013.393 1307 -58.4677 0 0 0 
1013.393 1308 -58.4677 0 0 0 
1013.393 1309 -58.4677 0 0 0 
1013.393 1310 -58.4677 0 0 0 
1013.393 1311 -58.4677 0 0 0 
1013.393 1312 -58.4677 0 0 0 
1013.393 1313 -58.4677 0 0 0 
1013.393 1314 -58.4677 0 0 0 
1013.393 1315 -58.4677 0 0 0 
1013.393 1316 -58.4677 0 0 0 
1013.393 1317 -58.4677 0 0 0 
1013.393 1318 -58.4677 0 0 0 
1013.393 1319 -58.4677 0 0 0 
1013.393 1320 -58.4677 0 0 0 
1013.393 1321 -58.4677 0 0 0 
1013.393 1322 -58.4677 0 0 0 
1013.393 1323 -58.4677 0 0 0 
1013.393 1324 -58.4677 0 0 0 
1013.393 1325 -58.4677 0 0 0 
1013.393 1326 -58.4677 0 0 0 
1013.393 1327 -58.4677 0 0 0 
1013.393 1328 -58.4677 0 0 0 
1013.393 1329 -58.4677 0 0 0 
1013.393 1330 -58.4677 0 0 0 
1013.393 1331 -58.4677 0 0 0 
1013.393 1332 -58.4677 0 0 0 
1013.393 1333 -58.4677 0 0 0 
1013.393 1334 -58.4677 0 0 0 
1013.393 1335 -58.4677 0 0 0 
1013.393 1577 -58.4677 0 0 0 
1013.393 1578 -58.4677 0 0 0 
1013.393 1579 -58.4677 0 0 0 
1013.393 1580 -58.4677 0 0 0 
1013.393 1581 -58.4677 0 0 0 
1013.393 1582 -58.4677 0 0 0 
1013.393 1583 -58.4677 0 0 0 
1013.393 1584 -58.4677 0 0 0 
1013.393 1585 -58.4677 0 0 0 
1013.393 1586 -58.4677 0 0 0 
1013.393 1587 -58.4677 0 0 0 
1013.393 1588 -58.4677 0 0 0 
1013.393 1589 -58.4677 0 0 0 
1013.393 1590 -58.4677 0 0 0 
1013.393 1591 -58.4677 0 0 0 
1013.393 1592 -58.4677 0 0 0 
1013.393 1593 -58.4677 0 0 0 
1013.393 1702 -58.4677 0 0 0 
1013.393 1703 -58.4677 0 0 0 
1013.393 1704 -58.4677 0 0 0 
1013.393 1705 -58.4677 0 0 0 
1013.393 1706 -58.4677 0 0 0 
1013.393 1707 -58.4677 0 0 0 
1013.393 1708 -58.4677 0 0 0 
1013.393 1709 -58.4677 0 0 0 
1013.393 1710 -58.4677 0 0 0 
1013.393 1711 -58.4677 0 0 0 
1013.393 1712 -58.4677 0 0 0 
1013.393 1713 -58.4677 0 0 0 
1013.393 1714 -58.4677 0 0 0 
1013.393 1715 -58.4677 0 0 0 
1013.463 1230 -57.47014 0 0 0 
1013.463 1314 -57.47014 0 0 0 
1013.463 1315 -57.47014 0 0 0 
1013.463 1316 -57.47014 0 0 0 
1013.463 1317 -57.47014 0 0 0 
1013.463 1318 -57.47014 0 0 0 
1013.463 1319 -57.47014 0 0 0 
1013.463 1320 -57.47014 0 0 0 
1013.463 1321 -57.47014 0 0 0 
1013.463 1322 -57.47014 0 0 0 
1013.463 1323 -57.47014 0 0 0 
1013.463 1324 -57.47014 0 0 0 
1013.463 1325 -57.47014 0 0 0 
1013.463 1326 -57.47014 0 0 0 
1013.463 1327 -57.47014 0 0 0 
1013.463 1328 -57.47014 0 0 0 
1013.463 1329 -57.47014 0 0 0 
1013.463 1330 -57.47014 0 0 0 
1013.463 1331 -57.47014 0 0 0 
1013.463 1332 -57.47014 0 0 0 
1013.463 1333 -57.47014 0 0 0 
1013.463 1334 -57.47014 0 0 0 
1013.463 1335 -57.47014 0 0 0 
1013.463 1336 -57.47014 0 0 0 
1013.463 1337 -57.47014 0 0 0 
1013.463 1338 -57.47014 0 0 0 
1013.463 1339 -57.47014 0 0 0 
1013.463 1340 -57.47014 0 0 0 
1013.463 1341 -57.47014 0 0 0 
1013.463 1342 -57.47014 0 0 0 
1013.463 1574 -57.47014 0 0 0 
1013.463 1575 -57.47014 0 0 0 
1013.463 1576 -57.47014 0 0 0 
1013.463 1577 -57.47014 0 0 0 
1013.463 1578 -57.47014 0 0 0 
1013.463 1579 -57.47014 0 0 0 
1013.463 1580 -57.47014 0 0 0 
1013.463 1581 -57.47014 0 0 0 
1013.463 1582 -57.47014 0 0 0 
1013.463 1583 -57.47014 0 0 0 
1013.463 1584 -57.47014 0 0 0 
1013.463 1585 -57.47014 0 0 0 
1013.463 1586 -57.47014 0 0 0 
1013.463 1587 -57.47014 0 0 0 
1013.463 1706 -57.47014 0 0 0 
1013.463 1707 -57.47014 0 0 0 
1013.463 1708 -57.47014 0 0 0 
1013.463 1709 -57.47014 0 0 0 
1013.463 1710 -57.47014 0 0 0 
1013.463 1711 -57.47014 0 0 0 
1013.463 1712 -57.47014 0 0 0 
1013.463 1713 -57.47014 0 0 0 
1013.463 1714 -57.47014 0 0 0 
1013.463 1715 -57.47014 0 0 0 
1013.463 1716 -57.47014 0 0 0 
1013.463 1717 -57.47014 0 0 0 
1013.463 1718 -57.47014 0 0 0 
1013.533 1320 -56.47256 0 0 0 
1013.533 1321 -56.47256 0 0 0 
1013.533 1322 -56.47256 0 0 0 
1013.533 1323 -56.47256 0 0 0 
1013.533 1324 -56.47256 0 0 0 
1013.533 1325 -56.47256 0 0 0 
1013.533 1326 -56.47256 0 0 0 
1013.533 1327 -56.47256 0 0 0 
1013.533 1328 -56.47256 0 0 0 
1013.533 1329 -56.47256 0 0 0 
1013.533 1330 -56.47256 0 0 0 
1013.533 1331 -56.47256 0 0 0 
1013.533 1332 -56.47256 0 0 0 
1013.533 1333 -56.47256 0 0 0 
1013.533 1334 -56.47256 0 0 0 
1013.533 1335 -56.47256 0 0 0 
1013.533 1336 -56.47256 0 0 0 
1013.533 1337 -56.47256 0 0 0 
1013.533 1338 -56.47256 0 0 0 
1013.533 1339 -56.47256 0 0 0 
1013.533 1340 -56.47256 0 0 0 
1013.533 1341 -56.47256 0 0 0 
1013.533 1342 -56.47256 0 0 0 
1013.533 1343 -56.47256 0 0 0 
1013.533 1344 -56.47256 0 0 0 
1013.533 1345 -56.47256 0 0 0 
1013.533 1346 -56.47256 0 0 0 
1013.533 1347 -56.47256 0 0 0 
1013.533 1571 -56.47256 0 0 0 
1013.533 1572 -56.47256 0 0 0 
1013.533 1573 -56.47256 0 0 0 
1013.533 1574 -56.47256 0 0 0 
1013.533 1575 -56.47256 0 0 0 
1013.533 1576 -56.47256 0 0 0 
1013.533 1577 -56.47256 0 0 0 
1013.533 1578 -56.47256 0 0 0 
1013.533 1579 -56.47256 0 0 0 
1013.533 1580 -56.47256 0 0 0 
1013.533 1581 -56.47256 0 0 0 
1013.533 1582 -56.47256 0 0 0 
1013.533 1712 -56.47256 0 0 0 
1013.533 1713 -56.47256 0 0 0 
1013.533 1714 -56.47256 0 0 0 
1013.533 1715 -56.47256 0 0 0 
1013.533 1716 -56.47256 0 0 0 
1013.533 1717 -56.47256 0 0 0 
1013.533 1718 -56.47256 0 0 0 
1013.533 1719 -56.47256 0 0 0 
1013.533 1720 -56.47256 0 0 0 
1013.533 1721 -56.47256 0 0 0 
1013.533 1722 -56.47256 0 0 0 
1013.603 1331 -55.47501 0 0 0 
1013.603 1332 -55.47501 0 0 0 
1013.603 1333 -55.47501 0 0 0 
1013.603 1334 -55.47501 0 0 0 
1013.603 1335 -55.47501 0 0 0 
1013.603 1336 -55.47501 0 0 0 
1013.603 1337 -55.47501 0 0 0 
1013.603 1338 -55.47501 0 0 0 
1013.603 1339 -55.47501 0 0 0 
1013.603 1340 -55.47501 0 0 0 
1013.603 1341 -55.47501 0 0 0 
1013.603 1342 -55.47501 0 0 0 
1013.603 1343 -55.47501 0 0 0 
1013.603 1344 -55.47501 0 0 0 
1013.603 1345 -55.47501 0 0 0 
1013.603 1346 -55.47501 0 0 0 
1013.603 1347 -55.47501 0 0 0 
1013.603 1348 -55.47501 0 0 0 
1013.603 1349 -55.47501 0 0 0 
1013.603 1350 -55.47501 0 0 0 
1013.603 1351 -55.47501 0 0 0 
1013.603 1352 -55.47501 0 0 0 
1013.603 1568 -55.47501 0 0 0 
1013.603 1569 -55.47501 0 0 0 
1013.603 1570 -55.47501 0 0 0 
1013.603 1571 -55.47501 0 0 0 
1013.603 1572 -55.47501 0 0 0 
1013.603 1573 -55.47501 0 0 0 
1013.603 1574 -55.47501 0 0 0 
1013.603 1575 -55.47501 0 0 0 
1013.603 1576 -55.47501 0 0 0 
1013.603 1577 -55.47501 0 0 0 
1013.603 1578 -55.47501 0 0 0 
1013.603 1579 -55.47501 0 0 0 
1013.603 1714 -55.47501 0 0 0 
1013.603 1715 -55.47501 0 0 0 
1013.603 1716 -55.47501 0 0 0 
1013.603 1717 -55.47501 0 0 0 
1013.603 1718 -55.47501 0 0 0 
1013.603 1719 -55.47501 0 0 0 
1013.603 1720 -55.47501 0 0 0 
1013.603 1721 -55.47501 0 0 0 
1013.603 1722 -55.47501 0 0 0 
1013.603 1723 -55.47501 0 0 0 
1013.603 1724 -55.47501 0 0 0 
1013.603 1725 -55.47501 0 0 0 
1013.672 1335 -54.47745 0 0 0 
1013.672 1336 -54.47745 0 0 0 
1013.672 1337 -54.47745 0 0 0 
1013.672 1338 -54.47745 0 0 0 
1013.672 1339 -54.47745 0 0 0 
1013.672 1340 -54.47745 0 0 0 
1013.672 1341 -54.47745 0 0 0 
1013.672 1342 -54.47745 0 0 0 
1013.672 1343 -54.47745 0 0 0 
1013.672 1344 -54.47745 0 0 0 
1013.672 1345 -54.47745 0 0 0 
1013.672 1346 -54.47745 0 0 0 
1013.672 1347 -54.47745 0 0 0 
1013.672 1348 -54.47745 0 0 0 
1013.672 1349 -54.47745 0 0 0 
1013.672 1350 -54.47745 0 0 0 
1013.672 1351 -54.47745 0 0 0 
1013.672 1352 -54.47745 0 0 0 
1013.672 1353 -54.47745 0 0 0 
1013.672 1354 -54.47745 0 0 0 
1013.672 1355 -54.47745 0 0 0 
1013.672 1356 -54.47745 0 0 0 
1013.672 1564 -54.47745 0 0 0 
1013.672 1565 -54.47745 0 0 0 
1013.672 1566 -54.47745 0 0 0 
1013.672 1567 -54.47745 0 0 0 
1013.672 1568 -54.47745 0 0 0 
1013.672 1569 -54.47745 0 0 0 
1013.672 1570 -54.47745 0 0 0 
1013.672 1571 -54.47745 0 0 0 
1013.672 1572 -54.47745 0 0 0 
1013.672 1573 -54.47745 0 0 0 
1013.672 1574 -54.47745 0 0 0 
1013.672 1575 -54.47745 0 0 0 
1013.672 1576 -54.47745 0 0 0 
1013.672 1717 -54.47745 0 0 0 
1013.672 1718 -54.47745 0 0 0 
1013.672 1719 -54.47745 0 0 0 
1013.672 1720 -54.47745 0 0 0 
1013.672 1721 -54.47745 0 0 0 
1013.672 1722 -54.47745 0 0 0 
1013.672 1723 -54.47745 0 0 0 
1013.672 1724 -54.47745 0 0 0 
1013.672 1725 -54.47745 0 0 0 
1013.672 1726 -54.47745 0 0 0 
1013.742 1343 -53.47987 0 0 0 
1013.742 1344 -53.47987 0 0 0 
1013.742 1345 -53.47987 0 0 0 
1013.742 1346 -53.47987 0 0 0 
1013.742 1347 -53.47987 0 0 0 
1013.742 1348 -53.47987 0 0 0 
1013.742 1349 -53.47987 0 0 0 
1013.742 1350 -53.47987 0 0 0 
1013.742 1351 -53.47987 0 0 0 
1013.742 1352 -53.47987 0 0 0 
1013.742 1353 -53.47987 0 0 0 
1013.742 1354 -53.47987 0 0 0 
1013.742 1355 -53.47987 0 0 0 
1013.742 1356 -53.47987 0 0 0 
1013.742 1357 -53.47987 0 0 0 
1013.742 1358 -53.47987 0 0 0 
1013.742 1359 -53.47987 0 0 0 
1013.742 1360 -53.47987 0 0 0 
1013.742 1361 -53.47987 0 0 0 
1013.742 1362 -53.47987 0 0 0 
1013.742 1363 -53.47987 0 0 0 
1013.742 1560 -53.47987 0 0 0 
1013.742 1561 -53.47987 0 0 0 
1013.742 1562 -53.47987 0 0 0 
1013.742 1563 -53.47987 0 0 0 
1013.742 1564 -53.47987 0 0 0 
1013.742 1565 -53.47987 0 0 0 
1013.742 1566 -53.47987 0 0 0 
1013.742 1567 -53.47987 0 0 0 
1013.742 1568 -53.47987 0 0 0 
1013.742 1569 -53.47987 0 0 0 
1013.742 1570 -53.47987 0 0 0 
1013.742 1571 -53.47987 0 0 0 
1013.742 1572 -53.47987 0 0 0 
1013.742 1721 -53.47987 0 0 0 
1013.742 1722 -53.47987 0 0 0 
1013.742 1723 -53.47987 0 0 0 
1013.742 1724 -53.47987 0 0 0 
1013.742 1725 -53.47987 0 0 0 
1013.742 1726 -53.47987 0 0 0 
1013.742 1727 -53.47987 0 0 0 
1013.742 1728 -53.47987 0 0 0 
1013.812 1349 -52.48232 0 0 0 
1013.812 1350 -52.48232 0 0 0 
1013.812 1351 -52.48232 0 0 0 
1013.812 1352 -52.48232 0 0 0 
1013.812 1353 -52.48232 0 0 0 
1013.812 1354 -52.48232 0 0 0 
1013.812 1355 -52.48232 0 0 0 
1013.812 1356 -52.48232 0 0 0 
1013.812 1357 -52.48232 0 0 0 
1013.812 1358 -52.48232 0 0 0 
1013.812 1359 -52.48232 0 0 0 
1013.812 1360 -52.48232 0 0 0 
1013.812 1361 -52.48232 0 0 0 
1013.812 1362 -52.48232 0 0 0 
1013.812 1363 -52.48232 0 0 0 
1013.812 1364 -52.48232 0 0 0 
1013.812 1365 -52.48232 0 0 0 
1013.812 1366 -52.48232 0 0 0 
1013.812 1367 -52.48232 0 0 0 
1013.812 1558 -52.48232 0 0 0 
1013.812 1559 -52.48232 0 0 0 
1013.812 1560 -52.48232 0 0 0 
1013.812 1561 -52.48232 0 0 0 
1013.812 1562 -52.48232 0 0 0 
1013.812 1563 -52.48232 0 0 0 
1013.812 1564 -52.48232 0 0 0 
1013.812 1565 -52.48232 0 0 0 
1013.812 1566 -52.48232 0 0 0 
1013.812 1567 -52.48232 0 0 0 
1013.812 1568 -52.48232 0 0 0 
1013.812 1569 -52.48232 0 0 0 
1013.812 1570 -52.48232 0 0 0 
1013.812 1725 -52.48232 0 0 0 
1013.812 1726 -52.48232 0 0 0 
1013.812 1727 -52.48232 0 0 0 
1013.812 1728 -52.48232 0 0 0 
1013.812 1729 -52.48232 0 0 0 
1013.812 1730 -52.48232 0 0 0 
1013.882 1352 -51.48474 0 0 0 
1013.882 1353 -51.48474 0 0 0 
1013.882 1354 -51.48474 0 0 0 
1013.882 1355 -51.48474 0 0 0 
1013.882 1356 -51.48474 0 0 0 
1013.882 1357 -51.48474 0 0 0 
1013.882 1358 -51.48474 0 0 0 
1013.882 1359 -51.48474 0 0 0 
1013.882 1360 -51.48474 0 0 0 
1013.882 1361 -51.48474 0 0 0 
1013.882 1362 -51.48474 0 0 0 
1013.882 1363 -51.48474 0 0 0 
1013.882 1364 -51.48474 0 0 0 
1013.882 1365 -51.48474 0 0 0 
1013.882 1366 -51.48474 0 0 0 
1013.882 1367 -51.48474 0 0 0 
1013.882 1368 -51.48474 0 0 0 
1013.882 1369 -51.48474 0 0 0 
1013.882 1370 -51.48474 0 0 0 
1013.882 1371 -51.48474 0 0 0 
1013.882 1554 -51.48474 0 0 0 
1013.882 1555 -51.48474 0 0 0 
1013.882 1556 -51.48474 0 0 0 
1013.882 1557 -51.48474 0 0 0 
1013.882 1558 -51.48474 0 0 0 
1013.882 1559 -51.48474 0 0 0 
1013.882 1560 -51.48474 0 0 0 
1013.882 1561 -51.48474 0 0 0 
1013.882 1562 -51.48474 0 0 0 
1013.882 1563 -51.48474 0 0 0 
1013.882 1564 -51.48474 0 0 0 
1013.882 1565 -51.48474 0 0 0 
1013.882 1728 -51.48474 0 0 0 
1013.882 1729 -51.48474 0 0 0 
1013.882 1730 -51.48474 0 0 0 
1013.882 1731 -51.48474 0 0 0 
1013.882 1732 -51.48474 0 0 0 
1013.882 1733 -51.48474 0 0 0 
1013.882 1734 -51.48474 0 0 0 
1013.951 1358 -50.48718 0 0 0 
1013.951 1359 -50.48718 0 0 0 
1013.951 1360 -50.48718 0 0 0 
1013.951 1361 -50.48718 0 0 0 
1013.951 1362 -50.48718 0 0 0 
1013.951 1363 -50.48718 0 0 0 
1013.951 1364 -50.48718 0 0 0 
1013.951 1365 -50.48718 0 0 0 
1013.951 1366 -50.48718 0 0 0 
1013.951 1367 -50.48718 0 0 0 
1013.951 1368 -50.48718 0 0 0 
1013.951 1369 -50.48718 0 0 0 
1013.951 1370 -50.48718 0 0 0 
1013.951 1371 -50.48718 0 0 0 
1013.951 1372 -50.48718 0 0 0 
1013.951 1373 -50.48718 0 0 0 
1013.951 1374 -50.48718 0 0 0 
1013.951 1375 -50.48718 0 0 0 
1013.951 1376 -50.48718 0 0 0 
1013.951 1377 -50.48718 0 0 0 
1013.951 1378 -50.48718 0 0 0 
1013.951 1551 -50.48718 0 0 0 
1013.951 1552 -50.48718 0 0 0 
1013.951 1553 -50.48718 0 0 0 
1013.951 1554 -50.48718 0 0 0 
1013.951 1555 -50.48718 0 0 0 
1013.951 1556 -50.48718 0 0 0 
1013.951 1557 -50.48718 0 0 0 
1013.951 1558 -50.48718 0 0 0 
1013.951 1559 -50.48718 0 0 0 
1013.951 1560 -50.48718 0 0 0 
1013.951 1731 -50.48718 0 0 0 
1013.951 1732 -50.48718 0 0 0 
1013.951 1733 -50.48718 0 0 0 
1013.951 1734 -50.48718 0 0 0 
1013.951 1735 -50.48718 0 0 0 
1013.951 1736 -50.48718 0 0 0 
1013.951 1737 -50.48718 0 0 0 
1014.021 1363 -49.48962 0 0 0 
1014.021 1364 -49.48962 0 0 0 
1014.021 1365 -49.48962 0 0 0 
1014.021 1366 -49.48962 0 0 0 
1014.021 1367 -49.48962 0 0 0 
1014.021 1368 -49.48962 0 0 0 
1014.021 1369 -49.48962 0 0 0 
1014.021 1370 -49.48962 0 0 0 
1014.021 1371 -49.48962 0 0 0 
1014.021 1372 -49.48962 0 0 0 
1014.021 1373 -49.48962 0 0 0 
1014.021 1374 -49.48962 0 0 0 
1014.021 1375 -49.48962 0 0 0 
1014.021 1376 -49.48962 0 0 0 
1014.021 1377 -49.48962 0 0 0 
1014.021 1378 -49.48962 0 0 0 
1014.021 1379 -49.48962 0 0 0 
1014.021 1380 -49.48962 0 0 0 
1014.021 1381 -49.48962 0 0 0 
1014.021 1382 -49.48962 0 0 0 
1014.021 1548 -49.48962 0 0 0 
1014.021 1549 -49.48962 0 0 0 
1014.021 1550 -49.48962 0 0 0 
1014.021 1551 -49.48962 0 0 0 
1014.021 1552 -49.48962 0 0 0 
1014.021 1553 -49.48962 0 0 0 
1014.021 1554 -49.48962 0 0 0 
1014.021 1555 -49.48962 0 0 0 
1014.021 1556 -49.48962 0 0 0 
1014.021 1734 -49.48962 0 0 0 
1014.021 1735 -49.48962 0 0 0 
1014.021 1736 -49.48962 0 0 0 
1014.021 1737 -49.48962 0 0 0 
1014.021 1738 -49.48962 0 0 0 
1014.021 1739 -49.48962 0 0 0 
1014.021 1740 -49.48962 0 0 0 
1014.091 1370 -48.49205 0 0 0 
1014.091 1371 -48.49205 0 0 0 
1014.091 1372 -48.49205 0 0 0 
1014.091 1373 -48.49205 0 0 0 
1014.091 1374 -48.49205 0 0 0 
1014.091 1375 -48.49205 0 0 0 
1014.091 1376 -48.49205 0 0 0 
1014.091 1377 -48.49205 0 0 0 
1014.091 1378 -48.49205 0 0 0 
1014.091 1379 -48.49205 0 0 0 
1014.091 1380 -48.49205 0 0 0 
1014.091 1381 -48.49205 0 0 0 
1014.091 1382 -48.49205 0 0 0 
1014.091 1383 -48.49205 0 0 0 
1014.091 1384 -48.49205 0 0 0 
1014.091 1385 -48.49205 0 0 0 
1014.091 1386 -48.49205 0 0 0 
1014.091 1387 -48.49205 0 0 0 
1014.091 1388 -48.49205 0 0 0 
1014.091 1543 -48.49205 0 0 0 
1014.091 1544 -48.49205 0 0 0 
1014.091 1545 -48.49205 0 0 0 
1014.091 1546 -48.49205 0 0 0 
1014.091 1547 -48.49205 0 0 0 
1014.091 1548 -48.49205 0 0 0 
1014.091 1549 -48.49205 0 0 0 
1014.091 1550 -48.49205 0 0 0 
1014.091 1551 -48.49205 0 0 0 
1014.091 1552 -48.49205 0 0 0 
1014.091 1553 -48.49205 0 0 0 
1014.091 1554 -48.49205 0 0 0 
1014.091 1737 -48.49205 0 0 0 
1014.091 1738 -48.49205 0 0 0 
1014.091 1739 -48.49205 0 0 0 
1014.091 1740 -48.49205 0 0 0 
1014.091 1741 -48.49205 0 0 0 
1014.091 1742 -48.49205 0 0 0 
1014.161 1377 -47.49449 0 0 0 
1014.161 1378 -47.49449 0 0 0 
1014.161 1379 -47.49449 0 0 0 
1014.161 1380 -47.49449 0 0 0 
1014.161 1381 -47.49449 0 0 0 
1014.161 1382 -47.49449 0 0 0 
1014.161 1383 -47.49449 0 0 0 
1014.161 1384 -47.49449 0 0 0 
1014.161 1385 -47.49449 0 0 0 
1014.161 1386 -47.49449 0 0 0 
1014.161 1387 -47.49449 0 0 0 
1014.161 1388 -47.49449 0 0 0 
1014.161 1389 -47.49449 0 0 0 
1014.161 1390 -47.49449 0 0 0 
1014.161 1391 -47.49449 0 0 0 
1014.161 1392 -47.49449 0 0 0 
1014.161 1393 -47.49449 0 0 0 
1014.161 1540 -47.49449 0 0 0 
1014.161 1541 -47.49449 0 0 0 
1014.161 1542 -47.49449 0 0 0 
1014.161 1543 -47.49449 0 0 0 
1014.161 1544 -47.49449 0 0 0 
1014.161 1545 -47.49449 0 0 0 
1014.161 1546 -47.49449 0 0 0 
1014.161 1547 -47.49449 0 0 0 
1014.161 1548 -47.49449 0 0 0 
1014.161 1549 -47.49449 0 0 0 
1014.161 1550 -47.49449 0 0 0 
1014.161 1740 -47.49449 0 0 0 
1014.161 1741 -47.49449 0 0 0 
1014.161 1742 -47.49449 0 0 0 
1014.161 1743 -47.49449 0 0 0 
1014.161 1744 -47.49449 0 0 0 
1014.23 1382 -46.49693 0 0 0 
1014.23 1383 -46.49693 0 0 0 
1014.23 1384 -46.49693 0 0 0 
1014.23 1385 -46.49693 0 0 0 
1014.23 1386 -46.49693 0 0 0 
1014.23 1387 -46.49693 0 0 0 
1014.23 1388 -46.49693 0 0 0 
1014.23 1389 -46.49693 0 0 0 
1014.23 1390 -46.49693 0 0 0 
1014.23 1391 -46.49693 0 0 0 
1014.23 1392 -46.49693 0 0 0 
1014.23 1393 -46.49693 0 0 0 
1014.23 1394 -46.49693 0 0 0 
1014.23 1395 -46.49693 0 0 0 
1014.23 1396 -46.49693 0 0 0 
1014.23 1397 -46.49693 0 0 0 
1014.23 1401 -46.49693 0 0 0 
1014.23 1402 -46.49693 0 0 0 
1014.23 1535 -46.49693 0 0 0 
1014.23 1536 -46.49693 0 0 0 
1014.23 1537 -46.49693 0 0 0 
1014.23 1538 -46.49693 0 0 0 
1014.23 1539 -46.49693 0 0 0 
1014.23 1540 -46.49693 0 0 0 
1014.23 1541 -46.49693 0 0 0 
1014.23 1542 -46.49693 0 0 0 
1014.23 1543 -46.49693 0 0 0 
1014.23 1544 -46.49693 0 0 0 
1014.23 1545 -46.49693 0 0 0 
1014.23 1743 -46.49693 0 0 0 
1014.23 1744 -46.49693 0 0 0 
1014.23 1745 -46.49693 0 0 0 
1014.23 1746 -46.49693 0 0 0 
1014.23 1747 -46.49693 0 0 0 
1014.23 1748 -46.49693 0 0 0 
1014.23 1749 -46.49693 0 0 0 
1014.23 1750 -46.49693 0 0 0 
1014.23 1751 -46.49693 0 0 0 
1014.23 1752 -46.49693 0 0 0 
1014.23 1753 -46.49693 0 0 0 
1014.23 1754 -46.49693 0 0 0 
1014.23 1755 -46.49693 0 0 0 
1014.23 1756 -46.49693 0 0 0 
1014.3 1387 -45.49936 0 0 0 
1014.3 1388 -45.49936 0 0 0 
1014.3 1389 -45.49936 0 0 0 
1014.3 1390 -45.49936 0 0 0 
1014.3 1391 -45.49936 0 0 0 
1014.3 1392 -45.49936 0 0 0 
1014.3 1393 -45.49936 0 0 0 
1014.3 1394 -45.49936 0 0 0 
1014.3 1395 -45.49936 0 0 0 
1014.3 1396 -45.49936 0 0 0 
1014.3 1397 -45.49936 0 0 0 
1014.3 1398 -45.49936 0 0 0 
1014.3 1399 -45.49936 0 0 0 
1014.3 1400 -45.49936 0 0 0 
1014.3 1401 -45.49936 0 0 0 
1014.3 1402 -45.49936 0 0 0 
1014.3 1403 -45.49936 0 0 0 
1014.3 1404 -45.49936 0 0 0 
1014.3 1405 -45.49936 0 0 0 
1014.3 1406 -45.49936 0 0 0 
1014.3 1407 -45.49936 0 0 0 
1014.3 1408 -45.49936 0 0 0 
1014.3 1409 -45.49936 0 0 0 
1014.3 1410 -45.49936 0 0 0 
1014.3 1411 -45.49936 0 0 0 
1014.3 1412 -45.49936 0 0 0 
1014.3 1413 -45.49936 0 0 0 
1014.3 1414 -45.49936 0 0 0 
1014.3 1415 -45.49936 0 0 0 
1014.3 1416 -45.49936 0 0 0 
1014.3 1417 -45.49936 0 0 0 
1014.3 1418 -45.49936 0 0 0 
1014.3 1419 -45.49936 0 0 0 
1014.3 1420 -45.49936 0 0 0 
1014.3 1421 -45.49936 0 0 0 
1014.3 1422 -45.49936 0 0 0 
1014.3 1529 -45.49936 0 0 0 
1014.3 1530 -45.49936 0 0 0 
1014.3 1531 -45.49936 0 0 0 
1014.3 1532 -45.49936 0 0 0 
1014.3 1533 -45.49936 0 0 0 
1014.3 1534 -45.49936 0 0 0 
1014.3 1535 -45.49936 0 0 0 
1014.3 1536 -45.49936 0 0 0 
1014.3 1537 -45.49936 0 0 0 
1014.3 1538 -45.49936 0 0 0 
1014.3 1539 -45.49936 0 0 0 
1014.3 1540 -45.49936 0 0 0 
1014.3 1541 -45.49936 0 0 0 
1014.3 1542 -45.49936 0 0 0 
1014.3 1745 -45.49936 0 0 0 
1014.3 1746 -45.49936 0 0 0 
1014.3 1747 -45.49936 0 0 0 
1014.3 1748 -45.49936 0 0 0 
1014.3 1749 -45.49936 0 0 0 
1014.3 1750 -45.49936 0 0 0 
1014.3 1751 -45.49936 0 0 0 
1014.3 1752 -45.49936 0 0 0 
1014.3 1753 -45.49936 0 0 0 
1014.3 1754 -45.49936 0 0 0 
1014.3 1755 -45.49936 0 0 0 
1014.3 1756 -45.49936 0 0 0 
1014.3 1757 -45.49936 0 0 0 
1014.3 1758 -45.49936 0 0 0 
1014.3 1759 -45.49936 0 0 0 
1014.3 1760 -45.49936 0 0 0 
1014.3 1761 -45.49936 0 0 0 
1014.3 1762 -45.49936 0 0 0 
1014.3 1763 -45.49936 0 0 0 
1014.3 1764 -45.49936 0 0 0 
1014.3 1765 -45.49936 0 0 0 
1014.3 1766 -45.49936 0 0 0 
1014.3 1767 -45.49936 0 0 0 
1014.37 1394 -44.5018 0 0 0 
1014.37 1395 -44.5018 0 0 0 
1014.37 1396 -44.5018 0 0 0 
1014.37 1397 -44.5018 0 0 0 
1014.37 1398 -44.5018 0 0 0 
1014.37 1399 -44.5018 0 0 0 
1014.37 1400 -44.5018 0 0 0 
1014.37 1401 -44.5018 0 0 0 
1014.37 1402 -44.5018 0 0 0 
1014.37 1403 -44.5018 0 0 0 
1014.37 1404 -44.5018 0 0 0 
1014.37 1405 -44.5018 0 0 0 
1014.37 1406 -44.5018 0 0 0 
1014.37 1407 -44.5018 0 0 0 
1014.37 1408 -44.5018 0 0 0 
1014.37 1409 -44.5018 0 0 0 
1014.37 1410 -44.5018 0 0 0 
1014.37 1411 -44.5018 0 0 0 
1014.37 1412 -44.5018 0 0 0 
1014.37 1413 -44.5018 0 0 0 
1014.37 1414 -44.5018 0 0 0 
1014.37 1415 -44.5018 0 0 0 
1014.37 1416 -44.5018 0 0 0 
1014.37 1417 -44.5018 0 0 0 
1014.37 1418 -44.5018 0 0 0 
1014.37 1419 -44.5018 0 0 0 
1014.37 1420 -44.5018 0 0 0 
1014.37 1421 -44.5018 0 0 0 
1014.37 1422 -44.5018 0 0 0 
1014.37 1423 -44.5018 0 0 0 
1014.37 1424 -44.5018 0 0 0 
1014.37 1425 -44.5018 0 0 0 
1014.37 1426 -44.5018 0 0 0 
1014.37 1427 -44.5018 0 0 0 
1014.37 1431 -44.5018 0 0 0 
1014.37 1432 -44.5018 0 0 0 
1014.37 1527 -44.5018 0 0 0 
1014.37 1528 -44.5018 0 0 0 
1014.37 1529 -44.5018 0 0 0 
1014.37 1530 -44.5018 0 0 0 
1014.37 1531 -44.5018 0 0 0 
1014.37 1532 -44.5018 0 0 0 
1014.37 1533 -44.5018 0 0 0 
1014.37 1534 -44.5018 0 0 0 
1014.37 1535 -44.5018 0 0 0 
1014.37 1536 -44.5018 0 0 0 
1014.37 1537 -44.5018 0 0 0 
1014.37 1538 -44.5018 0 0 0 
1014.37 1765 -44.5018 0 0 0 
1014.37 1766 -44.5018 0 0 0 
1014.37 1767 -44.5018 0 0 0 
1014.37 1768 -44.5018 0 0 0 
1014.37 1769 -44.5018 0 0 0 
1014.37 1770 -44.5018 0 0 0 
1014.37 1771 -44.5018 0 0 0 
1014.37 1772 -44.5018 0 0 0 
1014.37 1773 -44.5018 0 0 0 
1014.37 1774 -44.5018 0 0 0 
1014.37 1775 -44.5018 0 0 0 
1014.44 1400 -43.50424 0 0 0 
1014.44 1401 -43.50424 0 0 0 
1014.44 1402 -43.50424 0 0 0 
1014.44 1403 -43.50424 0 0 0 
1014.44 1404 -43.50424 0 0 0 
1014.44 1405 -43.50424 0 0 0 
1014.44 1406 -43.50424 0 0 0 
1014.44 1407 -43.50424 0 0 0 
1014.44 1408 -43.50424 0 0 0 
1014.44 1409 -43.50424 0 0 0 
1014.44 1410 -43.50424 0 0 0 
1014.44 1411 -43.50424 0 0 0 
1014.44 1412 -43.50424 0 0 0 
1014.44 1413 -43.50424 0 0 0 
1014.44 1414 -43.50424 0 0 0 
1014.44 1415 -43.50424 0 0 0 
1014.44 1416 -43.50424 0 0 0 
1014.44 1417 -43.50424 0 0 0 
1014.44 1418 -43.50424 0 0 0 
1014.44 1419 -43.50424 0 0 0 
1014.44 1420 -43.50424 0 0 0 
1014.44 1421 -43.50424 0 0 0 
1014.44 1422 -43.50424 0 0 0 
1014.44 1423 -43.50424 0 0 0 
1014.44 1424 -43.50424 0 0 0 
1014.44 1425 -43.50424 0 0 0 
1014.44 1426 -43.50424 0 0 0 
1014.44 1427 -43.50424 0 0 0 
1014.44 1428 -43.50424 0 0 0 
1014.44 1429 -43.50424 0 0 0 
1014.44 1430 -43.50424 0 0 0 
1014.44 1431 -43.50424 0 0 0 
1014.44 1432 -43.50424 0 0 0 
1014.44 1433 -43.50424 0 0 0 
1014.44 1434 -43.50424 0 0 0 
1014.44 1435 -43.50424 0 0 0 
1014.44 1436 -43.50424 0 0 0 
1014.44 1437 -43.50424 0 0 0 
1014.44 1438 -43.50424 0 0 0 
1014.44 1490 -43.50424 0 0 0 
1014.44 1524 -43.50424 0 0 0 
1014.44 1525 -43.50424 0 0 0 
1014.44 1526 -43.50424 0 0 0 
1014.44 1527 -43.50424 0 0 0 
1014.44 1528 -43.50424 0 0 0 
1014.44 1529 -43.50424 0 0 0 
1014.44 1530 -43.50424 0 0 0 
1014.44 1531 -43.50424 0 0 0 
1014.44 1532 -43.50424 0 0 0 
1014.44 1533 -43.50424 0 0 0 
1014.44 1534 -43.50424 0 0 0 
1014.44 1535 -43.50424 0 0 0 
1014.44 1771 -43.50424 0 0 0 
1014.44 1772 -43.50424 0 0 0 
1014.44 1773 -43.50424 0 0 0 
1014.44 1774 -43.50424 0 0 0 
1014.44 1775 -43.50424 0 0 0 
1014.44 1776 -43.50424 0 0 0 
1014.44 1777 -43.50424 0 0 0 
1014.44 1778 -43.50424 0 0 0 
1014.44 1779 -43.50424 0 0 0 
1014.44 1780 -43.50424 0 0 0 
1014.44 1781 -43.50424 0 0 0 
1014.44 1782 -43.50424 0 0 0 
1014.44 1783 -43.50424 0 0 0 
1014.44 1784 -43.50424 0 0 0 
1014.44 1785 -43.50424 0 0 0 
1014.509 1408 -42.50667 0 0 0 
1014.509 1409 -42.50667 0 0 0 
1014.509 1410 -42.50667 0 0 0 
1014.509 1411 -42.50667 0 0 0 
1014.509 1412 -42.50667 0 0 0 
1014.509 1413 -42.50667 0 0 0 
1014.509 1419 -42.50667 0 0 0 
1014.509 1420 -42.50667 0 0 0 
1014.509 1421 -42.50667 0 0 0 
1014.509 1422 -42.50667 0 0 0 
1014.509 1423 -42.50667 0 0 0 
1014.509 1424 -42.50667 0 0 0 
1014.509 1425 -42.50667 0 0 0 
1014.509 1426 -42.50667 0 0 0 
1014.509 1427 -42.50667 0 0 0 
1014.509 1428 -42.50667 0 0 0 
1014.509 1429 -42.50667 0 0 0 
1014.509 1430 -42.50667 0 0 0 
1014.509 1431 -42.50667 0 0 0 
1014.509 1432 -42.50667 0 0 0 
1014.509 1433 -42.50667 0 0 0 
1014.509 1434 -42.50667 0 0 0 
1014.509 1435 -42.50667 0 0 0 
1014.509 1436 -42.50667 0 0 0 
1014.509 1437 -42.50667 0 0 0 
1014.509 1438 -42.50667 0 0 0 
1014.509 1439 -42.50667 0 0 0 
1014.509 1440 -42.50667 0 0 0 
1014.509 1441 -42.50667 0 0 0 
1014.509 1442 -42.50667 0 0 0 
1014.509 1443 -42.50667 0 0 0 
1014.509 1444 -42.50667 0 0 0 
1014.509 1445 -42.50667 0 0 0 
1014.509 1446 -42.50667 0 0 0 
1014.509 1450 -42.50667 0 0 0 
1014.509 1451 -42.50667 0 0 0 
1014.509 1452 -42.50667 0 0 0 
1014.509 1453 -42.50667 0 0 0 
1014.509 1454 -42.50667 0 0 0 
1014.509 1455 -42.50667 0 0 0 
1014.509 1456 -42.50667 0 0 0 
1014.509 1457 -42.50667 0 0 0 
1014.509 1458 -42.50667 0 0 0 
1014.509 1467 -42.50667 0 0 0 
1014.509 1468 -42.50667 0 0 0 
1014.509 1469 -42.50667 0 0 0 
1014.509 1470 -42.50667 0 0 0 
1014.509 1471 -42.50667 0 0 0 
1014.509 1472 -42.50667 0 0 0 
1014.509 1473 -42.50667 0 0 0 
1014.509 1474 -42.50667 0 0 0 
1014.509 1475 -42.50667 0 0 0 
1014.509 1477 -42.50667 0 0 0 
1014.509 1478 -42.50667 0 0 0 
1014.509 1479 -42.50667 0 0 0 
1014.509 1480 -42.50667 0 0 0 
1014.509 1481 -42.50667 0 0 0 
1014.509 1482 -42.50667 0 0 0 
1014.509 1483 -42.50667 0 0 0 
1014.509 1484 -42.50667 0 0 0 
1014.509 1485 -42.50667 0 0 0 
1014.509 1486 -42.50667 0 0 0 
1014.509 1487 -42.50667 0 0 0 
1014.509 1488 -42.50667 0 0 0 
1014.509 1489 -42.50667 0 0 0 
1014.509 1490 -42.50667 0 0 0 
1014.509 1491 -42.50667 0 0 0 
1014.509 1492 -42.50667 0 0 0 
1014.509 1493 -42.50667 0 0 0 
1014.509 1494 -42.50667 0 0 0 
1014.509 1495 -42.50667 0 0 0 
1014.509 1496 -42.50667 0 0 0 
1014.509 1497 -42.50667 0 0 0 
1014.509 1520 -42.50667 0 0 0 
1014.509 1521 -42.50667 0 0 0 
1014.509 1522 -42.50667 0 0 0 
1014.509 1523 -42.50667 0 0 0 
1014.509 1524 -42.50667 0 0 0 
1014.509 1525 -42.50667 0 0 0 
1014.509 1526 -42.50667 0 0 0 
1014.509 1527 -42.50667 0 0 0 
1014.509 1528 -42.50667 0 0 0 
1014.509 1529 -42.50667 0 0 0 
1014.509 1530 -42.50667 0 0 0 
1014.509 1531 -42.50667 0 0 0 
1014.509 1774 -42.50667 0 0 0 
1014.509 1775 -42.50667 0 0 0 
1014.509 1776 -42.50667 0 0 0 
1014.509 1777 -42.50667 0 0 0 
1014.509 1778 -42.50667 0 0 0 
1014.509 1779 -42.50667 0 0 0 
1014.509 1780 -42.50667 0 0 0 
1014.509 1781 -42.50667 0 0 0 
1014.509 1782 -42.50667 0 0 0 
1014.509 1783 -42.50667 0 0 0 
1014.509 1784 -42.50667 0 0 0 
1014.509 1785 -42.50667 0 0 0 
1014.509 1786 -42.50667 0 0 0 
1014.509 1787 -42.50667 0 0 0 
1014.509 1788 -42.50667 0 0 0 
1014.509 1789 -42.50667 0 0 0 
1014.509 1790 -42.50667 0 0 0 
1014.509 1791 -42.50667 0 0 0 
1014.509 1792 -42.50667 0 0 0 
1014.509 1793 -42.50667 0 0 0 
1014.509 1794 -42.50667 0 0 0 
1014.579 1429 -41.50911 0 0 0 
1014.579 1430 -41.50911 0 0 0 
1014.579 1431 -41.50911 0 0 0 
1014.579 1432 -41.50911 0 0 0 
1014.579 1433 -41.50911 0 0 0 
1014.579 1434 -41.50911 0 0 0 
1014.579 1435 -41.50911 0 0 0 
1014.579 1436 -41.50911 0 0 0 
1014.579 1437 -41.50911 0 0 0 
1014.579 1438 -41.50911 0 0 0 
1014.579 1439 -41.50911 0 0 0 
1014.579 1440 -41.50911 0 0 0 
1014.579 1441 -41.50911 0 0 0 
1014.579 1442 -41.50911 0 0 0 
1014.579 1443 -41.50911 0 0 0 
1014.579 1444 -41.50911 0 0 0 
1014.579 1445 -41.50911 0 0 0 
1014.579 1446 -41.50911 0 0 0 
1014.579 1447 -41.50911 0 0 0 
1014.579 1448 -41.50911 0 0 0 
1014.579 1449 -41.50911 0 0 0 
1014.579 1450 -41.50911 0 0 0 
1014.579 1451 -41.50911 0 0 0 
1014.579 1452 -41.50911 0 0 0 
1014.579 1453 -41.50911 0 0 0 
1014.579 1454 -41.50911 0 0 0 
1014.579 1455 -41.50911 0 0 0 
1014.579 1456 -41.50911 0 0 0 
1014.579 1457 -41.50911 0 0 0 
1014.579 1458 -41.50911 0 0 0 
1014.579 1459 -41.50911 0 0 0 
1014.579 1460 -41.50911 0 0 0 
1014.579 1461 -41.50911 0 0 0 
1014.579 1462 -41.50911 0 0 0 
1014.579 1463 -41.50911 0 0 0 
1014.579 1464 -41.50911 0 0 0 
1014.579 1465 -41.50911 0 0 0 
1014.579 1466 -41.50911 0 0 0 
1014.579 1467 -41.50911 0 0 0 
1014.579 1468 -41.50911 0 0 0 
1014.579 1469 -41.50911 0 0 0 
1014.579 1470 -41.50911 0 0 0 
1014.579 1471 -41.50911 0 0 0 
1014.579 1472 -41.50911 0 0 0 
1014.579 1473 -41.50911 0 0 0 
1014.579 1474 -41.50911 0 0 0 
1014.579 1475 -41.50911 0 0 0 
1014.579 1476 -41.50911 0 0 0 
1014.579 1477 -41.50911 0 0 0 
1014.579 1478 -41.50911 0 0 0 
1014.579 1479 -41.50911 0 0 0 
1014.579 1480 -41.50911 0 0 0 
1014.579 1481 -41.50911 0 0 0 
1014.579 1482 -41.50911 0 0 0 
1014.579 1483 -41.50911 0 0 0 
1014.579 1484 -41.50911 0 0 0 
1014.579 1485 -41.50911 0 0 0 
1014.579 1486 -41.50911 0 0 0 
1014.579 1487 -41.50911 0 0 0 
1014.579 1488 -41.50911 0 0 0 
1014.579 1489 -41.50911 0 0 0 
1014.579 1490 -41.50911 0 0 0 
1014.579 1491 -41.50911 0 0 0 
1014.579 1492 -41.50911 0 0 0 
1014.579 1493 -41.50911 0 0 0 
1014.579 1494 -41.50911 0 0 0 
1014.579 1495 -41.50911 0 0 0 
1014.579 1496 -41.50911 0 0 0 
1014.579 1497 -41.50911 0 0 0 
1014.579 1498 -41.50911 0 0 0 
1014.579 1499 -41.50911 0 0 0 
1014.579 1500 -41.50911 0 0 0 
1014.579 1501 -41.50911 0 0 0 
1014.579 1502 -41.50911 0 0 0 
1014.579 1503 -41.50911 0 0 0 
1014.579 1504 -41.50911 0 0 0 
1014.579 1505 -41.50911 0 0 0 
1014.579 1506 -41.50911 0 0 0 
1014.579 1507 -41.50911 0 0 0 
1014.579 1508 -41.50911 0 0 0 
1014.579 1509 -41.50911 0 0 0 
1014.579 1510 -41.50911 0 0 0 
1014.579 1511 -41.50911 0 0 0 
1014.579 1512 -41.50911 0 0 0 
1014.579 1513 -41.50911 0 0 0 
1014.579 1514 -41.50911 0 0 0 
1014.579 1515 -41.50911 0 0 0 
1014.579 1516 -41.50911 0 0 0 
1014.579 1517 -41.50911 0 0 0 
1014.579 1518 -41.50911 0 0 0 
1014.579 1519 -41.50911 0 0 0 
1014.579 1520 -41.50911 0 0 0 
1014.579 1521 -41.50911 0 0 0 
1014.579 1522 -41.50911 0 0 0 
1014.579 1523 -41.50911 0 0 0 
1014.579 1524 -41.50911 0 0 0 
1014.579 1525 -41.50911 0 0 0 
1014.579 1526 -41.50911 0 0 0 
1014.579 1527 -41.50911 0 0 0 
1014.579 1528 -41.50911 0 0 0 
1014.579 1529 -41.50911 0 0 0 
1014.579 1783 -41.50911 0 0 0 
1014.579 1784 -41.50911 0 0 0 
1014.579 1785 -41.50911 0 0 0 
1014.579 1786 -41.50911 0 0 0 
1014.579 1787 -41.50911 0 0 0 
1014.579 1788 -41.50911 0 0 0 
1014.579 1789 -41.50911 0 0 0 
1014.579 1790 -41.50911 0 0 0 
1014.579 1791 -41.50911 0 0 0 
1014.579 1792 -41.50911 0 0 0 
1014.579 1793 -41.50911 0 0 0 
1014.579 1794 -41.50911 0 0 0 
1014.579 1795 -41.50911 0 0 0 
1014.579 1796 -41.50911 0 0 0 
1014.579 1797 -41.50911 0 0 0 
1014.579 1798 -41.50911 0 0 0 
1014.579 1799 -41.50911 0 0 0 
1014.579 1800 -41.50911 0 0 0 
1014.579 1804 -41.50911 0 0 0 
1014.649 1438 -40.51155 0 0 0 
1014.649 1439 -40.51155 0 0 0 
1014.649 1440 -40.51155 0 0 0 
1014.649 1441 -40.51155 0 0 0 
1014.649 1442 -40.51155 0 0 0 
1014.649 1445 -40.51155 0 0 0 
1014.649 1446 -40.51155 0 0 0 
1014.649 1447 -40.51155 0 0 0 
1014.649 1448 -40.51155 0 0 0 
1014.649 1449 -40.51155 0 0 0 
1014.649 1450 -40.51155 0 0 0 
1014.649 1451 -40.51155 0 0 0 
1014.649 1452 -40.51155 0 0 0 
1014.649 1453 -40.51155 0 0 0 
1014.649 1454 -40.51155 0 0 0 
1014.649 1455 -40.51155 0 0 0 
1014.649 1456 -40.51155 0 0 0 
1014.649 1457 -40.51155 0 0 0 
1014.649 1458 -40.51155 0 0 0 
1014.649 1459 -40.51155 0 0 0 
1014.649 1460 -40.51155 0 0 0 
1014.649 1461 -40.51155 0 0 0 
1014.649 1462 -40.51155 0 0 0 
1014.649 1463 -40.51155 0 0 0 
1014.649 1464 -40.51155 0 0 0 
1014.649 1465 -40.51155 0 0 0 
1014.649 1466 -40.51155 0 0 0 
1014.649 1467 -40.51155 0 0 0 
1014.649 1468 -40.51155 0 0 0 
1014.649 1469 -40.51155 0 0 0 
1014.649 1470 -40.51155 0 0 0 
1014.649 1471 -40.51155 0 0 0 
1014.649 1472 -40.51155 0 0 0 
1014.649 1473 -40.51155 0 0 0 
1014.649 1474 -40.51155 0 0 0 
1014.649 1475 -40.51155 0 0 0 
1014.649 1476 -40.51155 0 0 0 
1014.649 1477 -40.51155 0 0 0 
1014.649 1478 -40.51155 0 0 0 
1014.649 1479 -40.51155 0 0 0 
1014.649 1480 -40.51155 0 0 0 
1014.649 1481 -40.51155 0 0 0 
1014.649 1482 -40.51155 0 0 0 
1014.649 1483 -40.51155 0 0 0 
1014.649 1484 -40.51155 0 0 0 
1014.649 1485 -40.51155 0 0 0 
1014.649 1486 -40.51155 0 0 0 
1014.649 1487 -40.51155 0 0 0 
1014.649 1488 -40.51155 0 0 0 
1014.649 1489 -40.51155 0 0 0 
1014.649 1490 -40.51155 0 0 0 
1014.649 1491 -40.51155 0 0 0 
1014.649 1492 -40.51155 0 0 0 
1014.649 1493 -40.51155 0 0 0 
1014.649 1494 -40.51155 0 0 0 
1014.649 1495 -40.51155 0 0 0 
1014.649 1496 -40.51155 0 0 0 
1014.649 1497 -40.51155 0 0 0 
1014.649 1498 -40.51155 0 0 0 
1014.649 1499 -40.51155 0 0 0 
1014.649 1500 -40.51155 0 0 0 
1014.649 1501 -40.51155 0 0 0 
1014.649 1502 -40.51155 0 0 0 
1014.649 1503 -40.51155 0 0 0 
1014.649 1504 -40.51155 0 0 0 
1014.649 1505 -40.51155 0 0 0 
1014.649 1506 -40.51155 0 0 0 
1014.649 1507 -40.51155 0 0 0 
1014.649 1508 -40.51155 0 0 0 
1014.649 1509 -40.51155 0 0 0 
1014.649 1510 -40.51155 0 0 0 
1014.649 1511 -40.51155 0 0 0 
1014.649 1512 -40.51155 0 0 0 
1014.649 1513 -40.51155 0 0 0 
1014.649 1514 -40.51155 0 0 0 
1014.649 1515 -40.51155 0 0 0 
1014.649 1516 -40.51155 0 0 0 
1014.649 1517 -40.51155 0 0 0 
1014.649 1518 -40.51155 0 0 0 
1014.649 1519 -40.51155 0 0 0 
1014.649 1520 -40.51155 0 0 0 
1014.649 1521 -40.51155 0 0 0 
1014.649 1788 -40.51155 0 0 0 
1014.649 1789 -40.51155 0 0 0 
1014.649 1790 -40.51155 0 0 0 
1014.649 1791 -40.51155 0 0 0 
1014.649 1792 -40.51155 0 0 0 
1014.649 1793 -40.51155 0 0 0 
1014.649 1794 -40.51155 0 0 0 
1014.649 1795 -40.51155 0 0 0 
1014.649 1796 -40.51155 0 0 0 
1014.649 1797 -40.51155 0 0 0 
1014.649 1798 -40.51155 0 0 0 
1014.649 1799 -40.51155 0 0 0 
1014.649 1800 -40.51155 0 0 0 
1014.649 1801 -40.51155 0 0 0 
1014.649 1802 -40.51155 0 0 0 
1014.649 1803 -40.51155 0 0 0 
1014.649 1804 -40.51155 0 0 0 
1014.649 1805 -40.51155 0 0 0 
1014.649 1806 -40.51155 0 0 0 
1014.649 1807 -40.51155 0 0 0 
1014.649 1808 -40.51155 0 0 0 
1014.719 1455 -39.51398 0 0 0 
1014.719 1456 -39.51398 0 0 0 
1014.719 1457 -39.51398 0 0 0 
1014.719 1458 -39.51398 0 0 0 
1014.719 1459 -39.51398 0 0 0 
1014.719 1460 -39.51398 0 0 0 
1014.719 1461 -39.51398 0 0 0 
1014.719 1462 -39.51398 0 0 0 
1014.719 1463 -39.51398 0 0 0 
1014.719 1464 -39.51398 0 0 0 
1014.719 1465 -39.51398 0 0 0 
1014.719 1466 -39.51398 0 0 0 
1014.719 1467 -39.51398 0 0 0 
1014.719 1468 -39.51398 0 0 0 
1014.719 1469 -39.51398 0 0 0 
1014.719 1470 -39.51398 0 0 0 
1014.719 1471 -39.51398 0 0 0 
1014.719 1472 -39.51398 0 0 0 
1014.719 1480 -39.51398 0 0 0 
1014.719 1481 -39.51398 0 0 0 
1014.719 1482 -39.51398 0 0 0 
1014.719 1483 -39.51398 0 0 0 
1014.719 1484 -39.51398 0 0 0 
1014.719 1485 -39.51398 0 0 0 
1014.719 1486 -39.51398 0 0 0 
1014.719 1487 -39.51398 0 0 0 
1014.719 1488 -39.51398 0 0 0 
1014.719 1489 -39.51398 0 0 0 
1014.719 1490 -39.51398 0 0 0 
1014.719 1491 -39.51398 0 0 0 
1014.719 1492 -39.51398 0 0 0 
1014.719 1493 -39.51398 0 0 0 
1014.719 1494 -39.51398 0 0 0 
1014.719 1495 -39.51398 0 0 0 
1014.719 1496 -39.51398 0 0 0 
1014.719 1497 -39.51398 0 0 0 
1014.719 1498 -39.51398 0 0 0 
1014.719 1499 -39.51398 0 0 0 
1014.719 1500 -39.51398 0 0 0 
1014.719 1501 -39.51398 0 0 0 
1014.719 1502 -39.51398 0 0 0 
1014.719 1503 -39.51398 0 0 0 
1014.719 1504 -39.51398 0 0 0 
1014.719 1505 -39.51398 0 0 0 
1014.719 1506 -39.51398 0 0 0 
1014.719 1507 -39.51398 0 0 0 
1014.719 1508 -39.51398 0 0 0 
1014.719 1509 -39.51398 0 0 0 
1014.719 1510 -39.51398 0 0 0 
1014.719 1511 -39.51398 0 0 0 
1014.719 1512 -39.51398 0 0 0 
1014.719 1513 -39.51398 0 0 0 
1014.719 1514 -39.51398 0 0 0 
1014.719 1515 -39.51398 0 0 0 
1014.719 1516 -39.51398 0 0 0 
1014.719 1517 -39.51398 0 0 0 
1014.719 1518 -39.51398 0 0 0 
1014.719 1797 -39.51398 0 0 0 
1014.719 1798 -39.51398 0 0 0 
1014.719 1799 -39.51398 0 0 0 
1014.719 1800 -39.51398 0 0 0 
1014.719 1801 -39.51398 0 0 0 
1014.719 1802 -39.51398 0 0 0 
1014.719 1803 -39.51398 0 0 0 
1014.719 1804 -39.51398 0 0 0 
1014.719 1805 -39.51398 0 0 0 
1014.719 1806 -39.51398 0 0 0 
1014.719 1807 -39.51398 0 0 0 
1014.719 1808 -39.51398 0 0 0 
1014.719 1809 -39.51398 0 0 0 
1014.719 1810 -39.51398 0 0 0 
1014.719 1811 -39.51398 0 0 0 
1014.719 1812 -39.51398 0 0 0 
1014.719 1813 -39.51398 0 0 0 
1014.788 1802 -38.51642 0 0 0 
1014.788 1803 -38.51642 0 0 0 
1014.788 1804 -38.51642 0 0 0 
1014.788 1805 -38.51642 0 0 0 
1014.788 1806 -38.51642 0 0 0 
1014.788 1807 -38.51642 0 0 0 
1014.788 1808 -38.51642 0 0 0 
1014.788 1809 -38.51642 0 0 0 
1014.788 1810 -38.51642 0 0 0 
1014.788 1811 -38.51642 0 0 0 
1014.788 1812 -38.51642 0 0 0 
1014.788 1813 -38.51642 0 0 0 
1014.788 1814 -38.51642 0 0 0 
1014.788 1815 -38.51642 0 0 0 
1014.788 1816 -38.51642 0 0 0 
1014.788 1817 -38.51642 0 0 0 
1014.788 1818 -38.51642 0 0 0 
1014.858 1809 -37.51884 0 0 0 
1014.858 1810 -37.51884 0 0 0 
1014.858 1811 -37.51884 0 0 0 
1014.858 1812 -37.51884 0 0 0 
1014.858 1813 -37.51884 0 0 0 
1014.858 1814 -37.51884 0 0 0 
1014.858 1815 -37.51884 0 0 0 
1014.858 1816 -37.51884 0 0 0 
1014.858 1817 -37.51884 0 0 0 
1014.858 1818 -37.51884 0 0 0 
1014.858 1819 -37.51884 0 0 0 
1014.858 1820 -37.51884 0 0 0 
1014.858 1821 -37.51884 0 0 0 
1014.928 1813 -36.52129 0 0 0 
1014.928 1814 -36.52129 0 0 0 
1014.928 1815 -36.52129 0 0 0 
1014.928 1816 -36.52129 0 0 0 
1014.928 1817 -36.52129 0 0 0 
1014.928 1818 -36.52129 0 0 0 
1014.928 1819 -36.52129 0 0 0 
1014.928 1820 -36.52129 0 0 0 
1014.928 1821 -36.52129 0 0 0 
1014.928 1822 -36.52129 0 0 0 
1014.928 1823 -36.52129 0 0 0 
1014.928 1824 -36.52129 0 0 0 
1014.928 1825 -36.52129 0 0 0 
1014.928 1826 -36.52129 0 0 0 
1014.928 1827 -36.52129 0 0 0 
1014.998 1819 -35.52373 0 0 0 
1014.998 1820 -35.52373 0 0 0 
1014.998 1821 -35.52373 0 0 0 
1014.998 1822 -35.52373 0 0 0 
1014.998 1823 -35.52373 0 0 0 
1014.998 1824 -35.52373 0 0 0 
1014.998 1825 -35.52373 0 0 0 
1014.998 1826 -35.52373 0 0 0 
1014.998 1827 -35.52373 0 0 0 
1014.998 1828 -35.52373 0 0 0 
1014.998 1829 -35.52373 0 0 0 
1014.998 1830 -35.52373 0 0 0 
1015.067 1826 -34.52615 0 0 0 
1015.067 1827 -34.52615 0 0 0 
1015.067 1828 -34.52615 0 0 0 
1015.067 1829 -34.52615 0 0 0 
1015.067 1830 -34.52615 0 0 0 
1015.067 1831 -34.52615 0 0 0 
1015.067 1832 -34.52615 0 0 0 
1015.067 1833 -34.52615 0 0 0 
1015.067 1834 -34.52615 0 0 0 
1015.067 1835 -34.52615 0 0 0 
1015.137 1830 -33.52859 0 0 0 
1015.137 1831 -33.52859 0 0 0 
1015.137 1832 -33.52859 0 0 0 
1015.137 1833 -33.52859 0 0 0 
1015.137 1834 -33.52859 0 0 0 
1015.137 1835 -33.52859 0 0 0 
1015.137 1836 -33.52859 0 0 0 
1015.137 1837 -33.52859 0 0 0 
1015.137 1838 -33.52859 0 0 0 
1015.137 1839 -33.52859 0 0 0 
1015.207 1835 -32.53104 0 0 0 
1015.207 1836 -32.53104 0 0 0 
1015.207 1837 -32.53104 0 0 0 
1015.207 1838 -32.53104 0 0 0 
1015.207 1839 -32.53104 0 0 0 
1015.207 1840 -32.53104 0 0 0 
1015.207 1841 -32.53104 0 0 0 
1015.207 1842 -32.53104 0 0 0 
1015.207 1843 -32.53104 0 0 0 
1015.277 1838 -31.53346 0 0 0 
1015.277 1839 -31.53346 0 0 0 
1015.277 1840 -31.53346 0 0 0 
1015.277 1841 -31.53346 0 0 0 
1015.277 1842 -31.53346 0 0 0 
1015.277 1843 -31.53346 0 0 0 
1015.277 1844 -31.53346 0 0 0 
1015.277 1845 -31.53346 0 0 0 
1015.277 1846 -31.53346 0 0 0 
1015.277 1847 -31.53346 0 0 0 
1015.346 1844 -30.5359 0 0 0 
1015.346 1845 -30.5359 0 0 0 
1015.346 1846 -30.5359 0 0 0 
1015.346 1847 -30.5359 0 0 0 
1015.346 1848 -30.5359 0 0 0 
1015.346 1849 -30.5359 0 0 0 
1015.346 1850 -30.5359 0 0 0 
1015.346 1851 -30.5359 0 0 0 
1015.346 1852 -30.5359 0 0 0 
1015.346 1853 -30.5359 0 0 0 
1015.416 1849 -29.53835 0 0 0 
1015.416 1850 -29.53835 0 0 0 
1015.416 1851 -29.53835 0 0 0 
1015.416 1852 -29.53835 0 0 0 
1015.416 1853 -29.53835 0 0 0 
1015.416 1854 -29.53835 0 0 0 
1015.416 1855 -29.53835 0 0 0 
1015.416 1856 -29.53835 0 0 0 
1015.416 1857 -29.53835 0 0 0 
1015.486 1852 -28.54077 0 0 0 
1015.486 1853 -28.54077 0 0 0 
1015.486 1854 -28.54077 0 0 0 
1015.486 1855 -28.54077 0 0 0 
1015.486 1856 -28.54077 0 0 0 
1015.486 1857 -28.54077 0 0 0 
1015.486 1858 -28.54077 0 0 0 
1015.486 1859 -28.54077 0 0 0 
1015.486 1860 -28.54077 0 0 0 
1015.486 1861 -28.54077 0 0 0 
1015.486 1862 -28.54077 0 0 0 
1015.486 1863 -28.54077 0 0 0 
1015.556 1856 -27.54321 0 0 0 
1015.556 1857 -27.54321 0 0 0 
1015.556 1858 -27.54321 0 0 0 
1015.556 1859 -27.54321 0 0 0 
1015.556 1860 -27.54321 0 0 0 
1015.556 1861 -27.54321 0 0 0 
1015.556 1862 -27.54321 0 0 0 
1015.556 1863 -27.54321 0 0 0 
1015.556 1864 -27.54321 0 0 0 
1015.556 1865 -27.54321 0 0 0 
1015.556 1866 -27.54321 0 0 0 
1015.625 1861 -26.54565 0 0 0 
1015.625 1862 -26.54565 0 0 0 
1015.625 1863 -26.54565 0 0 0 
1015.625 1864 -26.54565 0 0 0 
1015.625 1865 -26.54565 0 0 0 
1015.625 1866 -26.54565 0 0 0 
1015.625 1867 -26.54565 0 0 0 
1015.625 1868 -26.54565 0 0 0 
1015.625 1869 -26.54565 0 0 0 
1015.625 1870 -26.54565 0 0 0 
1015.695 1863 -25.54808 0 0 0 
1015.695 1864 -25.54808 0 0 0 
1015.695 1865 -25.54808 0 0 0 
1015.695 1866 -25.54808 0 0 0 
1015.695 1867 -25.54808 0 0 0 
1015.695 1868 -25.54808 0 0 0 
1015.695 1869 -25.54808 0 0 0 
1015.695 1870 -25.54808 0 0 0 
1015.695 1871 -25.54808 0 0 0 
1015.695 1872 -25.54808 0 0 0 
1015.695 1873 -25.54808 0 0 0 
1015.695 1874 -25.54808 0 0 0 
1015.695 1875 -25.54808 0 0 0 
1015.695 1876 -25.54808 0 0 0 
1015.695 1877 -25.54808 0 0 0 
1015.765 1870 -24.55052 0 0 0 
1015.765 1871 -24.55052 0 0 0 
1015.765 1872 -24.55052 0 0 0 
1015.765 1873 -24.55052 0 0 0 
1015.765 1874 -24.55052 0 0 0 
1015.765 1875 -24.55052 0 0 0 
1015.765 1876 -24.55052 0 0 0 
1015.765 1877 -24.55052 0 0 0 
1015.765 1878 -24.55052 0 0 0 
1015.765 1879 -24.55052 0 0 0 
1015.765 1880 -24.55052 0 0 0 
1015.765 1881 -24.55052 0 0 0 
1015.835 1873 -23.55295 0 0 0 
1015.835 1874 -23.55295 0 0 0 
1015.835 1875 -23.55295 0 0 0 
1015.835 1876 -23.55295 0 0 0 
1015.835 1877 -23.55295 0 0 0 
1015.835 1878 -23.55295 0 0 0 
1015.835 1879 -23.55295 0 0 0 
1015.835 1880 -23.55295 0 0 0 
1015.835 1881 -23.55295 0 0 0 
1015.835 1882 -23.55295 0 0 0 
1015.835 1883 -23.55295 0 0 0 
1015.835 1884 -23.55295 0 0 0 
1015.835 1885 -23.55295 0 0 0 
1015.835 1886 -23.55295 0 0 0 
1015.835 1887 -23.55295 0 0 0 
1015.904 1880 -22.55539 0 0 0 
1015.904 1881 -22.55539 0 0 0 
1015.904 1882 -22.55539 0 0 0 
1015.904 1883 -22.55539 0 0 0 
1015.904 1884 -22.55539 0 0 0 
1015.904 1885 -22.55539 0 0 0 
1015.904 1886 -22.55539 0 0 0 
1015.904 1887 -22.55539 0 0 0 
1015.904 1888 -22.55539 0 0 0 
1015.904 1889 -22.55539 0 0 0 
1015.904 1890 -22.55539 0 0 0 
1015.904 1891 -22.55539 0 0 0 
1015.904 1892 -22.55539 0 0 0 
1015.904 1893 -22.55539 0 0 0 
1015.904 1894 -22.55539 0 0 0 
1015.904 1895 -22.55539 0 0 0 
1015.904 1896 -22.55539 0 0 0 
1015.904 1897 -22.55539 0 0 0 
1015.904 1898 -22.55539 0 0 0 
1015.904 1899 -22.55539 0 0 0 
1015.904 1900 -22.55539 0 0 0 
1015.974 1886 -21.55783 0 0 0 
1015.974 1887 -21.55783 0 0 0 
1015.974 1888 -21.55783 0 0 0 
1015.974 1889 -21.55783 0 0 0 
1015.974 1890 -21.55783 0 0 0 
1015.974 1891 -21.55783 0 0 0 
1015.974 1892 -21.55783 0 0 0 
1015.974 1893 -21.55783 0 0 0 
1015.974 1894 -21.55783 0 0 0 
1015.974 1895 -21.55783 0 0 0 
1015.974 1896 -21.55783 0 0 0 
