ply
format ascii 1.0
element vertex 1400
property float x
property float y
property float z
element face 0
property list uchar int vertex_index
end_header
389.0000 475.0000 47.0000
331.0000 467.0000 0.0000
394.0000 468.0000 0.0000
394.0000 468.0000 0.0000
394.0000 468.0000 0.0000
384.7795 475.0550 46.0665
332.4090 467.6930 -4.5470
396.4620 468.8810 -2.8145
394.2120 468.6740 -4.5470
394.1030 468.5650 4.7585
378.8560 474.6000 43.4720
336.1920 468.6240 -9.4560
397.6960 469.8080 -7.1360
394.6560 469.5520 -9.4560
394.4240 469.3200 10.3280
371.7365 473.7550 39.5255
341.8330 469.7210 -14.5290
397.9240 470.7570 -12.4815
395.1940 470.5680 -14.5290
394.8310 470.2050 16.3995
363.9280 472.6400 34.5360
348.8160 470.9120 -19.5680
397.3680 471.7040 -18.3680
395.6880 471.6560 -19.5680
395.1920 471.1600 22.6640
355.9375 471.3750 28.8125
356.6250 472.1250 -24.3750
396.2500 472.6250 -24.3125
396.0000 472.7500 -24.3750
395.3750 472.1250 28.8125
348.2720 470.0800 22.6640
364.7440 473.2880 -28.7520
394.7920 473.4960 -29.8320
395.9920 473.7840 -28.7520
395.2480 473.0400 34.5360
341.4385 468.8750 16.3995
372.6570 474.3290 -32.5010
393.2160 474.2930 -34.4435
395.5260 474.6920 -32.5010
394.6790 473.8450 39.5255
335.9440 467.8800 10.3280
379.8480 475.1760 -35.4240
391.7440 474.9920 -37.6640
394.4640 475.4080 -35.4240
393.5360 474.4800 43.4720
332.2955 467.2150 4.7585
385.8010 475.7570 -37.3230
390.5980 475.5690 -39.0105
392.6680 475.8660 -37.3230
391.6870 474.8850 46.0665
389.0000 485.0000 48.0000
332.0000 480.0000 0.0000
396.0000 475.0000 0.0000
396.0000 475.0000 0.0000
396.0000 475.0000 0.0000
384.8885 485.3595 47.0430
333.3765 480.3620 -4.5065
398.2530 475.7585 -2.8190
396.1605 475.4570 -4.5065
396.0515 475.6220 4.8270
379.0880 485.2960 44.3840
337.0720 480.7360 -9.3920
399.2640 476.5280 -7.1520
396.4640 476.0960 -9.3920
396.2320 476.5360 10.4960
372.0995 484.8965 40.3410
342.5855 481.1040 -14.4555
399.2610 477.2995 -12.5130
396.7935 476.8690 -14.4555
396.4305 477.6640 16.6890
364.4240 484.2480 35.2320
349.4160 481.4480 -19.4960
398.4720 478.0640 -18.4160
397.0320 477.7280 -19.4960
396.5360 478.9280 23.0880
356.5625 483.4375 29.3750
357.0625 481.7500 -24.3125
397.1250 478.8125 -24.3750
397.0625 478.6250 -24.3125
396.4375 480.2500 29.3750
349.0160 482.5520 23.0880
365.0240 481.9920 -28.7040
395.4480 479.5360 -29.9040
396.7680 479.5120 -28.7040
396.0240 481.5520 35.2320
342.2855 481.6785 16.6890
372.7995 482.1560 -32.4695
393.6690 480.2255 -34.5170
396.0315 480.3410 -32.4695
395.1845 482.7560 40.3410
336.8720 480.9040 10.4960
379.8880 482.2240 -35.4080
392.0160 480.8720 -37.7280
394.7360 481.0640 -35.4080
393.8080 483.7840 44.3840
333.2765 480.3155 4.8270
385.7885 482.1780 -37.3185
390.7170 481.4665 -39.0510
392.7645 481.6330 -37.3185
391.7835 484.5580 47.0430
389.0000 495.0000 46.0000
333.0000 489.0000 0.0000
397.0000 486.0000 0.0000
397.0000 486.0000 0.0000
397.0000 486.0000 0.0000
384.8760 495.4080 45.0855
334.3485 489.4495 -4.4785
399.1890 486.6820 -2.7415
397.1325 486.5065 -4.4785
397.0235 486.7650 4.6900
379.1280 495.3040 42.5440
337.9680 489.9760 -9.2880
400.1120 487.4160 -6.9520
397.3600 487.1920 -9.2880
397.1280 487.7200 10.1600
372.2420 494.7960 38.6785
343.3695 490.5465 -14.2395
400.0030 488.1840 -12.1605
397.5775 488.0055 -14.2395
397.2145 488.8050 16.1100
364.7040 493.9920 33.7920
350.0640 491.1280 -19.1440
399.0960 488.9680 -17.8960
397.6800 488.8960 -19.1440
397.1840 489.9600 22.2400
357.0000 493.0000 28.1875
357.5625 491.6875 -23.8125
397.6250 489.7500 -23.6875
397.5625 489.8125 -23.8125
396.9375 491.1250 28.2500
349.6160 491.9280 22.1680
365.3760 492.1920 -28.0560
395.8240 490.5120 -29.0640
397.1200 490.7040 -28.0560
396.3760 492.2400 33.8400
343.0380 490.8840 16.0365
373.0155 492.6085 -31.6855
393.9270 491.2360 -33.5545
396.2475 491.5195 -31.6855
395.4005 493.2450 38.7100
337.7520 489.9760 10.0960
379.9920 492.9040 -34.5120
392.1680 491.9040 -36.6880
394.8400 492.2080 -34.5120
393.9120 494.0800 42.5600
334.2440 489.3120 4.6495
385.8165 493.0455 -36.3465
390.7810 492.4980 -37.9935
392.7925 492.7185 -36.3465
391.8115 494.6850 45.0900
389.0000 504.0000 44.0000
334.0000 496.0000 0.0000
398.0000 495.0000 0.0000
398.0000 495.0000 0.0000
398.0000 495.0000 0.0000
384.9040 504.1990 43.1280
335.3205 496.3190 -4.3290
400.1250 495.5450 -2.6640
398.1045 495.3380 -4.3290
397.9955 495.6930 4.5125
379.2320 503.8720 40.7040
338.8640 496.7520 -8.9920
400.9600 496.0800 -6.7520
398.2560 495.8240 -8.9920
398.0240 496.6240 9.7600
372.4580 503.1330 37.0160
344.1535 497.2630 -13.8030
400.7450 496.6050 -11.8080
398.3615 496.4160 -13.8030
397.9985 497.7210 15.4575
365.0560 502.0960 32.3520
350.7120 497.8160 -18.5760
399.7200 497.1200 -17.3760
398.3280 497.0720 -18.5760
397.8320 498.9120 21.3200
357.5000 500.8750 27.0000
358.0625 498.3750 -23.1250
398.1250 497.6250 -23.0000
398.0625 497.7500 -23.1250
397.4375 500.1250 27.0625
350.2640 499.5840 21.2480
365.7280 498.9040 -27.2640
396.2000 498.1200 -28.2240
397.4720 498.4080 -27.2640
396.7280 501.2880 32.4000
343.8220 498.3370 15.3840
373.2315 499.3670 -30.8070
394.1850 498.6050 -32.5920
396.4635 499.0040 -30.8070
395.6165 502.3290 37.0475
338.6480 497.2480 9.6960
380.0960 499.7280 -33.5680
392.3200 499.0800 -35.6480
394.9440 499.4960 -33.5680
394.0160 503.1760 40.7200
335.2160 496.4310 4.4720
385.8445 499.9510 -35.3610
390.8450 499.5450 -36.9360
392.8205 499.8420 -35.3610
391.8395 503.7570 43.1325
389.0000 512.0000 42.0000
337.0000 504.0000 0.0000
398.0000 504.0000 0.0000
398.0000 504.0000 0.0000
398.0000 504.0000 0.0000
385.0690 512.1450 41.1660
338.2500 504.4795 -4.1110
400.0845 504.7675 -2.5180
398.0910 504.4795 -4.1110
397.9820 504.7100 4.3350
379.6720 511.7600 38.8480
341.6000 505.1760 -8.5280
400.8960 505.5600 -6.3840
398.2080 505.1760 -8.5280
397.9760 505.6000 9.3600
373.2530 510.9650 35.3220
346.6000 506.0265 -13.0770
400.6715 506.3625 -11.1660
398.2670 506.0265 -13.0770
397.9040 506.6100 14.8050
366.2560 509.8800 30.8640
352.8000 506.9680 -17.5840
399.6480 507.1600 -16.4320
398.1840 506.9680 -17.5840
397.6880 507.6800 20.4000
359.1250 508.6250 25.7500
359.7500 507.9375 -21.8750
398.0625 507.9375 -21.7500
397.8750 507.9375 -21.8750
397.2500 508.7500 25.8750
352.3040 507.3200 20.2560
367.0000 508.8720 -25.7760
396.1520 508.6800 -26.6880
397.2560 508.8720 -25.7760
396.5120 509.7600 30.9600
346.2370 506.0850 14.6580
374.1000 509.7085 -29.1130
394.1535 509.3725 -30.8140
396.2430 509.7085 -29.1130
395.3960 510.6500 35.3850
341.3680 505.0400 9.2320
380.6000 510.3840 -31.7120
392.3040 510.0000 -33.6960
394.7520 510.3840 -31.7120
393.8240 511.3600 38.8800
338.1410 504.3050 4.2540
386.0500 510.8355 -33.3990
390.8405 510.5475 -34.9020
392.6990 510.8355 -33.3990
391.7180 511.8300 41.1750
389.0000 523.0000 39.0000
340.0000 513.0000 0.0000
396.0000 516.0000 0.0000
396.0000 516.0000 0.0000
396.0000 516.0000 0.0000
385.2745 523.0935 38.2185
341.1885 513.5750 -3.7560
398.0100 516.7970 -2.2305
396.1245 516.5180 -3.7560
396.0155 516.6955 4.0485
380.1760 522.5680 36.0480
344.3680 514.3600 -7.7280
398.8800 517.4960 -5.6640
396.3360 517.1440 -7.7280
396.1040 517.5440 8.7280
374.1215 521.5645 32.7495
349.1095 515.2950 -11.7720
398.8200 518.1090 -9.9135
396.5415 517.8360 -11.7720
396.1785 518.4885 13.7895
367.5280 520.2240 28.5840
354.9840 516.3200 -15.7440
398.0400 518.6480 -14.5920
396.6480 518.5520 -15.7440
396.1520 519.4720 18.9840
360.8125 518.6875 23.8125
361.5625 517.3750 -19.5000
396.7500 519.1250 -19.3125
396.5625 519.2500 -19.5000
395.9375 520.4375 24.0625
354.3920 517.0960 18.6960
368.4160 518.4000 -22.8960
395.1600 519.5520 -23.6880
396.1920 519.8880 -22.8960
395.4480 521.3280 28.7760
348.6835 515.5905 13.4955
375.1155 519.3350 -25.7880
393.4800 519.9410 -27.3315
395.4435 520.4240 -25.7880
394.5965 522.0865 32.8755
344.1040 514.3120 8.4720
381.2320 520.1200 -28.0320
391.9200 520.3040 -29.8560
394.2240 520.8160 -28.0320
393.2960 522.6560 36.1120
341.0705 513.4015 3.8865
386.3365 520.6950 -29.4840
390.6900 520.6530 -30.8745
392.4405 521.0220 -29.4840
391.4595 522.9795 38.2365
389.0000 531.0000 37.0000
343.0000 521.0000 0.0000
396.0000 528.0000 0.0000
396.0000 528.0000 0.0000
396.0000 528.0000 0.0000
385.5610 530.9315 36.2700
344.1180 521.4355 -3.7030
397.8885 528.6625 -2.2900
396.1110 528.3025 -3.7030
396.0020 528.5205 3.7495
380.8080 530.3120 34.2400
347.1040 522.1040 -7.7040
398.6880 529.0800 -5.8000
396.2880 528.6000 -7.7040
396.0560 529.0640 8.1360
375.1370 529.2705 31.1500
351.5560 522.9485 -11.8410
398.5995 529.2975 -10.1400
396.4470 528.8775 -11.8410
396.0840 529.6035 12.9165
368.9440 527.9360 27.2400
357.0720 523.9120 -15.9520
397.8240 529.3600 -14.9200
396.5040 529.1200 -15.9520
396.0080 530.1120 17.8480
362.6250 526.4375 22.7500
363.2500 524.9375 -19.8750
396.5625 529.3125 -19.7500
396.3750 529.3125 -19.8750
395.7500 530.5625 22.6875
356.5760 524.9040 17.9200
369.6880 525.9680 -23.4480
395.0160 529.2000 -24.2400
395.9760 529.4400 -23.4480
395.2320 530.9280 27.1920
351.1930 523.4645 12.9900
375.9840 526.9465 -26.5090
393.3855 529.0675 -28.0000
395.2230 529.4875 -26.5090
394.3760 531.1815 31.1185
346.8720 522.2480 8.2000
381.7360 527.8160 -28.8960
391.8720 528.9600 -30.6400
394.0320 529.4400 -28.8960
393.1040 531.2960 34.2240
344.0090 521.3835 3.7900
386.5420 528.5195 -30.4470
390.6765 528.9225 -31.7700
392.3190 529.2825 -30.4470
391.3380 531.2445 36.2655
389.0000 543.0000 34.0000
345.0000 531.0000 0.0000
397.0000 538.0000 0.0000
397.0000 538.0000 0.0000
397.0000 538.0000 0.0000
385.6980 542.8035 33.3315
346.0665 531.5165 -3.4850
398.7435 538.7345 -2.1395
397.0785 538.3835 -3.4850
396.9695 538.7385 3.5845
381.1440 542.0080 31.4720
348.9120 532.2320 -7.2400
399.4080 539.1760 -5.4160
397.1680 538.7280 -7.2400
396.9360 539.5280 7.6960
375.7160 540.7545 28.6405
353.1555 533.0955 -11.1150
399.1945 539.3815 -9.4665
397.1995 539.0245 -11.1150
396.8365 540.3295 12.1215
369.7920 539.1840 25.0560
358.4160 534.0560 -14.9600
398.3040 539.4080 -13.9280
397.1040 539.2640 -14.9600
396.6080 541.1040 16.6480
363.7500 537.4375 20.9375
364.3125 535.0625 -18.6250
396.9375 539.3125 -18.4375
396.8125 539.4375 -18.6250
396.1875 541.8125 21.0625
357.9680 535.6560 16.5040
370.4640 536.0640 -21.9600
395.2960 539.1520 -22.6320
396.2560 539.5360 -21.9600
395.5120 542.4160 25.1520
352.8240 533.9805 11.9745
376.4895 537.0095 -24.8150
393.5805 538.9835 -26.1485
395.3655 539.5505 -24.8150
394.5185 542.8755 28.7035
348.6960 532.5520 7.5680
382.0080 537.8480 -27.0400
391.9920 538.8640 -28.6240
394.0720 539.4720 -27.0400
393.1440 543.1520 31.5040
345.9620 531.5115 3.5035
386.6385 538.5285 -28.4850
390.7315 538.8505 -29.6955
392.3065 539.2915 -28.4850
391.3255 543.2065 33.3405
389.0000 554.0000 29.0000
347.0000 539.0000 0.0000
397.0000 548.0000 0.0000
397.0000 548.0000 0.0000
397.0000 548.0000 0.0000
385.7945 553.6520 28.4490
348.0195 539.3455 -3.3635
398.6625 548.5930 -2.1170
397.0695 548.1745 -3.3635
396.9605 548.8160 3.1610
381.4160 552.6160 26.9120
350.7360 539.9440 -7.0480
399.2800 548.8240 -5.3360
397.1360 548.2960 -7.0480
396.9040 549.7280 6.7280
376.2215 551.0540 24.5630
354.7865 540.7385 -10.8945
399.0475 548.7710 -9.3090
397.1365 548.3615 -10.8945
396.7735 550.6820 10.5270
370.5680 549.1280 21.5760
359.8080 541.6720 -14.7440
398.1600 548.5120 -13.6880
397.0080 548.3680 -14.7440
396.5120 551.6240 14.3840
364.8125 547.0000 18.1250
365.4375 542.6875 -18.4375
396.8125 548.1250 -18.1250
396.6875 548.3125 -18.4375
396.0625 552.5000 18.1250
359.3120 544.8320 14.3840
371.3120 543.7280 -21.8160
395.2000 547.6880 -22.2720
396.1120 548.1920 -21.8160
395.3680 553.2560 21.5760
354.4235 542.7860 10.5270
377.0685 544.7365 -24.7205
393.5175 547.2790 -25.7810
395.2185 548.0035 -24.7205
394.3715 553.8380 24.5630
350.5040 541.0240 6.7280
382.3440 545.6560 -26.9920
391.9600 546.9760 -28.3040
393.9440 547.7440 -26.9920
393.0160 554.1920 26.9120
347.9105 539.7080 3.1610
386.7755 546.4295 -28.4715
390.7225 546.8570 -29.4930
392.2255 547.4105 -28.4715
391.2445 554.2640 28.4490
389.0000 562.0000 28.0000
350.0000 549.0000 0.0000
397.0000 561.0000 0.0000
397.0000 561.0000 0.0000
397.0000 561.0000 0.0000
386.0000 561.7125 27.4725
350.9490 549.0860 -3.1610
398.5815 561.4070 -2.1125
397.0560 560.8580 -3.1610
396.9470 561.6895 3.0925
381.9200 560.8400 26.0000
353.4720 549.3280 -6.7280
399.1520 561.2160 -5.3200
397.0880 560.4640 -6.7280
396.8560 562.2560 6.5600
377.0900 559.5175 23.7475
357.2330 549.7020 -10.5270
398.9005 560.5590 -9.2775
397.0420 559.8660 -10.5270
396.6790 562.6965 10.2375
371.8400 557.8800 20.8800
361.8960 550.1840 -14.3840
398.0160 559.5680 -13.6400
396.8640 559.1120 -14.3840
396.3680 563.0080 13.9600
366.5000 556.0625 17.5625
367.1250 550.7500 -18.1250
396.6875 558.3750 -18.0625
396.5000 558.2500 -18.1250
395.8750 563.1875 17.5625
361.4000 554.2000 13.9600
372.5840 551.3760 -21.5760
395.1040 557.1120 -22.2000
395.8960 557.3280 -21.5760
395.1520 563.2320 20.8800
356.8700 552.4275 10.2375
377.9370 552.0380 -24.5630
393.4545 555.9110 -25.7075
394.9980 556.3940 -24.5630
394.1510 563.1385 23.7475
353.2400 550.8800 6.5600
382.8480 552.7120 -26.9120
391.9280 554.9040 -28.2400
393.7520 555.4960 -26.9120
392.8240 562.9040 26.0000
350.8400 549.6925 3.0925
386.9810 553.3740 -28.4490
390.7135 554.2230 -29.4525
392.1040 554.6820 -28.4490
391.1230 562.5255 27.4725
389.0000 573.0000 25.0000
353.0000 558.0000 0.0000
397.0000 570.0000 0.0000
397.0000 570.0000 0.0000
397.0000 570.0000 0.0000
386.2055 572.5080 24.5385
353.8785 558.0580 -3.0520
398.4600 570.2890 -2.0305
397.0425 569.8300 -3.0520
396.9335 570.9075 2.8870
382.4240 571.4240 23.2480
356.2080 558.2240 -6.4960
398.9600 569.9520 -5.1040
397.0400 569.3600 -6.4960
396.8080 571.7200 6.0560
377.9585 569.8860 21.2695
359.6795 558.4860 -10.1640
398.6800 569.1330 -8.8935
396.9475 568.6500 -10.1640
396.5845 572.4225 9.3690
373.1120 568.0320 18.7440
363.9840 558.8320 -13.8880
397.8000 567.9760 -13.0720
396.7200 567.7600 -13.8880
396.2240 573.0000 12.6880
368.1875 566.0000 15.8125
368.8125 559.2500 -17.5000
396.5000 566.6250 -17.3125
396.3125 566.7500 -17.5000
395.6875 573.4375 15.8750
363.4880 563.9280 12.6160
373.8560 559.7280 -20.8320
394.9600 565.2240 -21.2880
395.6800 565.6800 -20.8320
394.9360 573.7200 18.7920
359.3165 561.9540 9.2955
378.8055 560.2540 -23.7160
393.3600 563.9170 -24.6715
394.7775 564.6100 -23.7160
393.9305 573.8325 21.3010
355.9760 560.2160 5.9920
383.3520 560.8160 -25.9840
391.8800 562.8480 -27.1360
393.5600 563.6000 -25.9840
392.6320 573.7600 23.2640
353.7695 558.8520 2.8465
387.1865 561.4020 -27.4680
390.7000 562.1610 -28.3545
391.9825 562.7100 -27.4680
391.0015 573.4875 24.5430
389.0000 579.0000 22.0000
355.0000 568.0000 0.0000
395.0000 580.0000 0.0000
395.0000 580.0000 0.0000
395.0000 580.0000 0.0000
386.3425 578.6425 21.6135
355.8405 568.0175 -2.9990
396.3855 580.3475 -2.0855
395.0805 579.7895 -2.9990
394.9715 580.7145 2.6410
382.7600 577.8400 20.5280
358.0640 568.1600 -6.4720
396.9440 580.0800 -5.2240
395.1840 579.2960 -6.4720
394.9520 581.1760 5.4880
378.5375 576.6975 18.8545
361.3735 568.4125 -10.2330
396.8285 579.3325 -9.0885
395.2535 578.5765 -10.2330
394.8905 581.4115 8.4270
373.9600 575.3200 16.7040
365.4720 568.7600 -14.0960
396.1920 578.2400 -13.3520
395.2320 577.6880 -14.0960
394.7360 581.4480 11.3440
369.3125 573.8125 14.1875
370.0625 569.1875 -17.8750
395.1875 576.9375 -17.6875
395.0625 576.6875 -17.8750
394.4375 581.3125 14.1250
364.8800 572.2800 11.4160
374.8480 569.6800 -21.3840
393.9680 575.5600 -21.7680
394.6880 575.6320 -21.3840
393.9440 581.0320 16.6560
360.9475 570.8275 8.5005
379.5315 570.2225 -24.4370
392.6865 574.2425 -25.2665
394.0515 574.5785 -24.4370
393.2045 580.6335 18.8230
357.8000 569.5600 5.5520
383.8160 570.8000 -26.8480
391.4960 573.1200 -27.8560
393.0960 573.5840 -26.8480
392.1680 580.1440 20.5120
355.7225 568.5825 2.6815
387.4045 571.3975 -28.4310
390.5495 572.3275 -29.2095
391.7645 572.7055 -28.4310
390.7835 579.5905 21.6090
389.0000 588.0000 20.0000
356.0000 578.0000 0.0000
392.0000 592.0000 0.0000
392.0000 592.0000 0.0000
392.0000 592.0000 0.0000
386.4920 587.6705 19.6605
356.8305 578.1020 -2.8775
393.3750 592.2365 -2.0765
392.1465 591.8360 -2.8775
392.0375 592.5990 2.5445
383.0560 586.9440 18.7040
359.0240 578.2160 -6.2800
394.0800 591.7520 -5.1920
392.4320 591.2080 -6.2800
392.2000 592.8320 5.2160
378.9740 585.9135 17.2235
362.2835 578.3540 -10.0125
394.2350 590.7055 -9.0255
392.7755 590.2120 -10.0125
392.4125 592.7530 7.9215
374.5280 584.6720 15.3120
366.3120 578.5280 -13.8800
393.9600 589.2560 -13.2560
393.0960 588.9440 -13.8800
392.6000 592.4160 10.5680
370.0000 583.3125 13.0625
370.8125 578.7500 -17.6875
393.3750 587.5625 -17.5625
393.3125 587.5000 -17.6875
392.6875 591.8750 13.0625
365.6720 581.9280 10.5680
375.4880 579.0320 -21.2400
392.6000 585.7840 -21.6240
393.3440 585.9760 -21.2400
392.6000 591.1840 15.3120
361.8260 580.6115 7.9215
380.0415 579.3860 -24.3425
391.7550 584.0795 -25.1195
393.1095 584.4680 -24.3425
392.2625 590.3970 17.2235
358.7440 579.4560 5.2160
384.1760 579.8240 -26.8000
390.9600 582.6080 -27.7280
392.5280 583.0720 -26.8000
391.6000 589.5680 18.7040
356.7080 578.5545 2.5445
387.5945 580.3580 -28.4175
390.3350 581.5285 -29.1285
391.5185 581.8840 -28.4175
390.5375 588.7510 19.6605
389.0000 594.0000 19.0000
356.0000 586.0000 0.0000
393.0000 603.0000 0.0000
393.0000 603.0000 0.0000
393.0000 603.0000 0.0000
386.6135 593.5555 18.6975
356.8260 586.0480 -3.0020
394.3110 603.0940 -2.2775
393.1230 602.7250 -3.0020
393.0140 603.3510 2.4760
383.2480 592.8640 17.8400
359.0080 586.1040 -6.6560
394.9280 602.3920 -5.6800
393.3440 601.8800 -6.6560
393.1120 603.1680 5.0480
379.1945 591.9885 16.5025
362.2520 586.1860 -10.7340
394.9770 601.0680 -9.8625
393.5910 600.5850 -10.7340
393.2280 602.5470 7.6320
374.7440 590.9920 14.7600
366.2640 586.3120 -15.0080
394.5840 599.2960 -14.4800
393.7920 598.9600 -15.0080
393.2960 601.5840 10.1440
370.1875 589.9375 12.6875
370.7500 586.5000 -19.2500
393.8750 597.2500 -19.1875
393.8750 597.1250 -19.2500
393.2500 600.3750 12.5000
365.8160 588.8880 10.3600
375.4160 586.7680 -23.2320
392.9760 595.1040 -23.6400
393.7680 595.2000 -23.2320
393.0240 599.0160 14.6160
361.9205 587.9065 7.8525
379.9680 587.1340 -26.7260
392.0130 593.0320 -27.4925
393.3990 593.3050 -26.7260
392.5520 597.6030 16.4080
358.7920 587.0560 5.2400
384.1120 587.6160 -29.5040
391.1120 591.2080 -30.4000
392.6960 591.5600 -29.5040
391.7680 596.2320 17.7920
356.7215 586.3995 2.5975
387.5540 588.2320 -31.3380
390.3990 589.8060 -32.0175
391.5870 590.0850 -31.3380
390.6060 594.9990 18.6840
389.0000 603.0000 19.0000
356.0000 594.0000 0.0000
395.0000 612.0000 0.0000
395.0000 612.0000 0.0000
395.0000 612.0000 0.0000
386.5730 602.4105 18.6975
356.8170 594.1245 -2.9615
396.2640 612.0660 -2.2775
395.0760 611.7825 -2.9615
394.9670 612.3960 2.5975
383.1840 601.5840 17.8400
358.9760 594.2160 -6.5920
396.7520 611.2880 -5.6800
395.1680 610.9200 -6.5920
394.9360 612.2480 5.2400
379.1210 600.5835 16.5025
362.1890 594.3015 -10.6605
396.6080 609.8520 -9.8625
395.2220 609.5475 -10.6605
394.8590 611.6520 7.8525
374.6720 599.4720 14.7600
366.1680 594.4080 -14.9360
395.9760 607.9440 -14.4800
395.1840 607.8000 -14.9360
394.6880 610.7040 10.3600
370.1250 598.3125 12.6875
370.6250 594.5625 -19.1875
395.0000 605.7500 -19.1875
395.0000 605.8125 -19.1875
394.3750 609.5000 12.6875
365.7680 597.1680 10.3600
375.2720 594.7920 -23.1840
393.8240 603.4560 -23.6400
394.6160 603.7200 -23.1840
393.8720 608.1360 14.7600
361.8890 596.1015 7.8525
379.8210 595.1235 -26.6945
392.5920 601.2480 -27.4925
393.9780 601.6575 -26.6945
393.1310 606.7080 16.5025
358.7760 595.1760 5.2400
383.9840 595.5840 -29.4880
391.4480 599.3120 -30.4000
393.0320 599.7600 -29.4880
392.1040 605.3120 17.8400
356.7170 594.4545 2.5975
387.4730 596.2005 -31.3335
390.5360 597.8340 -32.0175
391.7240 598.1625 -31.3335
390.7430 604.0440 18.6975
389.0000 614.0000 19.0000
356.0000 604.0000 0.0000
398.0000 620.0000 0.0000
398.0000 620.0000 0.0000
398.0000 620.0000 0.0000
386.4920 613.4230 18.7200
356.8035 604.2425 -3.3040
399.1935 620.2580 -2.6200
398.0055 619.9385 -3.3040
397.8965 620.5925 2.5975
383.0560 612.5440 17.9200
358.9280 604.4800 -7.4320
399.4880 619.7440 -6.5200
397.9040 619.3280 -7.4320
397.6720 620.7200 5.2400
378.9740 611.4410 16.6600
362.0945 604.7275 -12.1080
399.0545 618.6260 -11.3100
397.6685 618.2795 -12.1080
397.3055 620.4575 7.8525
374.5280 610.1920 15.0000
366.0240 605.0000 -17.0560
398.0640 617.0720 -16.6000
397.2720 616.9040 -17.0560
396.7760 619.8800 10.3600
370.0000 608.8750 13.0000
370.4375 605.3125 -22.0000
396.6875 615.2500 -22.0000
396.6875 615.3125 -22.0000
396.0625 619.0625 12.6875
365.6720 607.5680 10.7200
375.0560 605.6800 -26.6640
395.0960 613.3280 -27.1200
395.8880 613.6160 -26.6640
395.1440 618.0800 14.7600
361.8260 606.3490 8.2200
379.6005 606.1175 -30.7720
393.4605 611.4740 -31.5700
394.8465 611.9255 -30.7720
393.9995 617.0075 16.5025
358.7440 605.2960 5.5600
383.7920 606.6400 -34.0480
391.9520 609.8560 -34.9600
393.5360 610.3520 -34.0480
392.6080 615.9200 17.8400
356.7080 604.4870 2.8000
387.3515 607.2625 -36.2160
390.7415 608.6420 -36.9000
391.9295 609.0065 -36.2160
390.9485 614.8925 18.6975
389.0000 624.0000 18.0000
356.0000 615.0000 0.0000
400.0000 628.0000 0.0000
400.0000 628.0000 0.0000
400.0000 628.0000 0.0000
386.3705 623.5680 17.7525
356.7945 615.2560 -3.4410
401.1465 628.3735 -2.7525
399.9585 628.0090 -3.4410
399.8495 628.5945 2.7315
382.8640 622.8240 17.0400
358.8960 615.5280 -7.7680
401.3120 628.0880 -6.8400
399.7280 627.5920 -7.7680
399.4960 628.8160 5.3920
378.7535 621.8460 15.9075
362.0315 615.8220 -12.6870
400.6855 627.2845 -11.8575
399.2995 626.8330 -12.6870
398.9365 628.7215 7.9305
374.3120 620.7120 14.4000
365.9280 616.1440 -17.9040
399.4560 626.1040 -17.4000
398.6640 625.8160 -17.9040
398.1680 628.3680 10.2960
369.8125 619.5000 12.5625
370.3125 616.5000 -23.1250
397.8125 624.6875 -23.0625
397.8125 624.6250 -23.1250
397.1875 627.8125 12.4375
365.5280 618.2880 10.4400
374.9120 616.8960 -28.0560
395.9440 623.1760 -28.4400
396.7360 623.3440 -28.0560
395.9920 627.1120 14.3040
361.7315 617.1540 8.0775
379.4535 617.3380 -32.4030
394.0395 621.7105 -33.1275
395.4255 622.0570 -32.4030
394.5785 626.3235 15.8445
358.6960 616.1760 5.5200
383.6640 617.8320 -35.8720
392.2880 620.4320 -36.7200
393.8720 620.8480 -35.8720
392.9440 625.5040 17.0080
356.6945 615.4320 2.8125
387.2705 618.3840 -38.1690
390.8785 619.4815 -38.8125
392.0665 619.8010 -38.1690
391.0855 624.7105 17.7435
389.0000 632.0000 18.0000
355.0000 626.0000 0.0000
400.0000 639.0000 0.0000
400.0000 639.0000 0.0000
400.0000 639.0000 0.0000
386.2210 631.7600 17.7570
355.8180 626.2965 -3.4690
401.1465 639.3870 -2.8210
399.9630 639.0495 -3.4690
399.8540 639.3890 2.8125
382.5680 631.2800 17.0560
357.9840 626.5920 -7.8720
401.3120 639.1360 -7.0080
399.7440 638.6560 -7.8720
399.5120 639.3120 5.5200
378.3170 630.6200 15.9390
361.2160 626.8955 -12.9030
400.6855 638.3790 -12.1470
399.3310 637.9065 -12.9030
398.9680 638.8530 8.0775
373.7440 629.8400 14.4480
365.2320 627.2160 -18.2560
399.4560 637.2480 -17.8240
398.7120 636.8880 -18.2560
398.2160 638.0960 10.4400
369.1250 629.0000 12.6250
369.7500 627.5625 -23.6250
397.8125 635.8750 -23.6250
397.8750 635.6875 -23.6250
397.2500 637.1250 12.5625
364.7360 628.1600 10.5120
374.4880 627.9440 -28.7040
395.9440 634.3920 -29.1360
396.8080 634.3920 -28.7040
396.0640 636.0240 14.4000
360.8530 627.3800 8.1510
379.1640 628.3695 -33.1870
394.0395 632.9310 -33.9430
395.4990 633.0885 -33.1870
394.6520 634.8770 15.9075
357.7520 626.7200 5.5840
383.4960 628.8480 -36.7680
392.2880 631.6240 -37.6320
393.9360 631.8640 -36.7680
393.0080 633.7680 17.0400
355.7090 626.2400 2.8530
387.2020 629.3885 -39.1410
390.8785 630.6030 -39.7890
392.1070 630.8055 -39.1410
391.1260 632.7810 17.7525
389.0000 643.0000 17.0000
356.0000 636.0000 0.0000
400.0000 650.0000 0.0000
400.0000 650.0000 0.0000
400.0000 650.0000 0.0000
386.2895 642.6870 16.7715
356.7945 636.5100 -3.3320
401.1870 650.4555 -2.6795
399.9585 650.2440 -3.3320
399.8495 650.3935 2.7845
382.7360 642.0960 16.1120
358.8960 637.0400 -7.5360
401.3760 650.3040 -6.6560
399.7280 650.0320 -7.5360
399.4960 650.3280 5.4160
378.6065 641.2990 15.0605
362.0315 637.5900 -12.3240
400.7590 649.6685 -11.5365
399.2995 649.4480 -12.3240
398.9365 649.8845 7.8615
374.1680 640.3680 13.6560
365.9280 638.1600 -17.4080
399.5280 648.6720 -16.9280
398.6640 648.5760 -17.4080
398.1680 649.1440 10.0880
369.6875 639.3750 11.9375
370.3125 638.7500 -22.5000
397.8750 647.4375 -22.4375
397.8125 647.5000 -22.5000
397.1875 648.1875 12.0625
365.4320 638.3920 9.9440
374.9120 639.3600 -27.3120
395.9920 646.0880 -27.6720
396.7360 646.3040 -27.3120
395.9920 647.0960 13.7520
361.6685 637.4910 7.7145
379.4535 639.9900 -31.5560
394.0710 644.7465 -32.2385
395.4255 645.0720 -31.5560
394.5785 645.9505 15.1235
358.6640 636.7440 5.2880
383.6640 640.6400 -34.9440
392.3040 643.5360 -35.7440
393.8720 643.8880 -34.9440
392.9440 644.8320 16.1440
356.6855 636.2230 2.7035
387.2705 641.3100 -37.1880
390.8830 642.5795 -37.7955
392.0665 642.8360 -37.1880
391.0855 643.8215 16.7805
389.0000 653.0000 16.0000
358.0000 650.0000 0.0000
398.0000 662.0000 0.0000
398.0000 662.0000 0.0000
398.0000 662.0000 0.0000
386.4265 652.9070 15.7815
358.7565 650.5720 -3.0860
399.1935 662.6140 -2.4695
397.9965 662.3440 -3.0860
397.8875 662.2475 2.6350
383.0720 652.6560 15.1520
360.7520 651.0960 -6.9680
399.4880 662.6320 -6.1360
397.8720 662.2320 -6.9680
397.6400 661.9600 5.1200
379.1855 652.2890 14.1505
363.7255 651.5840 -11.3820
399.0545 662.1680 -10.6365
397.6055 661.7480 -11.3820
397.2425 661.2425 7.4250
375.0160 651.8480 12.8160
367.4160 652.0480 -16.0640
398.0640 661.3360 -15.6080
397.1760 660.9760 -16.0640
396.6800 660.2000 9.5200
370.8125 651.3750 11.1875
371.5625 652.5000 -20.7500
396.6875 660.2500 -20.6875
396.5625 660.0000 -20.7500
395.9375 658.9375 11.3750
366.8240 650.9120 9.3040
375.9040 652.9520 -25.1760
395.0960 659.0240 -25.5120
395.7440 658.9040 -25.1760
395.0000 657.5600 12.9600
363.2995 650.5010 7.2045
380.1795 653.4160 -29.0780
393.4605 657.7720 -29.7185
394.6995 657.7720 -29.0780
393.8525 656.1725 14.2450
360.4880 650.1840 4.9280
384.1280 653.9040 -32.1920
391.9520 656.6080 -32.9440
393.4080 656.6880 -32.1920
392.4800 654.8800 15.2000
358.6385 650.0030 2.5135
387.4885 654.4280 -34.2540
390.7415 655.6460 -34.8255
391.8485 655.7360 -34.2540
390.8675 653.7875 15.7950
389.0000 666.0000 14.0000
364.0000 657.0000 0.0000
398.0000 672.0000 0.0000
398.0000 672.0000 0.0000
398.0000 672.0000 0.0000
386.9185 665.5500 13.8195
364.6155 657.6425 -2.9085
399.1125 672.4385 -2.3235
397.9695 672.3575 -2.9085
397.8605 672.3450 2.3765
384.2080 664.7600 13.2960
366.2240 658.3600 -6.5680
399.3600 672.3280 -5.7680
397.7760 672.2800 -6.5680
397.5440 672.3200 4.5920
381.0695 663.7200 12.4565
368.6185 659.1375 -10.7295
398.9075 671.7795 -9.9945
397.4165 671.8425 -10.7295
397.0535 671.9850 6.6255
377.7040 662.5200 11.3280
371.5920 659.9600 -15.1440
397.9200 670.9040 -14.6640
396.8880 671.1200 -15.1440
396.3920 671.4000 8.4560
374.3125 661.2500 9.9375
374.9375 660.8125 -19.5625
396.5625 669.8125 -19.4375
396.1875 670.1875 -19.5625
395.5625 670.6250 10.0625
371.0960 660.0000 8.3120
378.4480 661.6800 -23.7360
395.0000 668.6160 -23.9760
395.3120 669.1200 -23.7360
394.5680 669.7200 11.4240
368.2555 658.8600 6.4785
381.9165 662.5475 -27.4155
393.3975 667.4255 -27.9405
394.2585 667.9925 -27.4155
393.4115 668.7450 12.5195
365.9920 657.9200 4.4640
385.1360 663.4000 -30.3520
391.9200 666.3520 -30.9920
393.0240 666.8800 -30.3520
392.0960 667.7600 13.3280
364.5065 657.2700 2.2955
387.8995 664.2225 -32.2965
390.7325 665.5065 -32.7915
391.6055 665.8575 -32.2965
390.6245 666.8250 13.8285
389.0000 678.0000 13.0000
364.0000 669.0000 0.0000
396.0000 682.0000 0.0000
396.0000 682.0000 0.0000
396.0000 682.0000 0.0000
386.9185 677.6355 12.8385
364.6245 669.5425 -2.7590
396.9165 682.6195 -2.2505
396.0165 682.2955 -2.7590
395.9075 682.4730 2.2270
384.2080 676.9040 12.3680
366.2560 670.1600 -6.2720
397.1520 682.6560 -5.5840
395.9520 682.2240 -6.2720
395.7200 682.6240 4.2960
381.0695 675.8985 11.6095
368.6815 670.8375 -10.2930
396.8355 682.2265 -9.6735
395.7855 681.8485 -10.2930
395.4225 682.5010 6.1890
377.7040 674.7120 10.5840
371.6880 671.5600 -14.5760
396.0960 681.4480 -14.1920
395.4960 681.2320 -14.5760
395.0000 682.1520 7.8880
374.3125 673.4375 9.3125
375.0625 672.3125 -18.8750
395.0625 680.4375 -18.8125
395.0625 680.4375 -18.8750
394.4375 681.6250 9.3750
371.0960 672.1680 7.8160
378.5920 673.0800 -22.9440
393.8640 679.3120 -23.2080
394.4640 679.5280 -22.9440
393.7200 680.9680 10.6320
368.2555 670.9965 6.1155
382.0635 673.8475 -26.5370
392.6295 678.1885 -27.0515
393.6795 678.5665 -26.5370
392.8325 680.2290 11.6410
365.9920 670.0160 4.2320
385.2640 674.6000 -29.4080
391.4880 677.1840 -30.0160
392.6880 677.6160 -29.4080
391.7600 679.4560 12.3840
364.5065 669.3195 2.1865
387.9805 675.3225 -31.3110
390.5685 676.4155 -31.7745
391.4685 676.7395 -31.3110
390.4875 678.6970 12.8430
389.0000 686.0000 13.0000
368.0000 678.0000 0.0000
396.0000 692.0000 0.0000
396.0000 692.0000 0.0000
396.0000 692.0000 0.0000
387.2735 685.6095 12.8205
368.5305 678.5535 -2.4445
396.9165 692.6160 -1.9765
395.9985 692.2875 -2.4445
395.8895 692.3000 2.1865
385.0080 684.8960 12.3040
369.9040 679.2880 -5.5360
397.1520 692.7280 -4.9120
395.8880 692.2800 -5.5360
395.6560 692.2400 4.2320
382.3745 683.9465 11.4835
371.9435 680.1645 -9.0615
396.8355 692.4320 -8.5155
395.6595 692.0225 -9.0615
395.2965 691.8800 6.1155
379.5440 682.8480 10.3920
374.4720 681.1440 -12.8080
396.0960 691.8240 -12.4960
395.3040 691.5600 -12.8080
394.8080 691.2800 7.8160
376.6875 681.6875 9.0625
377.3125 682.1875 -16.5625
395.0625 691.0000 -16.5625
394.8125 690.9375 -16.5625
394.1875 690.5000 9.3125
373.9760 680.5520 7.5280
380.2880 683.2560 -20.1120
393.8640 690.0560 -20.4240
394.1760 690.2000 -20.1120
393.4320 689.6000 10.5840
371.5805 679.5285 5.8215
383.2215 684.3105 -23.2435
392.6295 689.0880 -23.7895
393.3855 689.3925 -23.2435
392.5385 688.6400 11.6095
369.6720 678.7040 3.9760
385.9360 685.3120 -25.7440
391.4880 688.1920 -26.3680
392.4320 688.5600 -25.7440
391.5040 687.6800 12.3680
368.4215 678.1655 2.0245
388.2545 686.2215 -27.4005
390.5685 687.4640 -27.8685
391.3065 687.7475 -27.4005
390.3255 686.7800 12.8385
389.0000 695.0000 12.0000
370.0000 690.0000 0.0000
396.0000 703.0000 0.0000
396.0000 703.0000 0.0000
396.0000 703.0000 0.0000
387.4105 694.7655 11.8440
370.4835 690.6515 -2.4445
396.7545 703.7060 -1.9720
395.9895 703.4045 -2.4445
395.8805 703.1585 1.9560
385.3440 694.3040 11.3920
371.7280 691.3920 -5.5360
396.8960 703.8880 -4.8960
395.8560 703.4560 -5.5360
395.6240 702.8880 3.8080
382.9535 693.6785 10.6680
373.5745 692.2005 -9.0615
396.5415 703.6420 -8.4840
395.5965 703.2115 -9.0615
395.2335 702.2695 5.5320
380.3920 692.9520 9.6960
375.8640 693.0560 -12.8080
395.8080 703.0640 -12.4480
395.2080 702.7280 -12.8080
394.7120 701.3840 7.1040
377.8125 692.1875 8.5000
378.4375 693.9375 -16.5625
394.8125 702.2500 -16.5000
394.6875 702.0625 -16.5625
394.0625 700.3125 8.5000
375.3680 691.4480 7.1040
381.1360 694.8240 -20.1120
393.6720 701.2960 -20.3520
394.0320 701.2720 -20.1120
393.2880 699.1360 9.6960
373.2115 690.7965 5.5320
383.8005 695.6945 -23.2435
392.5035 700.2980 -23.7160
393.2385 700.4135 -23.2435
392.3915 697.9355 10.6680
371.4960 690.2960 3.8080
386.2720 696.5280 -25.7440
391.4240 699.3520 -26.3040
392.3040 699.5440 -25.7440
391.3760 696.7920 11.3920
370.3745 690.0095 1.9560
388.3915 697.3035 -27.4005
390.5505 698.5540 -27.8280
391.2255 698.7205 -27.4005
390.2445 695.7865 11.8440
389.0000 705.0000 10.0000
372.0000 703.0000 0.0000
398.0000 713.0000 0.0000
398.0000 713.0000 0.0000
398.0000 713.0000 0.0000
387.5475 704.9440 9.8775
372.4275 703.4160 -2.1985
398.6265 713.4195 -1.7575
397.9335 713.2260 -2.1985
397.8245 713.1045 1.8190
385.6800 704.7920 9.5200
373.5200 703.6880 -4.9680
398.5920 713.2560 -4.3600
397.6480 712.9680 -4.9680
397.4160 712.7760 3.4720
383.5325 704.5680 8.9425
375.1425 703.8520 -8.1195
398.0255 712.6265 -7.5525
397.1645 712.3220 -8.1195
396.8015 712.1015 4.9530
381.2400 704.2960 8.1600
377.1600 703.9440 -11.4640
397.0560 711.6480 -11.0800
396.5040 711.3840 -11.4640
396.0080 711.1680 6.2560
378.9375 704.0000 7.1875
379.4375 704.0000 -14.8125
395.8125 710.4375 -14.6875
395.6875 710.2500 -14.8125
395.0625 710.0625 7.3750
376.7600 703.7040 6.0400
381.8400 704.0560 -17.9760
394.4240 709.1120 -18.1200
394.7360 709.0160 -17.9760
393.9920 708.8720 8.3040
374.8425 703.4320 4.7325
384.2325 704.1480 -20.7655
393.0195 707.7885 -21.1225
393.6705 707.7780 -20.7655
392.8235 707.6835 9.0370
373.3200 703.2080 3.2800
386.4800 704.3120 -22.9920
391.7280 706.5840 -23.4400
392.5120 706.6320 -22.9920
391.5840 706.5840 9.5680
372.3275 703.0560 1.6975
388.4475 704.5840 -24.4665
390.6785 705.6155 -24.8175
391.2815 705.6740 -24.4665
390.3005 705.6605 9.8910
389.0000 718.0000 13.0000
376.0000 716.0000 0.0000
397.0000 722.0000 0.0000
397.0000 722.0000 0.0000
397.0000 722.0000 0.0000
387.7405 718.0700 12.8025
376.3380 716.4870 -2.0490
397.5690 722.4450 -1.7025
396.9390 722.3730 -2.0490
396.8300 722.4415 1.9030
386.2240 718.0000 12.2400
377.1840 716.7760 -4.6720
397.5520 722.4400 -4.2400
396.6720 722.3440 -4.6720
396.4400 722.5120 3.7840
384.5435 717.8200 11.3575
378.4360 716.9090 -7.6830
397.0630 722.0750 -7.3575
396.2230 721.9910 -7.6830
395.8600 722.2805 5.6010
382.7920 717.5600 10.2000
379.9920 716.9280 -10.8960
396.2160 721.4400 -10.8000
395.6160 721.3920 -10.8960
395.1200 721.8160 7.3120
381.0625 717.2500 8.8125
381.7500 716.8750 -14.1250
395.1250 720.6250 -14.3125
394.8750 720.6250 -14.1250
394.2500 721.1875 8.8750
379.4480 716.9200 7.2400
383.6080 716.7920 -17.1840
393.9040 719.7200 -17.6400
394.0240 719.7680 -17.1840
393.2800 720.4640 10.2480
378.0415 716.6000 5.5275
385.4640 716.7210 -19.8870
392.6670 718.8150 -20.5275
393.0870 718.8990 -19.8870
392.2400 719.7145 11.3890
376.9360 716.3200 3.7200
387.2160 716.7040 -22.0480
391.5280 718.0000 -22.7200
392.0880 718.0960 -22.0480
391.1600 719.0080 12.2560
376.2245 716.1100 1.8625
388.7620 716.7830 -23.4810
390.6010 717.3650 -23.9625
391.0510 717.4370 -23.4810
390.0700 718.4135 12.8070
389.0000 729.0000 17.0000
376.0000 731.0000 0.0000
400.0000 731.0000 0.0000
400.0000 731.0000 0.0000
400.0000 731.0000 0.0000
387.7810 729.4160 16.6950
376.3245 731.4580 -1.9650
400.3365 731.5480 -1.5150
399.8685 731.4580 -1.9650
399.7595 731.4300 2.1365
386.2880 729.7680 15.8400
377.1360 731.6640 -4.3600
400.0320 731.8240 -3.8000
399.4080 731.6640 -4.3600
399.1760 731.5600 4.3920
384.6170 730.0620 14.5250
378.3415 731.6660 -7.0350
399.2155 731.8760 -6.6150
398.6695 731.6660 -7.0350
398.3065 731.4500 6.6855
382.8640 730.3040 12.8400
379.8480 731.5120 -9.8400
398.0160 731.7520 -9.7200
397.7040 731.5120 -9.8400
397.2080 731.1600 8.9360
381.1250 730.5000 10.8750
381.5625 731.2500 -12.6250
396.5625 731.5000 -12.8750
396.5625 731.2500 -12.6250
395.9375 730.7500 11.0625
379.4960 730.6560 8.7200
383.3920 730.9280 -15.2400
394.9840 731.1680 -15.8400
395.2960 730.9280 -15.2400
394.5520 730.2800 12.9840
378.0730 730.7780 6.4650
385.2435 730.5940 -17.5350
393.4095 730.8040 -18.3750
393.9555 730.5940 -17.5350
393.1085 729.8100 14.6195
376.9520 730.8720 4.2000
387.0240 730.2960 -19.3600
391.9680 730.4560 -20.2400
392.5920 730.2960 -19.3600
391.6640 729.4000 15.8880
376.2290 730.9440 2.0150
388.6405 730.0820 -20.5650
390.7885 730.1720 -21.1950
391.2565 730.0820 -20.5650
390.2755 729.1100 16.7085
389.0000 465.0000 48.0000
327.0000 459.0000 0.0000
395.0000 460.0000 0.0000
395.0000 460.0000 0.0000
395.0000 460.0000 0.0000
384.3030 453.8115 47.0430
328.4985 448.5400 -3.2915
395.4540 449.4130 -2.8190
395.2065 449.5210 -3.2915
395.0975 449.4120 4.1385
377.8640 446.9520 44.3840
332.5280 442.8800 -7.4720
395.4720 443.5840 -7.1520
395.6320 443.8080 -7.4720
395.4000 443.5760 9.4080
370.2110 443.6805 40.3410
338.5395 441.1500 -12.2505
395.1380 441.6610 -12.5130
396.1355 441.9970 -12.2505
395.7725 441.6340 15.4395
361.8720 443.2560 35.2320
345.9840 442.4800 -17.3360
394.5360 442.7920 -18.4160
396.5760 443.2240 -17.3360
396.0800 442.7280 21.8640
353.3750 444.9375 29.3750
354.3125 446.0000 -22.4375
393.7500 446.1250 -24.3750
396.8125 446.6250 -22.4375
396.1875 446.0000 28.3125
345.2480 447.9840 23.0880
362.9760 450.8400 -27.2640
392.8640 450.8080 -29.9040
396.7040 451.3360 -27.2640
395.9600 450.5920 34.4160
338.0190 451.6545 16.6890
371.4255 456.1300 -31.5245
391.9620 455.9890 -34.5170
396.1095 456.4930 -31.5245
395.2625 455.6460 39.8055
332.2160 455.2080 10.4960
379.1120 461.0000 -34.9280
391.1280 460.8160 -37.7280
394.8880 461.2320 -34.9280
393.9600 460.3040 44.1120
328.3670 457.9035 4.8270
385.4865 464.5800 -37.1835
390.4460 464.4370 -39.0510
392.8985 464.6890 -37.1835
391.9175 463.7080 46.9665
