ply
format ascii 1.0
comment VCGLIB generated
element vertex 1402
property float x
property float y
property float z
property float nx
property float ny
property float nz
element face 0
property list uchar int vertex_indices
end_header
1243 1056 -7.492132e-05 0 0 0 
1253.698 959.9414 -35.00007 0 0 0 
1222.64 844.0304 77.99992 0 0 0 
1222.64 844.0304 77.99992 0 0 0 
1222.64 844.0304 77.99992 0 0 0 
1244.274 1058.05 -5.556575 0 0 0 
1257.854 962.4676 -34.52857 0 0 0 
1227 852.2171 77.58443 0 0 0 
1227.385 848.7589 76.32442 0 0 0 
1220.518 849.8489 76.32442 0 0 0 
1245.092 1053.588 -10.87207 0 0 0 
1263.666 970.1061 -33.16807 0 0 0 
1234.331 867.1515 73.37592 0 0 0 
1234.844 862.5407 71.69592 0 0 0 
1220.228 864.8607 71.69592 0 0 0 
1245.609 1044.086 -15.86557 0 0 0 
1270.604 981.4463 -30.99957 0 0 0 
1243.848 887.3041 66.18143 0 0 0 
1244.297 883.2696 64.71143 0 0 0 
1221.428 886.8996 64.71143 0 0 0 
1245.978 1031.013 -20.45607 0 0 0 
1278.135 995.0778 -28.10407 0 0 0 
1254.771 911.1454 56.80793 0 0 0 
1255.028 908.84 55.96793 0 0 0 
1223.78 913.8 55.96792 0 0 0 
1246.353 1015.84 -24.56257 0 0 0 
1285.728 1009.59 -24.56257 0 0 0 
1266.316 937.1458 46.06243 0 0 0 
1266.316 937.1458 46.06243 0 0 0 
1226.941 943.3958 46.06242 0 0 0 
1246.887 1000.038 -28.10407 0 0 0 
1292.85 1023.573 -20.45607 0 0 0 
1277.702 963.7757 34.75193 0 0 0 
1277.445 966.0811 35.59193 0 0 0 
1230.573 973.5211 35.59192 0 0 0 
1247.735 985.0763 -30.99957 0 0 0 
1298.97 1035.616 -15.86557 0 0 0 
1288.145 989.5056 23.68343 0 0 0 
1287.696 993.5401 25.15343 0 0 0 
1234.335 1002.01 25.15342 0 0 0 
1249.05 972.4261 -33.16808 0 0 0 
1303.556 1044.308 -10.87207 0 0 0 
1296.864 1012.806 13.66393 0 0 0 
1296.351 1017.417 15.34393 0 0 0 
1237.887 1026.697 15.34392 0 0 0 
1250.987 963.5576 -34.52857 0 0 0 
1306.077 1048.24 -5.55657 0 0 0 
1303.077 1032.147 5.500431 0 0 0 
1302.692 1035.605 6.76043 0 0 0 
1240.888 1045.416 6.760425 0 0 0 
1243 1056 -7.492132e-05 0 0 0 
1253.957 960.9075 -35.00007 0 0 0 
1222.898 844.9963 77.99992 0 0 0 
1222.898 844.9963 77.99992 0 0 0 
1222.898 844.9963 77.99992 0 0 0 
1244.281 1058.072 -5.556575 0 0 0 
1258.105 963.4752 -34.52857 0 0 0 
1227.242 853.1896 77.58443 0 0 0 
1227.637 849.7663 76.32442 0 0 0 
1220.77 850.7473 76.32442 0 0 0 
1245.119 1053.673 -10.87207 0 0 0 
1263.898 971.1397 -33.16807 0 0 0 
1234.55 868.1385 73.37592 0 0 0 
1235.076 863.5741 71.69592 0 0 0 
1220.46 865.6621 71.69592 0 0 0 
1245.665 1044.263 -15.86557 0 0 0 
1270.807 982.4932 -30.99957 0 0 0 
1244.04 888.3103 66.18143 0 0 0 
1244.5 884.3164 64.71143 0 0 0 
1221.631 887.5834 64.71143 0 0 0 
1246.069 1031.305 -20.45607 0 0 0 
1278.303 996.1278 -28.10407 0 0 0 
1254.932 912.1721 56.80793 0 0 0 
1255.195 909.8899 55.96793 0 0 0 
1223.947 914.3539 55.96792 0 0 0 
1246.482 1016.261 -24.56257 0 0 0 
1285.857 1010.636 -24.56257 0 0 0 
1266.446 938.1912 46.06243 0 0 0 
1266.446 938.1912 46.06243 0 0 0 
1227.071 943.8162 46.06242 0 0 0 
1247.055 1000.592 -28.10407 0 0 0 
1292.941 1024.609 -20.45607 0 0 0 
1277.799 964.8349 34.75193 0 0 0 
1277.536 967.1171 35.59193 0 0 0 
1230.664 973.8131 35.59192 0 0 0 
1247.938 985.7602 -30.99957 0 0 0 
1299.026 1036.64 -15.86557 0 0 0 
1288.212 990.5703 23.68343 0 0 0 
1287.752 994.5642 25.15343 0 0 0 
1234.391 1002.187 25.15342 0 0 0 
1249.282 973.2277 -33.16807 0 0 0 
1303.583 1045.321 -10.87207 0 0 0 
1296.904 1013.865 13.66393 0 0 0 
1296.378 1018.429 15.34393 0 0 0 
1237.914 1026.781 15.34392 0 0 0 
1251.238 964.4562 -34.52857 0 0 0 
1306.084 1049.243 -5.55657 0 0 0 
1303.093 1033.186 5.500431 0 0 0 
1302.699 1036.609 6.76043 0 0 0 
1240.896 1045.438 6.760425 0 0 0 
1243 1057 -7.492132e-05 0 0 0 
1254.216 961.8733 -35.00007 0 0 0 
1223.157 845.9622 77.99992 0 0 0 
1223.157 845.9622 77.99992 0 0 0 
1223.157 845.9622 77.99992 0 0 0 
1244.288 1059.071 -5.556575 0 0 0 
1258.357 964.4419 -34.52857 0 0 0 
1227.485 854.1577 77.58443 0 0 0 
1227.888 850.7332 76.32442 0 0 0 
1221.021 851.7142 76.32442 0 0 0 
1245.146 1054.669 -10.87207 0 0 0 
1264.13 972.1091 -33.16807 0 0 0 
1234.77 869.1096 73.37592 0 0 0 
1235.308 864.5436 71.69592 0 0 0 
1220.692 866.6316 71.69592 0 0 0 
1245.721 1045.256 -15.86557 0 0 0 
1271.01 983.4664 -30.99957 0 0 0 
1244.232 889.285 66.18143 0 0 0 
1244.703 885.2897 64.71143 0 0 0 
1221.834 888.5567 64.71143 0 0 0 
1246.16 1032.293 -20.45607 0 0 0 
1278.47 997.1056 -28.10407 0 0 0 
1255.094 913.1508 56.80793 0 0 0 
1255.363 910.8678 55.96793 0 0 0 
1224.115 915.3318 55.96792 0 0 0 
1246.611 1017.244 -24.56257 0 0 0 
1285.986 1011.619 -24.56257 0 0 0 
1266.575 939.1742 46.06243 0 0 0 
1266.575 939.1742 46.06243 0 0 0 
1227.2 944.7992 46.06242 0 0 0 
1247.222 1001.57 -28.10407 0 0 0 
1293.032 1025.597 -20.45607 0 0 0 
1277.896 965.8221 34.75193 0 0 0 
1277.627 968.1051 35.59193 0 0 0 
1230.755 974.8011 35.59192 0 0 0 
1248.141 986.7334 -30.99957 0 0 0 
1299.082 1037.633 -15.86557 0 0 0 
1288.279 991.5615 23.68343 0 0 0 
1287.808 995.5569 25.15343 0 0 0 
1234.447 1003.18 25.15342 0 0 0 
1249.514 974.1971 -33.16807 0 0 0 
1303.61 1046.317 -10.87207 0 0 0 
1296.943 1014.86 13.66393 0 0 0 
1296.405 1019.426 15.34393 0 0 0 
1237.941 1027.778 15.34392 0 0 0 
1251.49 965.4229 -34.52857 0 0 0 
1306.091 1050.242 -5.55657 0 0 0 
1303.11 1034.183 5.500431 0 0 0 
1302.706 1037.608 6.76043 0 0 0 
1240.903 1046.437 6.760425 0 0 0 
1243 1057 -7.492132e-05 0 0 0 
1254.474 962.8392 -35.00007 0 0 0 
1223.416 846.9282 77.99992 0 0 0 
1223.416 846.9282 77.99992 0 0 0 
1223.416 846.9282 77.99992 0 0 0 
1244.296 1059.098 -5.556575 0 0 0 
1258.608 965.3808 -34.52857 0 0 0 
1227.727 855.0619 77.58443 0 0 0 
1228.14 851.6721 76.32442 0 0 0 
1221.273 852.6531 76.32442 0 0 0 
1245.173 1054.77 -10.87207 0 0 0 
1264.362 972.9745 -33.16807 0 0 0 
1234.989 869.9288 73.37592 0 0 0 
1235.54 865.4091 71.69592 0 0 0 
1220.924 867.4971 71.69592 0 0 0 
1245.777 1045.464 -15.86557 0 0 0 
1271.213 984.2236 -30.99957 0 0 0 
1244.424 890.0018 66.18143 0 0 0 
1244.906 886.047 64.71143 0 0 0 
1222.037 889.314 64.71143 0 0 0 
1246.251 1032.633 -20.45607 0 0 0 
1278.638 997.7315 -28.10407 0 0 0 
1255.255 913.7536 56.80793 0 0 0 
1255.531 911.4937 55.96793 0 0 0 
1224.283 915.9577 55.96792 0 0 0 
1246.741 1017.727 -24.56257 0 0 0 
1286.116 1012.102 -24.56257 0 0 0 
1266.704 939.6572 46.06243 0 0 0 
1266.704 939.6572 46.06243 0 0 0 
1227.329 945.2822 46.06242 0 0 0 
1247.39 1002.195 -28.10407 0 0 0 
1293.123 1025.937 -20.45607 0 0 0 
1277.994 966.1853 34.75193 0 0 0 
1277.718 968.4451 35.59193 0 0 0 
1230.846 975.1411 35.59192 0 0 0 
1248.344 987.4906 -30.99957 0 0 0 
1299.138 1037.841 -15.86557 0 0 0 
1288.345 991.8108 23.68343 0 0 0 
1287.864 995.7655 25.15343 0 0 0 
1234.503 1003.388 25.15342 0 0 0 
1249.746 975.0625 -33.16807 0 0 0 
1303.637 1046.418 -10.87207 0 0 0 
1296.982 1015.006 13.66393 0 0 0 
1296.432 1019.526 15.34393 0 0 0 
1237.968 1027.878 15.34392 0 0 0 
1251.741 966.3618 -34.52857 0 0 0 
1306.099 1050.269 -5.55657 0 0 0 
1303.126 1034.245 5.500431 0 0 0 
1302.713 1037.635 6.76043 0 0 0 
1240.91 1046.464 6.760425 0 0 0 
1242 1052 -7.500874e-05 0 0 0 
1254.733 963.8052 -35.00007 0 0 0 
1223.416 846.9282 77.99992 0 0 0 
1223.416 846.9282 77.99992 0 0 0 
1223.416 846.9282 77.99992 0 0 0 
1243.337 1054.278 -5.556575 0 0 0 
1258.901 966.5951 -34.52857 0 0 0 
1227.721 855.1138 77.58443 0 0 0 
1228.179 851.9388 76.32442 0 0 0 
1221.203 852.2658 76.32442 0 0 0 
1244.304 1050.356 -10.87207 0 0 0 
1264.662 974.3435 -33.16807 0 0 0 
1234.989 870.115 73.37592 0 0 0 
1235.6 865.8816 71.69592 0 0 0 
1220.752 866.5776 71.69592 0 0 0 
1245.036 1041.635 -15.86557 0 0 0 
1271.497 985.6684 -30.99957 0 0 0 
1244.437 890.3778 66.18143 0 0 0 
1244.972 886.6736 64.71143 0 0 0 
1221.74 887.7626 64.71143 0 0 0 
1245.665 1029.515 -20.45607 0 0 0 
1278.89 999.1879 -28.10407 0 0 0 
1255.285 914.3481 56.80793 0 0 0 
1255.59 912.2314 55.96793 0 0 0 
1223.846 913.7194 55.96792 0 0 0 
1246.324 1015.395 -24.56257 0 0 0 
1286.324 1013.52 -24.56257 0 0 0 
1266.751 940.4718 46.06243 0 0 0 
1266.751 940.4718 46.06243 0 0 0 
1226.751 942.3468 46.06242 0 0 0 
1247.146 1000.676 -28.10407 0 0 0 
1293.281 1027.283 -20.45607 0 0 0 
1278.053 967.1949 34.75193 0 0 0 
1277.748 969.3116 35.59193 0 0 0 
1230.132 971.5436 35.59192 0 0 0 
1248.265 986.7574 -30.99957 0 0 0 
1299.244 1039.094 -15.86557 0 0 0 
1288.411 992.9634 23.68343 0 0 0 
1287.876 996.6675 25.15343 0 0 0 
1233.668 999.2085 25.15342 0 0 0 
1249.814 975.0395 -33.16807 0 0 0 
1303.697 1047.572 -10.87207 0 0 0 
1297.042 1016.223 13.66393 0 0 0 
1296.431 1020.456 15.34393 0 0 0 
1237.039 1023.24 15.34392 0 0 0 
1251.926 966.9221 -34.52857 0 0 0 
1306.121 1051.335 -5.55657 0 0 0 
1303.166 1035.42 5.500431 0 0 0 
1302.707 1038.595 6.76043 0 0 0 
1239.923 1041.538 6.760425 0 0 0 
1242 1052 -7.500874e-05 0 0 0 
1254.992 964.7711 -35.00007 0 0 0 
1223.675 847.894 77.99992 0 0 0 
1223.675 847.894 77.99992 0 0 0 
1223.675 847.894 77.99992 0 0 0 
1243.344 1054.3 -5.556575 0 0 0 
1259.153 967.6025 -34.52857 0 0 0 
1227.963 856.0863 77.58443 0 0 0 
1228.431 852.946 76.32442 0 0 0 
1221.455 853.164 76.32442 0 0 0 
1244.332 1050.44 -10.87207 0 0 0 
1264.894 975.3769 -33.16807 0 0 0 
1235.208 871.102 73.37592 0 0 0 
1235.832 866.915 71.69592 0 0 0 
1220.984 867.379 71.69592 0 0 0 
1245.092 1041.812 -15.86557 0 0 0 
1271.7 986.7152 -30.99957 0 0 0 
1244.629 891.3839 66.18143 0 0 0 
1245.175 887.7203 64.71143 0 0 0 
1221.943 888.4463 64.71143 0 0 0 
1245.756 1029.807 -20.45607 0 0 0 
1279.058 1000.238 -28.10407 0 0 0 
1255.446 915.3747 56.80793 0 0 0 
1255.758 913.2812 55.96793 0 0 0 
1224.014 914.2732 55.96792 0 0 0 
1246.453 1015.815 -24.56257 0 0 0 
1286.453 1014.565 -24.56257 0 0 0 
1266.88 941.5172 46.06243 0 0 0 
1266.88 941.5172 46.06243 0 0 0 
1226.88 942.7672 46.06242 0 0 0 
1247.314 1001.23 -28.10407 0 0 0 
1293.372 1028.319 -20.45607 0 0 0 
1278.151 968.254 34.75193 0 0 0 
1277.839 970.3475 35.59193 0 0 0 
1230.223 971.8355 35.59192 0 0 0 
1248.468 987.4412 -30.99957 0 0 0 
1299.3 1040.118 -15.86557 0 0 0 
1288.478 994.028 23.68343 0 0 0 
1287.932 997.6916 25.15343 0 0 0 
1233.724 999.3856 25.15342 0 0 0 
1250.046 975.8409 -33.16807 0 0 0 
1303.724 1048.584 -10.87207 0 0 0 
1297.082 1017.282 13.66393 0 0 0 
1296.458 1021.469 15.34393 0 0 0 
1237.066 1023.325 15.34392 0 0 0 
1252.177 967.8205 -34.52857 0 0 0 
1306.128 1052.338 -5.55657 0 0 0 
1303.182 1036.458 5.500431 0 0 0 
1302.715 1039.599 6.76043 0 0 0 
1239.931 1041.561 6.760425 0 0 0 
1242 1053 -7.500874e-05 0 0 0 
1255.251 965.7371 -35.00007 0 0 0 
1223.934 848.86 77.99992 0 0 0 
1223.934 848.86 77.99992 0 0 0 
1223.934 848.86 77.99992 0 0 0 
1243.351 1055.304 -5.556575 0 0 0 
1259.405 968.5009 -34.52857 0 0 0 
1228.206 856.9859 77.58443 0 0 0 
1228.683 853.8445 76.32442 0 0 0 
1221.707 854.1715 76.32442 0 0 0 
1244.358 1051.453 -10.87207 0 0 0 
1265.126 976.1785 -33.16807 0 0 0 
1235.427 871.9051 73.37592 0 0 0 
1236.063 867.7165 71.69592 0 0 0 
1221.216 868.4125 71.69592 0 0 0 
1245.148 1042.836 -15.86557 0 0 0 
1271.903 987.399 -30.99957 0 0 0 
1244.821 892.0692 66.18143 0 0 0 
1245.377 888.4041 64.71143 0 0 0 
1222.146 889.4931 64.71143 0 0 0 
1245.847 1030.843 -20.45607 0 0 0 
1279.226 1000.792 -28.10407 0 0 0 
1255.608 915.9295 56.80793 0 0 0 
1255.926 913.8352 55.96793 0 0 0 
1224.182 915.3232 55.96792 0 0 0 
1246.583 1016.861 -24.56257 0 0 0 
1286.583 1014.986 -24.56257 0 0 0 
1267.01 941.9377 46.06243 0 0 0 
1267.01 941.9377 46.06243 0 0 0 
1227.01 943.8127 46.06242 0 0 0 
1247.482 1002.28 -28.10407 0 0 0 
1293.463 1028.611 -20.45607 0 0 0 
1278.248 968.5453 34.75193 0 0 0 
1277.93 970.6396 35.59193 0 0 0 
1230.314 972.8716 35.59192 0 0 0 
1248.671 988.488 -30.99957 0 0 0 
1299.356 1040.295 -15.86557 0 0 0 
1288.544 994.2038 23.68343 0 0 0 
1287.988 997.8688 25.15343 0 0 0 
1233.78 1000.41 25.15342 0 0 0 
1250.278 976.8745 -33.16807 0 0 0 
1303.75 1048.669 -10.87207 0 0 0 
1297.121 1017.365 13.66393 0 0 0 
1296.485 1021.553 15.34393 0 0 0 
1237.093 1024.337 15.34392 0 0 0 
1252.429 968.8279 -34.52857 0 0 0 
1306.135 1052.361 -5.55657 0 0 0 
1303.199 1036.48 5.500431 0 0 0 
1302.722 1039.621 6.76043 0 0 0 
1239.938 1042.564 6.760425 0 0 0 
1242 1054 -7.500874e-05 0 0 0 
1228.075 864.3148 -36.00008 0 0 0 
1224.192 849.8259 77.99992 0 0 0 
1224.192 849.8259 77.99992 0 0 0 
1224.192 849.8259 77.99992 0 0 0 
1241.479 1049.289 -5.625075 0 0 0 
1232.866 869.4857 -35.50508 0 0 0 
1229.559 862.1007 77.62492 0 0 0 
1229.057 855.2721 76.32893 0 0 0 
1222.082 855.5991 76.32893 0 0 0 
1239.776 1035.248 -11.04008 0 0 0 
1240.337 883.7699 -34.08008 0 0 0 
1237.403 879.4291 73.43993 0 0 0 
1236.734 870.3242 71.71192 0 0 0 
1221.886 871.0202 71.71192 0 0 0 
1237.261 1014.187 -16.15508 0 0 0 
1249.733 904.8747 -31.81507 0 0 0 
1247.029 900.5694 66.25492 0 0 0 
1246.445 892.6026 64.74292 0 0 0 
1223.213 893.6916 64.74292 0 0 0 
1234.306 988.418 -20.88008 0 0 0 
1260.299 930.5075 -28.80007 0 0 0 
1257.745 924.2802 56.87993 0 0 0 
1257.41 919.7277 56.01593 0 0 0 
1225.666 921.2157 56.01592 0 0 0 
1231.28 960.2505 -25.12508 0 0 0 
1271.28 958.3755 -25.12507 0 0 0 
1268.854 949.3199 46.12493 0 0 0 
1268.854 949.3199 46.12493 0 0 0 
1228.854 951.1949 46.12492 0 0 0 
1228.555 931.9955 -28.80008 0 0 0 
1281.922 986.186 -20.88007 0 0 0 
1279.662 974.4471 34.79993 0 0 0 
1279.996 978.9995 35.66393 0 0 0 
1232.38 981.2315 35.66393 0 0 0 
1226.501 905.9637 -31.81508 0 0 0 
1291.469 1011.646 -16.15507 0 0 0 
1289.475 998.4202 23.71493 0 0 0 
1290.06 1006.387 25.22693 0 0 0 
1235.852 1008.928 25.22692 0 0 0 
1225.489 884.4659 -34.08008 0 0 0 
1299.168 1032.464 -11.04007 0 0 0 
1297.599 1019.998 13.67993 0 0 0 
1298.268 1029.103 15.40793 0 0 0 
1238.875 1031.887 15.40792 0 0 0 
1225.89 869.8127 -35.50508 0 0 0 
1304.263 1046.346 -5.62507 0 0 0 
1303.339 1037.938 5.50493 0 0 0 
1303.84 1044.767 6.800931 0 0 0 
1241.056 1047.71 6.800925 0 0 0 
1242 1054 -7.500874e-05 0 0 0 
1228.334 865.2808 -36.00008 0 0 0 
1224.451 850.7919 77.99992 0 0 0 
1224.451 850.7919 77.99992 0 0 0 
1224.451 850.7919 77.99992 0 0 0 
1241.491 1049.402 -5.625075 0 0 0 
1233.049 869.1231 -35.50508 0 0 0 
1229.733 861.7034 77.62492 0 0 0 
1229.241 854.9095 76.32893 0 0 0 
1222.374 857.3075 76.32893 0 0 0 
1239.819 1035.652 -11.04008 0 0 0 
1240.401 881.4434 -34.08008 0 0 0 
1237.454 877.0562 73.43993 0 0 0 
1236.798 867.9977 71.71192 0 0 0 
1222.182 873.1017 71.71192 0 0 0 
1237.349 1014.995 -16.15508 0 0 0 
1249.646 900.1315 -31.81507 0 0 0 
1246.932 895.7857 66.25492 0 0 0 
1246.358 887.8594 64.74292 0 0 0 
1223.489 895.8454 64.74292 0 0 0 
1234.445 989.67 -20.88008 0 0 0 
1260.042 923.0774 -28.80007 0 0 0 
1257.482 916.8269 56.87993 0 0 0 
1257.154 912.2977 56.01593 0 0 0 
1225.906 923.2097 56.01592 0 0 0 
1231.472 961.921 -25.12508 0 0 0 
1270.847 948.171 -25.12507 0 0 0 
1268.42 939.1154 46.12493 0 0 0 
1268.42 939.1154 46.12493 0 0 0 
1229.045 952.8654 46.12492 0 0 0 
1228.794 933.9894 -28.80008 0 0 0 
1281.317 973.302 -20.88007 0 0 0 
1279.063 961.5863 34.79993 0 0 0 
1279.391 966.1155 35.66393 0 0 0 
1232.519 982.4835 35.66393 0 0 0 
1226.777 908.1175 -31.81508 0 0 0 
1290.71 996.3606 -16.15507 0 0 0 
1288.727 983.1749 23.71493 0 0 0 
1289.301 991.1011 25.22693 0 0 0 
1235.94 1009.735 25.22692 0 0 0 
1225.785 886.5474 -34.08008 0 0 0 
1298.283 1015.237 -11.04007 0 0 0 
1296.727 1002.817 13.67993 0 0 0 
1297.383 1011.875 15.40793 0 0 0 
1238.918 1032.291 15.40792 0 0 0 
1226.182 871.5211 -35.50508 0 0 0 
1303.294 1027.82 -5.62507 0 0 0 
1302.379 1019.446 5.50493 0 0 0 
1302.871 1026.24 6.800931 0 0 0 
1241.068 1047.822 6.800925 0 0 0 
1242 1055 -7.500874e-05 0 0 0 
1228.592 866.2466 -36.00008 0 0 0 
1250.592 948.3503 77.99992 0 0 0 
1250.592 948.3503 77.99992 0 0 0 
1250.592 948.3503 77.99992 0 0 0 
1240.45 1046.493 -5.625075 0 0 0 
1233.184 869.5867 -35.50508 0 0 0 
1255.249 956.9256 77.62492 0 0 0 
1254.766 950.1305 76.32893 0 0 0 
1247.899 952.6375 76.32893 0 0 0 
1238.19 1030.483 -11.04008 0 0 0 
1240.219 880.6993 -34.08008 0 0 0 
1261.278 965.9517 73.43993 0 0 0 
1260.634 956.8915 71.71192 0 0 0 
1246.018 962.2275 71.71192 0 0 0 
1235.502 1008.919 -16.15508 0 0 0 
1249.034 897.7726 -31.81507 0 0 0 
1268.231 975.242 66.25492 0 0 0 
1267.668 967.3144 64.74292 0 0 0 
1244.799 975.6634 64.74292 0 0 0 
1232.673 983.7513 -20.88008 0 0 0 
1258.968 918.9948 -28.80007 0 0 0 
1275.657 984.6101 56.87993 0 0 0 
1275.336 980.08 56.01593 0 0 0 
1244.088 991.488 56.01592 0 0 0 
1229.984 956.9293 -25.12508 0 0 0 
1269.359 942.5543 -25.12507 0 0 0 
1283.109 993.8691 46.12493 0 0 0 
1283.109 993.8691 46.12493 0 0 0 
1243.734 1008.244 46.12492 0 0 0 
1227.72 930.4028 -28.80008 0 0 0 
1279.545 966.6393 -20.88007 0 0 0 
1290.135 1002.833 34.79993 0 0 0 
1290.456 1007.363 35.66393 0 0 0 
1243.584 1024.475 35.66393 0 0 0 
1226.165 906.1216 -31.81508 0 0 0 
1288.864 989.4381 -16.15507 0 0 0 
1296.286 1011.314 23.71493 0 0 0 
1296.849 1019.242 25.22693 0 0 0 
1243.488 1038.723 25.22692 0 0 0 
1225.603 886.0353 -34.08008 0 0 0 
1296.654 1009.139 -11.04007 0 0 0 
1301.114 1019.127 13.67993 0 0 0 
1301.758 1028.187 15.40793 0 0 0 
1243.293 1049.531 15.40792 0 0 0 
1226.317 872.0937 -35.50508 0 0 0 
1302.253 1023.93 -5.62507 0 0 0 
1304.168 1026.084 5.50493 0 0 0 
1304.651 1032.88 6.800931 0 0 0 
1242.848 1055.443 6.800925 0 0 0 
1242 1055 -7.500874e-05 0 0 0 
1228.851 867.2126 -36.00008 0 0 0 
1250.851 949.3163 77.99992 0 0 0 
1250.851 949.3163 77.99992 0 0 0 
1250.851 949.3163 77.99992 0 0 0 
1240.457 1046.516 -5.625075 0 0 0 
1233.436 870.5942 -35.50508 0 0 0 
1255.491 957.8983 77.62492 0 0 0 
1255.018 951.1379 76.32893 0 0 0 
1248.151 953.5359 76.32893 0 0 0 
1238.217 1030.568 -11.04008 0 0 0 
1240.451 881.7328 -34.08008 0 0 0 
1261.498 966.9389 73.43993 0 0 0 
1260.866 957.9251 71.71192 0 0 0 
1246.25 963.0291 71.71192 0 0 0 
1235.558 1009.096 -16.15508 0 0 0 
1249.237 898.8194 -31.81507 0 0 0 
1268.423 976.2483 66.25492 0 0 0 
1267.87 968.3612 64.74292 0 0 0 
1245.001 976.3472 64.74292 0 0 0 
1232.764 984.0434 -20.88008 0 0 0 
1259.136 920.0448 -28.80007 0 0 0 
1275.819 985.6368 56.87993 0 0 0 
1275.503 981.1299 56.01593 0 0 0 
1244.255 992.0419 56.01592 0 0 0 
1230.113 957.3498 -25.12508 0 0 0 
1269.488 943.5998 -25.12507 0 0 0 
1283.238 994.9146 46.12493 0 0 0 
1283.238 994.9146 46.12493 0 0 0 
1243.863 1008.665 46.12492 0 0 0 
1227.888 930.9568 -28.80008 0 0 0 
1279.636 967.6754 -20.88007 0 0 0 
1290.232 1003.892 34.79993 0 0 0 
1290.547 1008.399 35.66393 0 0 0 
1243.676 1024.767 35.66393 0 0 0 
1226.368 906.8054 -31.81508 0 0 0 
1288.919 990.4623 -16.15507 0 0 0 
1296.353 1012.379 23.71493 0 0 0 
1296.905 1020.266 25.22693 0 0 0 
1243.544 1038.9 25.22692 0 0 0 
1225.835 886.8368 -34.08008 0 0 0 
1296.681 1010.151 -11.04007 0 0 0 
1301.153 1020.186 13.67993 0 0 0 
1301.784 1029.199 15.40793 0 0 0 
1243.321 1049.615 15.40792 0 0 0 
1226.569 872.9922 -35.50508 0 0 0 
1302.26 1024.934 -5.62507 0 0 0 
1304.185 1027.123 5.50493 0 0 0 
1304.658 1033.883 6.800931 0 0 0 
1242.855 1055.465 6.800925 0 0 0 
1242 1056 -7.500874e-05 0 0 0 
1229.11 868.1785 -36.00008 0 0 0 
1251.11 950.2822 77.99992 0 0 0 
1251.11 950.2822 77.99992 0 0 0 
1251.11 950.2822 77.99992 0 0 0 
1240.465 1047.515 -5.625075 0 0 0 
1233.687 871.561 -35.50508 0 0 0 
1255.733 958.8663 77.62492 0 0 0 
1255.269 952.1048 76.32893 0 0 0 
1248.402 954.5028 76.32893 0 0 0 
1238.244 1031.564 -11.04008 0 0 0 
1240.683 882.7023 -34.08008 0 0 0 
1261.717 967.9099 73.43993 0 0 0 
1261.098 958.8945 71.71192 0 0 0 
1246.482 963.9985 71.71192 0 0 0 
1235.614 1010.089 -16.15508 0 0 0 
1249.44 899.7927 -31.81507 0 0 0 
1268.615 977.223 66.25492 0 0 0 
1268.073 969.3345 64.74292 0 0 0 
1245.204 977.3205 64.74292 0 0 0 
1232.855 985.0314 -20.88008 0 0 0 
1259.303 921.0227 -28.80007 0 0 0 
1275.98 986.6156 56.87993 0 0 0 
1275.671 982.1078 56.01593 0 0 0 
1244.423 993.0198 56.01592 0 0 0 
1230.242 958.3328 -25.12508 0 0 0 
1269.617 944.5828 -25.12507 0 0 0 
1283.367 995.8976 46.12493 0 0 0 
1283.367 995.8976 46.12493 0 0 0 
1243.992 1009.648 46.12492 0 0 0 
1228.055 931.9347 -28.80008 0 0 0 
1279.727 968.6634 -20.88007 0 0 0 
1290.329 1004.879 34.79993 0 0 0 
1290.639 1009.387 35.66393 0 0 0 
1243.767 1025.755 35.66393 0 0 0 
1226.571 907.7787 -31.81508 0 0 0 
1288.975 991.4549 -16.15507 0 0 0 
1296.42 1013.37 23.71493 0 0 0 
1296.961 1021.259 25.22693 0 0 0 
1243.6 1039.893 25.22692 0 0 0 
1226.067 887.8063 -34.08008 0 0 0 
1296.708 1011.148 -11.04007 0 0 0 
1301.193 1021.181 13.67993 0 0 0 
1301.811 1030.196 15.40793 0 0 0 
1243.347 1050.612 15.40792 0 0 0 
1226.82 873.959 -35.50508 0 0 0 
1302.268 1025.933 -5.62507 0 0 0 
1304.201 1028.12 5.50493 0 0 0 
1304.666 1034.882 6.800931 0 0 0 
1242.863 1056.464 6.800925 0 0 0 
1242 1056 -7.500874e-05 0 0 0 
1229.369 869.1445 -36.00008 0 0 0 
1251.369 951.2482 77.99992 0 0 0 
1251.369 951.2482 77.99992 0 0 0 
1251.369 951.2482 77.99992 0 0 0 
1240.472 1047.542 -5.625075 0 0 0 
1233.939 872.5 -35.50508 0 0 0 
1255.975 959.7705 77.62492 0 0 0 
1255.521 953.0437 76.32893 0 0 0 
1248.654 955.4417 76.32893 0 0 0 
1238.27 1031.664 -11.04008 0 0 0 
1240.914 883.5678 -34.08008 0 0 0 
1261.937 968.7291 73.43993 0 0 0 
1261.33 959.76 71.71192 0 0 0 
1246.714 964.864 71.71192 0 0 0 
1235.67 1010.298 -16.15508 0 0 0 
1249.643 900.55 -31.81507 0 0 0 
1268.807 977.9398 66.25492 0 0 0 
1268.276 970.0919 64.74292 0 0 0 
1245.407 978.0779 64.74292 0 0 0 
1232.946 985.3714 -20.88008 0 0 0 
1259.471 921.6487 -28.80007 0 0 0 
1276.142 987.2183 56.87993 0 0 0 
1275.839 982.7338 56.01593 0 0 0 
1244.591 993.6458 56.01592 0 0 0 
1230.372 958.8158 -25.12508 0 0 0 
1269.747 945.0658 -25.12507 0 0 0 
1283.497 996.3806 46.12493 0 0 0 
1283.497 996.3806 46.12493 0 0 0 
1244.122 1010.131 46.12492 0 0 0 
1228.223 932.5607 -28.80008 0 0 0 
1279.818 969.0034 -20.88007 0 0 0 
1290.427 1005.242 34.79993 0 0 0 
1290.73 1009.727 35.66393 0 0 0 
1243.858 1026.095 35.66393 0 0 0 
1226.774 908.536 -31.81508 0 0 0 
1289.031 991.6636 -16.15507 0 0 0 
1296.487 1013.619 23.71493 0 0 0 
1297.017 1021.467 25.22693 0 0 0 
1243.656 1040.101 25.22692 0 0 0 
1226.298 888.6718 -34.08008 0 0 0 
1296.734 1011.248 -11.04007 0 0 0 
1301.232 1021.327 13.67993 0 0 0 
1301.838 1030.296 15.40793 0 0 0 
1243.374 1050.712 15.40792 0 0 0 
1227.072 874.898 -35.50508 0 0 0 
1302.275 1025.96 -5.62507 0 0 0 
1304.218 1028.182 5.50493 0 0 0 
1304.673 1034.909 6.800931 0 0 0 
1242.87 1056.491 6.800925 0 0 0 
1241 1050 -7.509616e-05 0 0 0 
1229.628 870.1104 -36.00008 0 0 0 
1251.627 952.2141 77.99992 0 0 0 
1251.627 952.2141 77.99992 0 0 0 
1251.627 952.2141 77.99992 0 0 0 
1239.503 1041.705 -5.625075 0 0 0 
1234.231 873.7503 -35.50508 0 0 0 
1256.222 960.7701 77.62492 0 0 0 
1255.813 954.2941 76.32893 0 0 0 
1248.837 955.9291 76.32893 0 0 0 
1237.385 1026.277 -11.04008 0 0 0 
1241.21 884.9853 -34.08008 0 0 0 
1262.172 969.8122 73.43993 0 0 0 
1261.626 961.1775 71.71192 0 0 0 
1246.778 964.6575 71.71192 0 0 0 
1234.911 1005.582 -16.15508 0 0 0 
1249.919 902.0378 -31.81507 0 0 0 
1269.03 979.135 66.25492 0 0 0 
1268.553 971.5796 64.74292 0 0 0 
1245.321 977.0246 64.74292 0 0 0 
1232.341 981.4874 -20.88008 0 0 0 
1259.711 923.1306 -28.80007 0 0 0 
1276.351 988.5331 56.87993 0 0 0 
1276.078 984.2157 56.01593 0 0 0 
1244.334 991.6557 56.01592 0 0 0 
1229.939 955.8612 -25.12508 0 0 0 
1269.939 946.4862 -25.12507 0 0 0 
1283.689 997.801 46.12493 0 0 0 
1283.689 997.801 46.12493 0 0 0 
1243.689 1007.176 46.12492 0 0 0 
1227.967 930.5706 -28.80008 0 0 0 
1279.957 970.3274 -20.88007 0 0 0 
1290.596 1006.734 34.79993 0 0 0 
1290.869 1011.051 35.66393 0 0 0 
1243.253 1022.211 35.66393 0 0 0 
1226.687 907.4828 -31.81508 0 0 0 
1289.119 992.8767 -16.15507 0 0 0 
1296.627 1015.125 23.71493 0 0 0 
1297.104 1022.68 25.22693 0 0 0 
1242.896 1035.385 25.22692 0 0 0 
1226.362 888.4653 -34.08008 0 0 0 
1296.777 1012.357 -11.04007 0 0 0 
1301.335 1022.77 13.67993 0 0 0 
1301.881 1031.405 15.40793 0 0 0 
1242.489 1045.325 15.40792 0 0 0 
1227.255 875.3853 -35.50508 0 0 0 
1302.287 1026.99 -5.62507 0 0 0 
1304.275 1029.464 5.50493 0 0 0 
1304.685 1035.94 6.800931 0 0 0 
1241.901 1050.655 6.800925 0 0 0 
1241 1050 -7.509616e-05 0 0 0 
1252.662 956.0778 -36.00007 0 0 0 
1251.627 952.2141 77.99992 0 0 0 
1251.627 952.2141 77.99992 0 0 0 
1251.627 952.2141 77.99992 0 0 0 
1241.081 1047.59 -5.625075 0 0 0 
1256.725 957.766 -35.50507 0 0 0 
1255.289 957.3569 77.62492 0 0 0 
1255.709 953.9757 76.32893 0 0 0 
1248.733 955.5017 76.32893 0 0 0 
1241.255 1040.703 -11.04008 0 0 0 
1262.218 963.5555 -34.08007 0 0 0 
1260.698 964.4783 73.43993 0 0 0 
1261.258 959.97 71.71192 0 0 0 
1246.409 963.218 71.71192 0 0 0 
1241.579 1030.438 -16.15508 0 0 0 
1268.704 972.4337 -31.81507 0 0 0 
1267.337 973.1059 66.25492 0 0 0 
1267.827 969.1611 64.74292 0 0 0 
1244.595 974.2431 64.74292 0 0 0 
1242.108 1017.89 -20.88007 0 0 0 
1275.743 983.3879 -28.80007 0 0 0 
1274.693 982.7674 56.87993 0 0 0 
1274.973 980.5133 56.01593 0 0 0 
1243.229 987.4573 56.01592 0 0 0 
1242.896 1004.155 -25.12507 0 0 0 
1282.896 995.4054 -25.12507 0 0 0 
1282.249 992.9906 46.12493 0 0 0 
1282.249 992.9906 46.12493 0 0 0 
1242.249 1001.741 46.12492 0 0 0 
1243.999 990.3319 -28.80007 0 0 0 
1289.724 1007.474 -20.88007 0 0 0 
1289.49 1003.303 34.79993 0 0 0 
1289.21 1005.557 35.66393 0 0 0 
1241.594 1015.973 35.66393 0 0 0 
1245.472 977.5157 -31.81507 0 0 0 
1295.787 1018.58 -16.15507 0 0 0 
1295.901 1013.232 23.71493 0 0 0 
1295.411 1017.177 25.22693 0 0 0 
1241.203 1029.035 25.22692 0 0 0 
1247.37 966.8035 -34.08008 0 0 0 
1300.647 1027.711 -11.04007 0 0 0 
1300.967 1022.307 13.67993 0 0 0 
1300.407 1026.815 15.40793 0 0 0 
1241.015 1039.807 15.40792 0 0 0 
1249.749 959.292 -35.50507 0 0 0 
1303.865 1033.856 -5.62507 0 0 0 
1304.172 1030.053 5.50493 0 0 0 
1303.752 1033.434 6.800931 0 0 0 
1240.968 1047.168 6.800925 0 0 0 
1241 1051 -7.509616e-05 0 0 0 
1252.921 957.0437 -36.00007 0 0 0 
1217.204 823.7459 76.99992 0 0 0 
1217.204 823.7459 76.99992 0 0 0 
1217.204 823.7459 76.99992 0 0 0 
1242.492 1053.835 -5.584575 0 0 0 
1257.132 959.2468 -35.50057 0 0 0 
1221.665 831.8641 76.64842 0 0 0 
1222.094 828.4817 75.35242 0 0 0 
1215.118 830.1167 75.35242 0 0 0 
1243.502 1050 -10.97608 0 0 0 
1263.005 966.4279 -34.06407 0 0 0 
1229.287 847.2375 72.52792 0 0 0 
1229.86 842.7276 70.79993 0 0 0 
1215.012 846.2076 70.79993 0 0 0 
1244.184 1040.975 -16.08157 0 0 0 
1270 977.1946 -31.78357 0 0 0 
1239.246 868.2376 65.43942 0 0 0 
1239.747 864.2914 63.92743 0 0 0 
1216.515 869.7364 63.92743 0 0 0 
1244.696 1028.245 -20.80807 0 0 0 
1277.575 990.1546 -28.75207 0 0 0 
1250.716 893.236 56.18393 0 0 0 
1251.002 890.981 55.31993 0 0 0 
1219.258 898.421 55.31992 0 0 0 
1245.193 1013.291 -25.06257 0 0 0 
1285.193 1003.916 -25.06257 0 0 0 
1262.87 920.6043 45.56243 0 0 0 
1262.87 920.6043 45.56243 0 0 0 
1222.87 929.9793 45.56242 0 0 0 
1245.832 997.5946 -28.75208 0 0 0 
1292.312 1017.085 -20.80807 0 0 0 
1274.882 948.7142 34.37593 0 0 0 
1274.596 950.9691 35.23993 0 0 0 
1226.98 962.1291 35.23993 0 0 0 
1246.768 982.6396 -31.78358 0 0 0 
1298.392 1028.27 -16.08157 0 0 0 
1285.928 975.9371 23.42543 0 0 0 
1285.427 979.8832 24.93743 0 0 0 
1231.219 992.5882 24.93742 0 0 0 
1248.157 969.9079 -34.06408 0 0 0 
1302.894 1036.08 -10.97607 0 0 0 
1295.18 1000.645 13.51193 0 0 0 
1294.607 1005.154 15.23993 0 0 0 
1235.215 1019.075 15.23992 0 0 0 
1250.156 960.8818 -35.50057 0 0 0 
1305.276 1039.12 -5.584569 0 0 0 
1301.812 1021.208 5.43643 0 0 0 
1301.383 1024.591 6.73243 0 0 0 
1238.599 1039.306 6.732425 0 0 0 
1241 1052 -7.509616e-05 0 0 0 
1253.18 958.0096 -36.00007 0 0 0 
1217.463 824.7119 76.99992 0 0 0 
1217.463 824.7119 76.99992 0 0 0 
1217.463 824.7119 76.99992 0 0 0 
1242.5 1054.834 -5.584575 0 0 0 
1257.384 960.2137 -35.50057 0 0 0 
1221.907 832.8323 76.64842 0 0 0 
1222.345 829.4486 75.35242 0 0 0 
1215.369 831.0836 75.35242 0 0 0 
1243.529 1050.996 -10.97608 0 0 0 
1263.237 967.3974 -34.06407 0 0 0 
1229.507 848.2086 72.52792 0 0 0 
1230.092 843.6971 70.79993 0 0 0 
1215.244 847.1771 70.79993 0 0 0 
1244.24 1041.968 -16.08157 0 0 0 
1270.202 978.1679 -31.78357 0 0 0 
1239.438 869.2123 65.43942 0 0 0 
1239.95 865.2648 63.92743 0 0 0 
1216.718 870.7098 63.92743 0 0 0 
1244.787 1029.233 -20.80807 0 0 0 
1277.743 991.1325 -28.75207 0 0 0 
1250.877 894.2148 56.18393 0 0 0 
1251.17 891.959 55.31993 0 0 0 
1219.426 899.399 55.31992 0 0 0 
1245.322 1014.273 -25.06257 0 0 0 
1285.322 1004.898 -25.06257 0 0 0 
1262.999 921.5873 45.56243 0 0 0 
1262.999 921.5873 45.56243 0 0 0 
1222.999 930.9623 45.56242 0 0 0 
1245.999 998.5725 -28.75208 0 0 0 
1292.403 1018.073 -20.80807 0 0 0 
1274.98 949.7014 34.37593 0 0 0 
1274.687 951.9572 35.23993 0 0 0 
1227.071 963.1172 35.23993 0 0 0 
1246.97 983.6129 -31.78358 0 0 0 
1298.448 1029.263 -16.08157 0 0 0 
1285.994 976.9283 23.42543 0 0 0 
1285.483 980.8759 24.93743 0 0 0 
1231.275 993.5809 24.93742 0 0 0 
1248.389 970.8774 -34.06408 0 0 0 
1302.921 1037.076 -10.97607 0 0 0 
1295.219 1001.639 13.51193 0 0 0 
1294.634 1006.151 15.23993 0 0 0 
1235.242 1020.071 15.23992 0 0 0 
1250.408 961.8487 -35.50057 0 0 0 
1305.284 1040.119 -5.584569 0 0 0 
1301.829 1022.206 5.43643 0 0 0 
1301.39 1025.59 6.73243 0 0 0 
1238.606 1040.305 6.732425 0 0 0 
1241 1052 -7.509616e-05 0 0 0 
1253.439 958.9756 -36.00007 0 0 0 
1217.722 825.6778 76.99992 0 0 0 
1217.722 825.6778 76.99992 0 0 0 
1217.722 825.6778 76.99992 0 0 0 
1242.507 1054.857 -5.584575 0 0 0 
1257.635 961.2211 -35.50057 0 0 0 
1222.149 833.8049 76.64842 0 0 0 
1222.597 830.456 75.35242 0 0 0 
1215.621 831.982 75.35242 0 0 0 
1243.555 1051.08 -10.97608 0 0 0 
1263.469 968.4309 -34.06407 0 0 0 
1229.726 849.1957 72.52792 0 0 0 
1230.323 844.7305 70.79993 0 0 0 
1215.475 847.9785 70.79993 0 0 0 
1244.296 1042.145 -16.08157 0 0 0 
1270.405 979.2148 -31.78357 0 0 0 
1239.63 870.2185 65.43942 0 0 0 
1240.153 866.3115 63.92743 0 0 0 
1216.921 871.3935 63.92743 0 0 0 
1244.878 1029.525 -20.80807 0 0 0 
1277.911 992.1825 -28.75207 0 0 0 
1251.039 895.2415 56.18393 0 0 0 
1251.337 893.0089 55.31993 0 0 0 
1219.593 899.9529 55.31992 0 0 0 
1245.452 1014.694 -25.06257 0 0 0 
1285.452 1005.944 -25.06257 0 0 0 
1263.129 922.6328 45.56243 0 0 0 
1263.129 922.6328 45.56243 0 0 0 
1223.129 931.3828 45.56242 0 0 0 
1246.167 999.1265 -28.75208 0 0 0 
1292.494 1019.109 -20.80807 0 0 0 
1275.077 950.7606 34.37593 0 0 0 
1274.779 952.9931 35.23993 0 0 0 
1227.162 963.4091 35.23993 0 0 0 
1247.173 984.2968 -31.78358 0 0 0 
1298.504 1030.287 -16.08157 0 0 0 
1286.061 977.993 23.42543 0 0 0 
1285.539 981.9 24.93743 0 0 0 
1231.331 993.758 24.93742 0 0 0 
1248.621 971.6789 -34.06408 0 0 0 
1302.948 1038.089 -10.97607 0 0 0 
1295.258 1002.698 13.51193 0 0 0 
1294.661 1007.163 15.23993 0 0 0 
1235.269 1020.155 15.23992 0 0 0 
1250.659 962.7471 -35.50057 0 0 0 
1305.291 1041.123 -5.584569 0 0 0 
1301.845 1023.245 5.43643 0 0 0 
1301.398 1026.593 6.73243 0 0 0 
1238.614 1040.327 6.732425 0 0 0 
1241 1053 -7.509616e-05 0 0 0 
1253.698 959.9414 -36.00007 0 0 0 
1217.981 826.6437 76.99992 0 0 0 
1217.981 826.6437 76.99992 0 0 0 
1217.981 826.6437 76.99992 0 0 0 
1242.514 1055.86 -5.584575 0 0 0 
1257.887 962.1194 -35.50057 0 0 0 
1222.391 834.7044 76.64842 0 0 0 
1222.849 831.3543 75.35242 0 0 0 
1215.873 832.9893 75.35242 0 0 0 
1243.583 1052.093 -10.97608 0 0 0 
1263.701 969.2323 -34.06407 0 0 0 
1229.946 849.9988 72.52792 0 0 0 
1230.555 845.532 70.79993 0 0 0 
1215.707 849.012 70.79993 0 0 0 
1244.352 1043.169 -16.08157 0 0 0 
1270.608 979.8984 -31.78357 0 0 0 
1239.823 870.9037 65.43942 0 0 0 
1240.356 866.9953 63.92743 0 0 0 
1217.124 872.4403 63.92743 0 0 0 
1244.969 1030.561 -20.80807 0 0 0 
1278.079 992.7363 -28.75207 0 0 0 
1251.2 895.7962 56.18393 0 0 0 
1251.505 893.5628 55.31993 0 0 0 
1219.761 901.0028 55.31992 0 0 0 
1245.581 1015.739 -25.06257 0 0 0 
1285.581 1006.364 -25.06257 0 0 0 
1263.258 923.0532 45.56243 0 0 0 
1263.258 923.0532 45.56243 0 0 0 
1223.258 932.4282 45.56242 0 0 0 
1246.335 1000.176 -28.75208 0 0 0 
1292.585 1019.401 -20.80807 0 0 0 
1275.174 951.0517 34.37593 0 0 0 
1274.87 953.2851 35.23993 0 0 0 
1227.254 964.4451 35.23993 0 0 0 
1247.376 985.3434 -31.78358 0 0 0 
1298.56 1030.464 -16.08157 0 0 0 
1286.128 978.1687 23.42543 0 0 0 
1285.595 982.0772 24.93743 0 0 0 
1231.387 994.7822 24.93742 0 0 0 
1248.853 972.7123 -34.06408 0 0 0 
1302.974 1038.173 -10.97607 0 0 0 
1295.298 1002.781 13.51193 0 0 0 
1294.688 1007.248 15.23993 0 0 0 
1235.296 1021.168 15.23992 0 0 0 
1250.911 963.7544 -35.50057 0 0 0 
1305.298 1041.145 -5.584569 0 0 0 
1301.862 1023.266 5.43643 0 0 0 
1301.405 1026.616 6.73243 0 0 0 
1238.621 1041.331 6.732425 0 0 0 
1241 1053 -7.509616e-05 0 0 0 
1253.957 960.9075 -36.00007 0 0 0 
1218.24 827.6096 76.99992 0 0 0 
1218.24 827.6096 76.99992 0 0 0 
1218.24 827.6096 76.99992 0 0 0 
1242.521 1055.883 -5.584575 0 0 0 
1258.139 963.1269 -35.50057 0 0 0 
1222.634 835.677 76.64842 0 0 0 
1223.1 832.3617 75.35242 0 0 0 
1216.124 833.8877 75.35242 0 0 0 
1243.609 1052.177 -10.97608 0 0 0 
1263.933 970.2659 -34.06407 0 0 0 
1230.165 850.9859 72.52792 0 0 0 
1230.787 846.5654 70.79993 0 0 0 
1215.939 849.8134 70.79993 0 0 0 
1244.408 1043.346 -16.08157 0 0 0 
1270.811 980.9454 -31.78357 0 0 0 
1240.015 871.9099 65.43942 0 0 0 
1240.559 868.042 63.92743 0 0 0 
1217.327 873.124 63.92743 0 0 0 
1245.06 1030.853 -20.80807 0 0 0 
1278.246 993.7864 -28.75207 0 0 0 
1251.362 896.8229 56.18393 0 0 0 
1251.673 894.6127 55.31993 0 0 0 
1219.929 901.5567 55.31992 0 0 0 
1245.711 1016.16 -25.06257 0 0 0 
1285.711 1007.41 -25.06257 0 0 0 
1263.387 924.0987 45.56243 0 0 0 
1263.387 924.0987 45.56243 0 0 0 
1223.387 932.8487 45.56242 0 0 0 
1246.502 1000.73 -28.75208 0 0 0 
1292.676 1020.437 -20.80807 0 0 0 
1275.272 952.1109 34.37593 0 0 0 
1274.961 954.3211 35.23993 0 0 0 
1227.345 964.7371 35.23993 0 0 0 
1247.579 986.0274 -31.78358 0 0 0 
1298.616 1031.488 -16.08157 0 0 0 
1286.195 979.2334 23.42543 0 0 0 
1285.651 983.1013 24.93743 0 0 0 
1231.443 994.9593 24.93742 0 0 0 
1249.085 973.5139 -34.06408 0 0 0 
1303.001 1039.185 -10.97607 0 0 0 
1295.337 1003.84 13.51193 0 0 0 
1294.715 1008.26 15.23993 0 0 0 
1235.323 1021.252 15.23992 0 0 0 
1251.163 964.6529 -35.50057 0 0 0 
1305.305 1042.149 -5.584569 0 0 0 
1301.879 1024.304 5.43643 0 0 0 
1301.412 1027.62 6.73243 0 0 0 
1238.628 1041.354 6.732425 0 0 0 
1241 1054 -7.509616e-05 0 0 0 
1254.216 961.8733 -36.00007 0 0 0 
1218.498 828.5756 76.99992 0 0 0 
1218.498 828.5756 76.99992 0 0 0 
1218.498 828.5756 76.99992 0 0 0 
1242.529 1056.882 -5.584575 0 0 0 
1258.39 964.0937 -35.50057 0 0 0 
1222.876 836.6452 76.64842 0 0 0 
1223.352 833.3286 75.35242 0 0 0 
1216.376 834.8546 75.35242 0 0 0 
1243.636 1053.174 -10.97608 0 0 0 
1264.165 971.2352 -34.06407 0 0 0 
1230.385 851.9571 72.52792 0 0 0 
1231.019 847.535 70.79993 0 0 0 
1216.171 850.783 70.79993 0 0 0 
1244.464 1044.339 -16.08157 0 0 0 
1271.014 981.9185 -31.78357 0 0 0 
1240.207 872.8847 65.43942 0 0 0 
1240.762 869.0154 63.92743 0 0 0 
1217.53 874.0974 63.92743 0 0 0 
1245.151 1031.841 -20.80807 0 0 0 
1278.414 994.7642 -28.75207 0 0 0 
1251.523 897.8017 56.18393 0 0 0 
1251.841 895.5907 55.31993 0 0 0 
1220.096 902.5347 55.31992 0 0 0 
1245.84 1017.143 -25.06257 0 0 0 
1285.84 1008.393 -25.06257 0 0 0 
1263.517 925.0817 45.56243 0 0 0 
1263.517 925.0817 45.56243 0 0 0 
1223.517 933.8317 45.56242 0 0 0 
1246.67 1001.708 -28.75208 0 0 0 
1292.768 1021.425 -20.80807 0 0 0 
1275.369 953.0981 34.37593 0 0 0 
1275.052 955.3092 35.23993 0 0 0 
1227.436 965.7252 35.23993 0 0 0 
1247.782 987.0005 -31.78358 0 0 0 
1298.672 1032.481 -16.08157 0 0 0 
1286.261 980.2246 23.42543 0 0 0 
1285.706 984.0939 24.93743 0 0 0 
1231.498 995.9519 24.93742 0 0 0 
1249.317 974.4832 -34.06407 0 0 0 
1303.028 1040.182 -10.97607 0 0 0 
1295.376 1004.835 13.51193 0 0 0 
1294.742 1009.257 15.23993 0 0 0 
1235.35 1022.249 15.23992 0 0 0 
1251.414 965.6197 -35.50057 0 0 0 
1305.313 1043.148 -5.584569 0 0 0 
1301.895 1025.302 5.43643 0 0 0 
1301.419 1028.619 6.73243 0 0 0 
1238.635 1042.353 6.732425 0 0 0 
1241 1054 -7.509616e-05 0 0 0 
1254.474 962.8392 -36.00007 0 0 0 
1218.757 829.5415 76.99992 0 0 0 
1218.757 829.5415 76.99992 0 0 0 
1218.757 829.5415 76.99992 0 0 0 
1242.536 1056.909 -5.584575 0 0 0 
1258.642 965.0325 -35.50057 0 0 0 
1223.118 837.5493 76.64842 0 0 0 
1223.603 834.2675 75.35242 0 0 0 
1216.627 835.7935 75.35242 0 0 0 
1243.663 1053.274 -10.97607 0 0 0 
1264.396 972.1007 -34.06407 0 0 0 
1230.604 852.7761 72.52792 0 0 0 
1231.251 848.4004 70.79993 0 0 0 
1216.403 851.6484 70.79993 0 0 0 
1244.52 1044.548 -16.08157 0 0 0 
1271.217 982.6758 -31.78357 0 0 0 
1240.399 873.6014 65.43942 0 0 0 
1240.965 869.7727 63.92743 0 0 0 
1217.733 874.8547 63.92743 0 0 0 
1245.243 1032.181 -20.80807 0 0 0 
1278.582 995.3901 -28.75207 0 0 0 
1251.685 898.4045 56.18393 0 0 0 
1252.008 896.2166 55.31993 0 0 0 
1220.264 903.1606 55.31992 0 0 0 
1245.969 1017.626 -25.06257 0 0 0 
1285.969 1008.876 -25.06257 0 0 0 
1263.646 925.5646 45.56243 0 0 0 
1263.646 925.5646 45.56243 0 0 0 
1223.646 934.3146 45.56242 0 0 0 
1246.838 1002.334 -28.75208 0 0 0 
1292.859 1021.765 -20.80807 0 0 0 
1275.466 953.4613 34.37593 0 0 0 
1275.143 955.6492 35.23993 0 0 0 
1227.527 966.0652 35.23993 0 0 0 
1247.985 987.7578 -31.78358 0 0 0 
1298.728 1032.69 -16.08157 0 0 0 
1286.328 980.4738 23.42543 0 0 0 
1285.762 984.3026 24.93743 0 0 0 
1231.554 996.1606 24.93742 0 0 0 
1249.548 975.3487 -34.06407 0 0 0 
1303.055 1040.282 -10.97607 0 0 0 
1295.416 1004.982 13.51193 0 0 0 
1294.769 1009.357 15.23993 0 0 0 
1235.377 1022.349 15.23992 0 0 0 
1251.666 966.5585 -35.50057 0 0 0 
1305.32 1043.175 -5.584569 0 0 0 
1301.912 1025.364 5.43643 0 0 0 
1301.427 1028.646 6.73243 0 0 0 
1238.643 1042.38 6.732425 0 0 0 
1241 1055 -7.509616e-05 0 0 0 
1254.733 963.8052 -36.00007 0 0 0 
1219.016 830.5074 76.99992 0 0 0 
1219.016 830.5074 76.99992 0 0 0 
1219.016 830.5074 76.99992 0 0 0 
1242.543 1057.908 -5.584575 0 0 0 
1258.893 965.9995 -35.50057 0 0 0 
1223.36 838.5174 76.64842 0 0 0 
1223.855 835.2344 75.35242 0 0 0 
1216.879 836.7604 75.35242 0 0 0 
1243.69 1054.271 -10.97607 0 0 0 
1264.628 973.0702 -34.06407 0 0 0 
1230.824 853.7472 72.52792 0 0 0 
1231.483 849.3699 70.79993 0 0 0 
1216.635 852.6179 70.79993 0 0 0 
1244.575 1045.54 -16.08157 0 0 0 
1271.42 983.6492 -31.78357 0 0 0 
1240.591 874.5761 65.43942 0 0 0 
1241.167 870.7459 63.92743 0 0 0 
1217.936 875.8279 63.92743 0 0 0 
1245.334 1033.169 -20.80807 0 0 0 
1278.75 996.3681 -28.75207 0 0 0 
1251.846 899.3832 56.18393 0 0 0 
1252.176 897.1945 55.31993 0 0 0 
1220.432 904.1385 55.31992 0 0 0 
1246.099 1018.609 -25.06257 0 0 0 
1286.099 1009.859 -25.06257 0 0 0 
1263.776 926.5476 45.56243 0 0 0 
1263.776 926.5476 45.56243 0 0 0 
1223.776 935.2976 45.56242 0 0 0 
1247.005 1003.312 -28.75208 0 0 0 
1292.95 1022.753 -20.80807 0 0 0 
1275.564 954.4485 34.37593 0 0 0 
1275.234 956.6372 35.23993 0 0 0 
1227.618 967.0532 35.23993 0 0 0 
1248.188 988.7312 -31.78358 0 0 0 
1298.783 1033.682 -16.08157 0 0 0 
1286.395 981.465 23.42543 0 0 0 
1285.818 985.2952 24.93743 0 0 0 
1231.61 997.1532 24.93742 0 0 0 
1249.78 976.3182 -34.06407 0 0 0 
1303.082 1041.279 -10.97607 0 0 0 
1295.455 1005.976 13.51193 0 0 0 
1294.796 1010.354 15.23993 0 0 0 
1235.404 1023.346 15.23992 0 0 0 
1251.917 967.5255 -35.50057 0 0 0 
1305.327 1044.174 -5.584569 0 0 0 
1301.928 1026.362 5.43643 0 0 0 
1301.434 1029.645 6.73243 0 0 0 
1238.65 1043.379 6.732425 0 0 0 
1240 1048 -7.518359e-05 0 0 0 
1254.992 964.7711 -36.00007 0 0 0 
1219.016 830.5074 76.99992 0 0 0 
1219.016 830.5074 76.99992 0 0 0 
1219.016 830.5074 76.99992 0 0 0 
1241.584 1051.134 -5.584575 0 0 0 
1259.187 967.2947 -35.50057 0 0 0 
1223.354 838.5782 76.64842 0 0 0 
1223.894 835.582 75.35242 0 0 0 
1216.809 836.236 75.35242 0 0 0 
1242.822 1048.033 -10.97608 0 0 0 
1264.928 974.5671 -34.06407 0 0 0 
1230.823 853.9654 72.52792 0 0 0 
1231.543 849.9704 70.79993 0 0 0 
1216.463 851.3624 70.79993 0 0 0 
1243.835 1040.08 -16.08157 0 0 0 
1271.704 985.2408 -31.78357 0 0 0 
1240.603 875.0151 65.43942 0 0 0 
1241.233 871.5195 63.92743 0 0 0 
1217.638 873.6975 63.92743 0 0 0 
1244.747 1028.658 -20.80807 0 0 0 
1279.002 997.9683 -28.75207 0 0 0 
1251.876 900.0736 56.18393 0 0 0 
1252.236 898.0761 55.31993 0 0 0 
1219.996 901.0521 55.31992 0 0 0 
1245.682 1015.152 -25.06257 0 0 0 
1286.307 1011.402 -25.06257 0 0 0 
1263.822 927.4872 45.56243 0 0 0 
1263.822 927.4872 45.56243 0 0 0 
1223.197 931.2372 45.56242 0 0 0 
1246.762 1000.944 -28.75208 0 0 0 
1293.107 1024.194 -20.80807 0 0 0 
1275.623 955.6021 34.37593 0 0 0 
1275.263 957.5996 35.23993 0 0 0 
1226.903 962.0636 35.23993 0 0 0 
1248.109 987.4188 -31.78358 0 0 0 
1298.89 1034.998 -16.08157 0 0 0 
1286.46 982.7646 23.42543 0 0 0 
1285.831 986.2602 24.93743 0 0 0 
1230.776 991.3422 24.93742 0 0 0 
1249.848 975.9591 -34.06407 0 0 0 
1303.142 1042.465 -10.97607 0 0 0 
1295.515 1007.321 13.51193 0 0 0 
1294.795 1011.316 15.23993 0 0 0 
1234.475 1016.884 15.23992 0 0 0 
1252.102 967.9487 -35.50057 0 0 0 
1305.349 1045.248 -5.584569 0 0 0 
1301.968 1027.617 5.43643 0 0 0 
1301.428 1030.614 6.73243 0 0 0 
1237.663 1036.5 6.732425 0 0 0 
1240 1048 -7.518359e-05 0 0 0 
1255.251 965.7371 -36.00007 0 0 0 
1219.275 831.4733 76.99992 0 0 0 
1219.275 831.4733 76.99992 0 0 0 
1219.275 831.4733 76.99992 0 0 0 
1241.592 1051.161 -5.584575 0 0 0 
1259.438 968.2336 -35.50057 0 0 0 
1223.597 839.4823 76.64842 0 0 0 
1224.146 836.5209 75.35242 0 0 0 
1217.061 837.1749 75.35242 0 0 0 
1242.849 1048.134 -10.97608 0 0 0 
1265.16 975.4327 -34.06407 0 0 0 
1231.043 854.7845 72.52792 0 0 0 
1231.775 850.8359 70.79993 0 0 0 
1216.695 852.2279 70.79993 0 0 0 
1243.891 1040.289 -16.08157 0 0 0 
1271.907 985.9982 -31.78357 0 0 0 
1240.795 875.7318 65.43942 0 0 0 
1241.436 872.2768 63.92743 0 0 0 
1217.841 874.4548 63.92743 0 0 0 
1244.839 1028.999 -20.80807 0 0 0 
1279.169 998.5943 -28.75207 0 0 0 
1252.037 900.6763 56.18393 0 0 0 
1252.403 898.702 55.31993 0 0 0 
1220.163 901.678 55.31992 0 0 0 
1245.811 1015.635 -25.06257 0 0 0 
1286.436 1011.885 -25.06257 0 0 0 
1263.951 927.9702 45.56243 0 0 0 
1263.951 927.9702 45.56243 0 0 0 
1223.326 931.7202 45.56242 0 0 0 
1246.929 1001.57 -28.75208 0 0 0 
1293.198 1024.535 -20.80807 0 0 0 
1275.72 955.9653 34.37593 0 0 0 
1275.354 957.9396 35.23993 0 0 0 
1226.995 962.4036 35.23993 0 0 0 
1248.312 988.1762 -31.78358 0 0 0 
1298.946 1035.207 -16.08157 0 0 0 
1286.527 983.0138 23.42543 0 0 0 
1285.887 986.4688 24.93743 0 0 0 
1230.832 991.5508 24.93742 0 0 0 
1250.08 976.8247 -34.06407 0 0 0 
1303.168 1042.566 -10.97607 0 0 0 
1295.554 1007.468 13.51193 0 0 0 
1294.822 1011.416 15.23993 0 0 0 
1234.502 1016.984 15.23992 0 0 0 
1252.353 968.8876 -35.50057 0 0 0 
1305.356 1045.275 -5.584569 0 0 0 
1301.984 1027.679 5.43643 0 0 0 
1301.435 1030.641 6.73243 0 0 0 
1237.67 1036.527 6.732425 0 0 0 
1240 1049 -7.518359e-05 0 0 0 
1255.51 966.7029 -36.00007 0 0 0 
1219.534 832.4393 76.99992 0 0 0 
1219.534 832.4393 76.99992 0 0 0 
1219.534 832.4393 76.99992 0 0 0 
1241.599 1052.16 -5.584575 0 0 0 
1259.69 969.2004 -35.50057 0 0 0 
1223.839 840.4505 76.64842 0 0 0 
1224.397 837.4878 75.35242 0 0 0 
1217.312 838.1418 75.35242 0 0 0 
1242.875 1049.13 -10.97608 0 0 0 
1265.392 976.402 -34.06407 0 0 0 
1231.262 855.7557 72.52792 0 0 0 
1232.007 851.8054 70.79993 0 0 0 
1216.927 853.1974 70.79993 0 0 0 
1243.947 1041.281 -16.08157 0 0 0 
1272.11 986.9714 -31.78357 0 0 0 
1240.987 876.7066 65.43942 0 0 0 
1241.639 873.2501 63.92743 0 0 0 
1218.044 875.4281 63.92743 0 0 0 
1244.93 1029.986 -20.80807 0 0 0 
1279.337 999.5721 -28.75207 0 0 0 
1252.199 901.6551 56.18393 0 0 0 
1252.571 899.68 55.31993 0 0 0 
1220.331 902.656 55.31992 0 0 0 
1245.941 1016.618 -25.06257 0 0 0 
1286.566 1012.868 -25.06257 0 0 0 
1264.081 928.9532 45.56243 0 0 0 
1264.081 928.9532 45.56243 0 0 0 
1223.456 932.7032 45.56242 0 0 0 
1247.097 1002.548 -28.75208 0 0 0 
1293.29 1025.522 -20.80807 0 0 0 
1275.818 956.9525 34.37593 0 0 0 
1275.446 958.9277 35.23993 0 0 0 
1227.086 963.3917 35.23993 0 0 0 
1248.515 989.1494 -31.78358 0 0 0 
1299.002 1036.199 -16.08157 0 0 0 
1286.594 984.005 23.42543 0 0 0 
1285.943 987.4615 24.93743 0 0 0 
1230.888 992.5435 24.93742 0 0 0 
1250.312 977.794 -34.06407 0 0 0 
1303.196 1043.562 -10.97607 0 0 0 
1295.594 1008.463 13.51193 0 0 0 
1294.849 1012.413 15.23993 0 0 0 
1234.529 1017.981 15.23992 0 0 0 
1252.605 969.8544 -35.50057 0 0 0 
1305.364 1046.274 -5.584569 0 0 0 
1302.001 1028.677 5.43643 0 0 0 
1301.442 1031.64 6.73243 0 0 0 
1237.677 1037.526 6.732425 0 0 0 
1240 1049 -7.518359e-05 0 0 0 
1255.768 967.6689 -36.00007 0 0 0 
1219.792 833.4052 76.99992 0 0 0 
1219.792 833.4052 76.99992 0 0 0 
1219.792 833.4052 76.99992 0 0 0 
1241.606 1052.183 -5.584575 0 0 0 
1259.941 970.2079 -35.50057 0 0 0 
1224.081 841.4231 76.64842 0 0 0 
1224.649 838.4952 75.35242 0 0 0 
1217.564 839.0402 75.35242 0 0 0 
1242.902 1049.214 -10.97608 0 0 0 
1265.624 977.4356 -34.06407 0 0 0 
1231.482 856.7427 72.52792 0 0 0 
1232.239 852.8388 70.79993 0 0 0 
1217.158 853.9988 70.79993 0 0 0 
1244.003 1041.458 -16.08157 0 0 0 
1272.313 988.0182 -31.78357 0 0 0 
1241.179 877.7128 65.43942 0 0 0 
1241.842 874.2969 63.92743 0 0 0 
1218.247 876.1119 63.92743 0 0 0 
1245.021 1030.278 -20.80807 0 0 0 
1279.505 1000.622 -28.75207 0 0 0 
1252.36 902.6819 56.18393 0 0 0 
1252.739 900.7299 55.31993 0 0 0 
1220.499 903.2099 55.31992 0 0 0 
1246.07 1017.038 -25.06257 0 0 0 
1286.695 1013.913 -25.06257 0 0 0 
1264.21 929.9986 45.56243 0 0 0 
1264.21 929.9986 45.56243 0 0 0 
1223.585 933.1236 45.56242 0 0 0 
1247.265 1003.102 -28.75208 0 0 0 
1293.381 1026.558 -20.80807 0 0 0 
1275.915 958.0117 34.37593 0 0 0 
1275.537 959.9636 35.23993 0 0 0 
1227.177 963.6836 35.23993 0 0 0 
1248.718 989.8332 -31.78358 0 0 0 
1299.058 1037.223 -16.08157 0 0 0 
1286.661 985.0697 23.42543 0 0 0 
1285.999 988.4856 24.93743 0 0 0 
1230.943 992.7206 24.93742 0 0 0 
1250.544 978.5956 -34.06407 0 0 0 
1303.222 1044.574 -10.97607 0 0 0 
1295.633 1009.521 13.51193 0 0 0 
1294.876 1013.425 15.23993 0 0 0 
1234.556 1018.065 15.23992 0 0 0 
1252.856 970.7529 -35.50057 0 0 0 
1305.371 1047.278 -5.584569 0 0 0 
1302.017 1029.715 5.43643 0 0 0 
1301.45 1032.643 6.73243 0 0 0 
1237.685 1037.548 6.732425 0 0 0 
1240 1050 -7.518359e-05 0 0 0 
1256.027 968.6348 -36.00007 0 0 0 
1220.051 834.3711 76.99992 0 0 0 
1220.051 834.3711 76.99992 0 0 0 
1220.051 834.3711 76.99992 0 0 0 
1241.613 1053.187 -5.584575 0 0 0 
1260.193 971.1062 -35.50057 0 0 0 
1224.324 842.3227 76.64842 0 0 0 
1224.901 839.3935 75.35242 0 0 0 
1217.816 840.0475 75.35242 0 0 0 
1242.929 1050.227 -10.97608 0 0 0 
1265.856 978.237 -34.06407 0 0 0 
1231.701 857.5458 72.52792 0 0 0 
1232.47 853.6403 70.79993 0 0 0 
1217.39 855.0323 70.79993 0 0 0 
1244.059 1042.483 -16.08157 0 0 0 
1272.516 988.702 -31.78357 0 0 0 
1241.371 878.398 65.43942 0 0 0 
1242.045 874.9806 63.92743 0 0 0 
1218.45 877.1586 63.92743 0 0 0 
1245.112 1031.314 -20.80807 0 0 0 
1279.672 1001.176 -28.75207 0 0 0 
1252.522 903.2366 56.18393 0 0 0 
1252.906 901.2838 55.31993 0 0 0 
1220.667 904.2598 55.31992 0 0 0 
1246.2 1018.084 -25.06257 0 0 0 
1286.825 1014.334 -25.06257 0 0 0 
1264.34 930.4191 45.56243 0 0 0 
1264.34 930.4191 45.56243 0 0 0 
1223.715 934.1691 45.56242 0 0 0 
1247.432 1004.152 -28.75208 0 0 0 
1293.472 1026.85 -20.80807 0 0 0 
1276.012 958.3029 34.37593 0 0 0 
1275.628 960.2556 35.23993 0 0 0 
1227.268 964.7196 35.23993 0 0 0 
1248.921 990.88 -31.78358 0 0 0 
1299.114 1037.401 -16.08157 0 0 0 
1286.728 985.2454 23.42543 0 0 0 
1286.054 988.6628 24.93743 0 0 0 
1230.999 993.7448 24.93742 0 0 0 
1250.776 979.629 -34.06407 0 0 0 
1303.249 1044.659 -10.97607 0 0 0 
1295.672 1009.604 13.51193 0 0 0 
1294.903 1013.51 15.23993 0 0 0 
1234.583 1019.078 15.23992 0 0 0 
1253.108 971.7602 -35.50057 0 0 0 
1305.378 1047.301 -5.584569 0 0 0 
1302.034 1029.737 5.43643 0 0 0 
1301.457 1032.666 6.73243 0 0 0 
1237.692 1038.552 6.732425 0 0 0 
1240 1050 -7.518359e-05 0 0 0 
1256.286 969.6007 -36.00007 0 0 0 
