ply
format ascii 1.0
comment VCGLIB generated
element vertex 1598
property float x
property float y
property float z
property float nx
property float ny
property float nz
element face 0
property list uchar int vertex_indices
end_header
1019.562 449.9225 -42.3885 0 0 0 
1069.293 391.1165 -42.3885 0 0 0 
1104.248 330.48 47.128 0 0 0 
1013.24 441.392 73.992 0 0 0 
1015.376 451.28 -40.824 0 0 0 
1013.24 454.04 -38.352 0 0 0 
1081.192 373.688 -38.352 0 0 0 
1093.062 345.3125 60.9375 0 0 0 
1007.438 446.5625 60.9375 0 0 0 
1007.438 457.1875 -33.4375 0 0 0 
1007.438 457.1875 -33.4375 0 0 0 
1093.062 355.9375 -33.4375 0 0 0 
1081.192 361.04 73.992 0 0 0 
1002.32 451.008 47.128 0 0 0 
1000.184 462.2 -25.296 0 0 0 
1002.32 459.44 -27.768 0 0 0 
1104.248 338.912 -27.768 0 0 0 
1069.293 376.7175 85.5085 0 0 0 
998.0525 454.7015 33.3465 0 0 0 
994.3145 465.7025 -17.1405 0 0 0 
998.0525 460.8725 -21.4665 0 0 0 
1114.092 323.6585 -21.4665 0 0 0 
1058.024 391.4 94.704 0 0 0 
994.8 457.616 20.376 0 0 0 
990.528 467.08 -9.712 0 0 0 
994.8 461.56 -14.656 0 0 0 
1121.936 311.224 -14.656 0 0 0 
1048.041 404.1425 100.7955 0 0 0 
992.7275 459.7245 8.9995 0 0 0 
989.5235 465.7175 -3.7515 0 0 0 
992.7275 461.5775 -7.4595 0 0 0 
1127.125 302.6555 -7.4595 0 0 0 
1129 299 0 0 0 0 
1040 415 103 0 0 0 
1040 432 -48 0 0 0 
1040 432 -48 0 0 0 
1040 432 -48 0 0 0 
1127.125 300.8305 8.9995 0 0 0 
1033.108 422.7725 100.7955 0 0 0 
1036.312 435.2735 -51.0435 0 0 0 
1033.108 439.4495 -47.3355 0 0 0 
1048.041 421.7915 -47.3355 0 0 0 
1121.936 307.384 20.376 0 0 0 
1026.24 429.88 94.704 0 0 0 
1030.512 440.088 -50.368 0 0 0 
1026.24 445.656 -45.424 0 0 0 
1058.024 408.072 -45.424 0 0 0 
1114.092 317.7035 33.3465 0 0 0 
1019.562 436.3075 85.5085 0 0 0 
1023.3 445.8345 -46.7145 0 0 0 
1019.562 450.7065 -42.3885 0 0 0 
1069.293 391.9005 -42.3885 0 0 0 
1104.248 330.832 47.128 0 0 0 
1013.24 442.04 73.992 0 0 0 
1015.376 451.904 -40.824 0 0 0 
1013.24 454.688 -38.352 0 0 0 
1081.192 374.336 -38.352 0 0 0 
1093.062 345.8125 60.9375 0 0 0 
1007.438 447.0625 60.9375 0 0 0 
1007.438 457.6875 -33.4375 0 0 0 
1007.438 457.6875 -33.4375 0 0 0 
1093.062 356.4375 -33.4375 0 0 0 
1081.192 361.688 73.992 0 0 0 
1002.32 451.36 47.128 0 0 0 
1000.184 462.576 -25.296 0 0 0 
1002.32 459.792 -27.768 0 0 0 
1104.248 339.264 -27.768 0 0 0 
1069.293 377.5015 85.5085 0 0 0 
998.0525 454.9175 33.3465 0 0 0 
994.3145 465.9605 -17.1405 0 0 0 
998.0525 461.0885 -21.4665 0 0 0 
1114.092 323.8745 -21.4665 0 0 0 
1058.024 392.296 94.704 0 0 0 
994.8 457.72 20.376 0 0 0 
990.528 467.232 -9.712 0 0 0 
994.8 461.664 -14.656 0 0 0 
1121.936 311.328 -14.656 0 0 0 
1048.041 405.1145 100.7955 0 0 0 
992.7275 459.7525 8.9995 0 0 0 
989.5235 465.7815 -3.7515 0 0 0 
992.7275 461.6055 -7.4595 0 0 0 
1127.125 302.6835 -7.4595 0 0 0 
1129 349 0 0 0 0 
1040 416 103 0 0 0 
1040 433 -48 0 0 0 
1040 433 -48 0 0 0 
1040 433 -48 0 0 0 
1127.125 349.679 8.9995 0 0 0 
1033.108 421.788 100.7955 0 0 0 
1036.312 436.053 -51.0435 0 0 0 
1033.108 438.465 -47.3355 0 0 0 
1048.041 426.148 -47.3355 0 0 0 
1121.936 353.072 20.376 0 0 0 
1026.24 427.744 94.704 0 0 0 
1030.512 440.304 -50.368 0 0 0 
1026.24 443.52 -45.424 0 0 0 
1058.024 417.304 -45.424 0 0 0 
1114.092 358.663 33.3465 0 0 0 
1019.562 433.706 85.5085 0 0 0 
1023.3 445.291 -46.7145 0 0 0 
1019.562 448.105 -42.3885 0 0 0 
1069.293 407.086 -42.3885 0 0 0 
1104.248 365.936 47.128 0 0 0 
1013.24 439.512 73.992 0 0 0 
1015.376 450.552 -40.824 0 0 0 
1013.24 452.16 -38.352 0 0 0 
1081.192 396.112 -38.352 0 0 0 
1093.062 374.375 60.9375 0 0 0 
1007.438 445 60.9375 0 0 0 
1007.438 455.625 -33.4375 0 0 0 
1007.438 455.625 -33.4375 0 0 0 
1093.062 385 -33.4375 0 0 0 
1081.192 383.464 73.992 0 0 0 
1002.32 450.008 47.128 0 0 0 
1000.184 460.048 -25.296 0 0 0 
1002.32 458.44 -27.768 0 0 0 
1104.248 374.368 -27.768 0 0 0 
1069.293 392.687 85.5085 0 0 0 
998.0525 454.374 33.3465 0 0 0 
994.3145 463.359 -17.1405 0 0 0 
998.0525 460.545 -21.4665 0 0 0 
1114.092 364.834 -21.4665 0 0 0 
1058.024 401.528 94.704 0 0 0 
994.8 457.936 20.376 0 0 0 
990.528 465.096 -9.712 0 0 0 
994.8 461.88 -14.656 0 0 0 
1121.936 357.016 -14.656 0 0 0 
1048.041 409.471 100.7955 0 0 0 
992.7275 460.532 8.9995 0 0 0 
989.5235 464.797 -3.7515 0 0 0 
992.7275 462.385 -7.4595 0 0 0 
1127.125 351.532 -7.4595 0 0 0 
1129 350 0 0 0 0 
1040 330 104 0 0 0 
1040 434 -48 0 0 0 
1040 434 -48 0 0 0 
1040 434 -48 0 0 0 
1127.125 344.7195 9.068 0 0 0 
1033.108 337.8325 101.772 0 0 0 
1036.312 440.5765 -51.084 0 0 0 
1033.108 439.8565 -47.34 0 0 0 
1048.041 427.5395 -47.34 0 0 0 
1121.936 339.456 20.544 0 0 0 
1026.24 349.4 95.616 0 0 0 
1030.512 446.872 -50.432 0 0 0 
1026.24 445.912 -45.44 0 0 0 
1058.024 419.696 -45.44 0 0 0 
1114.092 334.4765 33.636 0 0 0 
1019.562 363.7575 86.324 0 0 0 
1023.3 452.6855 -46.788 0 0 0 
1019.562 451.8455 -42.42 0 0 0 
1069.293 410.8265 -42.42 0 0 0 
1104.248 330.048 47.552 0 0 0 
1013.24 379.96 74.688 0 0 0 
1015.376 457.816 -40.896 0 0 0 
1013.24 457.336 -38.4 0 0 0 
1081.192 401.288 -38.4 0 0 0 
1093.062 326.4375 61.5 0 0 0 
1007.438 397.0625 61.5 0 0 0 
1007.438 462.0625 -33.5 0 0 0 
1007.438 462.0625 -33.5 0 0 0 
1093.062 391.4375 -33.5 0 0 0 
1081.192 323.912 74.688 0 0 0 
1002.32 414.12 47.552 0 0 0 
1000.184 465.224 -25.344 0 0 0 
1002.32 465.704 -27.84 0 0 0 
1104.248 381.632 -27.84 0 0 0 
1069.293 322.7385 86.324 0 0 0 
998.0525 430.1875 33.636 0 0 0 
994.3145 467.0995 -17.172 0 0 0 
998.0525 467.9395 -21.54 0 0 0 
1114.092 372.2285 -21.54 0 0 0 
1058.024 323.184 95.616 0 0 0 
994.8 444.32 20.544 0 0 0 
990.528 467.488 -9.728 0 0 0 
994.8 468.448 -14.72 0 0 0 
1121.936 363.584 -14.72 0 0 0 
1048.041 325.5155 101.772 0 0 0 
992.7275 455.5725 9.068 0 0 0 
989.5235 466.1885 -3.756 0 0 0 
992.7275 466.9085 -7.5 0 0 0 
1127.125 356.0555 -7.5 0 0 0 
1129 351 0 0 0 0 
1040 331 104 0 0 0 
1040 435 -48 0 0 0 
1040 435 -48 0 0 0 
1040 435 -48 0 0 0 
1127.125 345.7195 9.068 0 0 0 
1033.108 338.8325 101.772 0 0 0 
1036.312 441.5765 -51.084 0 0 0 
1033.108 440.8565 -47.34 0 0 0 
1048.041 428.5395 -47.34 0 0 0 
1121.936 340.456 20.544 0 0 0 
1026.24 350.4 95.616 0 0 0 
1030.512 447.872 -50.432 0 0 0 
1026.24 446.912 -45.44 0 0 0 
1058.024 420.696 -45.44 0 0 0 
1114.092 335.4765 33.636 0 0 0 
1019.562 364.7575 86.324 0 0 0 
1023.3 453.6855 -46.788 0 0 0 
1019.562 452.8455 -42.42 0 0 0 
1069.293 411.8265 -42.42 0 0 0 
1104.248 331.048 47.552 0 0 0 
1013.24 380.96 74.688 0 0 0 
1015.376 458.816 -40.896 0 0 0 
1013.24 458.336 -38.4 0 0 0 
1081.192 402.288 -38.4 0 0 0 
1093.062 327.4375 61.5 0 0 0 
1007.438 398.0625 61.5 0 0 0 
1007.438 463.0625 -33.5 0 0 0 
1007.438 463.0625 -33.5 0 0 0 
1093.062 392.4375 -33.5 0 0 0 
1081.192 324.912 74.688 0 0 0 
1002.32 415.12 47.552 0 0 0 
1000.184 466.224 -25.344 0 0 0 
1002.32 466.704 -27.84 0 0 0 
1104.248 382.632 -27.84 0 0 0 
1069.293 323.7385 86.324 0 0 0 
998.0525 431.1875 33.636 0 0 0 
994.3145 468.0995 -17.172 0 0 0 
998.0525 468.9395 -21.54 0 0 0 
1114.092 373.2285 -21.54 0 0 0 
1058.024 324.184 95.616 0 0 0 
994.8 445.32 20.544 0 0 0 
990.528 468.488 -9.728 0 0 0 
994.8 469.448 -14.72 0 0 0 
1121.936 364.584 -14.72 0 0 0 
1048.041 326.5155 101.772 0 0 0 
992.7275 456.5725 9.068 0 0 0 
989.5235 467.1885 -3.756 0 0 0 
992.7275 467.9085 -7.5 0 0 0 
1127.125 357.0555 -7.5 0 0 0 
1129 352 0 0 0 0 
1040 332 104 0 0 0 
1040 436 -48 0 0 0 
1040 436 -48 0 0 0 
1040 436 -48 0 0 0 
1127.125 346.724 9.068 0 0 0 
1033.108 339.764 101.772 0 0 0 
1036.312 442.508 -51.084 0 0 0 
1033.108 441.788 -47.34 0 0 0 
1048.041 429.58 -47.34 0 0 0 
1121.936 341.472 20.544 0 0 0 
1026.24 351.232 95.616 0 0 0 
1030.512 448.704 -50.432 0 0 0 
1026.24 447.744 -45.44 0 0 0 
1058.024 421.76 -45.44 0 0 0 
1114.092 336.508 33.636 0 0 0 
1019.562 365.468 86.324 0 0 0 
1023.3 454.396 -46.788 0 0 0 
1019.562 453.556 -42.42 0 0 0 
1069.293 412.9 -42.42 0 0 0 
1104.248 332.096 47.552 0 0 0 
1013.24 381.536 74.688 0 0 0 
1015.376 459.392 -40.896 0 0 0 
1013.24 458.912 -38.4 0 0 0 
1081.192 403.36 -38.4 0 0 0 
1093.062 328.5 61.5 0 0 0 
1007.438 398.5 61.5 0 0 0 
1007.438 463.5 -33.5 0 0 0 
1007.438 463.5 -33.5 0 0 0 
1093.062 393.5 -33.5 0 0 0 
1081.192 325.984 74.688 0 0 0 
1002.32 415.424 47.552 0 0 0 
1000.184 466.528 -25.344 0 0 0 
1002.32 467.008 -27.84 0 0 0 
1104.248 383.68 -27.84 0 0 0 
1069.293 324.812 86.324 0 0 0 
998.0525 431.372 33.636 0 0 0 
994.3145 468.284 -17.172 0 0 0 
998.0525 469.124 -21.54 0 0 0 
1114.092 374.26 -21.54 0 0 0 
1058.024 325.248 95.616 0 0 0 
994.8 445.408 20.544 0 0 0 
990.528 468.576 -9.728 0 0 0 
994.8 469.536 -14.72 0 0 0 
1121.936 365.6 -14.72 0 0 0 
1048.041 327.556 101.772 0 0 0 
992.7275 456.596 9.068 0 0 0 
989.5235 467.212 -3.756 0 0 0 
992.7275 467.932 -7.5 0 0 0 
1127.125 358.06 -7.5 0 0 0 
1129 352 0 0 0 0 
1040 333 104 0 0 0 
1040 437 -48 0 0 0 
1040 437 -48 0 0 0 
1040 437 -48 0 0 0 
1127.125 346.7475 9.068 0 0 0 
1033.108 340.8045 101.772 0 0 0 
1036.312 443.5125 -51.084 0 0 0 
1033.108 442.8285 -47.34 0 0 0 
1048.041 430.5115 -47.34 0 0 0 
1121.936 341.56 20.544 0 0 0 
1026.24 352.296 95.616 0 0 0 
1030.512 449.72 -50.432 0 0 0 
1026.24 448.808 -45.44 0 0 0 
1058.024 422.592 -45.44 0 0 0 
1114.092 336.6925 33.636 0 0 0 
1019.562 366.5415 86.324 0 0 0 
1023.3 455.4275 -46.788 0 0 0 
1019.562 454.6295 -42.42 0 0 0 
1069.293 413.6105 -42.42 0 0 0 
1104.248 332.4 47.552 0 0 0 
1013.24 382.608 74.688 0 0 0 
1015.376 460.44 -40.896 0 0 0 
1013.24 459.984 -38.4 0 0 0 
1081.192 403.936 -38.4 0 0 0 
1093.062 328.9375 61.5 0 0 0 
1007.438 399.5625 61.5 0 0 0 
1007.438 464.5625 -33.5 0 0 0 
1007.438 464.5625 -33.5 0 0 0 
1093.062 393.9375 -33.5 0 0 0 
1081.192 326.56 74.688 0 0 0 
1002.32 416.472 47.552 0 0 0 
1000.184 467.6 -25.344 0 0 0 
1002.32 468.056 -27.84 0 0 0 
1104.248 383.984 -27.84 0 0 0 
1069.293 325.5225 86.324 0 0 0 
998.0525 432.4035 33.636 0 0 0 
994.3145 469.3575 -17.172 0 0 0 
998.0525 470.1555 -21.54 0 0 0 
1114.092 374.4445 -21.54 0 0 0 
1058.024 326.08 95.616 0 0 0 
994.8 446.424 20.544 0 0 0 
990.528 469.64 -9.728 0 0 0 
994.8 470.552 -14.72 0 0 0 
1121.936 365.688 -14.72 0 0 0 
1048.041 328.4875 101.772 0 0 0 
992.7275 457.6005 9.068 0 0 0 
989.5235 468.2525 -3.756 0 0 0 
992.7275 468.9365 -7.5 0 0 0 
1127.125 358.0835 -7.5 0 0 0 
1129 353 0 0 0 0 
1040 334 104 0 0 0 
1040 438 -48 0 0 0 
1040 438 -48 0 0 0 
1040 438 -48 0 0 0 
1127.125 347.7475 9.068 0 0 0 
1033.108 341.8045 101.772 0 0 0 
1036.312 444.5125 -51.084 0 0 0 
1033.108 443.8285 -47.34 0 0 0 
1048.041 431.5115 -47.34 0 0 0 
1121.936 342.56 20.544 0 0 0 
1026.24 353.296 95.616 0 0 0 
1030.512 450.72 -50.432 0 0 0 
1026.24 449.808 -45.44 0 0 0 
1058.024 423.592 -45.44 0 0 0 
1114.092 337.6925 33.636 0 0 0 
1019.562 367.5415 86.324 0 0 0 
1023.3 456.4275 -46.788 0 0 0 
1019.562 455.6295 -42.42 0 0 0 
1069.293 414.6105 -42.42 0 0 0 
1104.248 333.4 47.552 0 0 0 
1013.24 383.608 74.688 0 0 0 
1015.376 461.44 -40.896 0 0 0 
1013.24 460.984 -38.4 0 0 0 
1081.192 404.936 -38.4 0 0 0 
1093.062 329.9375 61.5 0 0 0 
1007.438 400.5625 61.5 0 0 0 
1007.438 465.5625 -33.5 0 0 0 
1007.438 465.5625 -33.5 0 0 0 
1093.062 394.9375 -33.5 0 0 0 
1081.192 327.56 74.688 0 0 0 
1002.32 417.472 47.552 0 0 0 
1000.184 468.6 -25.344 0 0 0 
1002.32 469.056 -27.84 0 0 0 
1104.248 384.984 -27.84 0 0 0 
1069.293 326.5225 86.324 0 0 0 
998.0525 433.4035 33.636 0 0 0 
994.3145 470.3575 -17.172 0 0 0 
998.0525 471.1555 -21.54 0 0 0 
1114.092 375.4445 -21.54 0 0 0 
1058.024 327.08 95.616 0 0 0 
994.8 447.424 20.544 0 0 0 
990.528 470.64 -9.728 0 0 0 
994.8 471.552 -14.72 0 0 0 
1121.936 366.688 -14.72 0 0 0 
1048.041 329.4875 101.772 0 0 0 
992.7275 458.6005 9.068 0 0 0 
989.5235 469.2525 -3.756 0 0 0 
992.7275 469.9365 -7.5 0 0 0 
1127.125 359.0835 -7.5 0 0 0 
1129 354 0 0 0 0 
1040 335 104 0 0 0 
1040 439 -48 0 0 0 
1040 439 -48 0 0 0 
1040 439 -48 0 0 0 
1127.125 348.7475 9.068 0 0 0 
1033.108 342.8045 101.772 0 0 0 
1036.312 445.5125 -51.084 0 0 0 
1033.108 444.8285 -47.34 0 0 0 
1048.041 432.5115 -47.34 0 0 0 
1121.936 343.56 20.544 0 0 0 
1026.24 354.296 95.616 0 0 0 
1030.512 451.72 -50.432 0 0 0 
1026.24 450.808 -45.44 0 0 0 
1058.024 424.592 -45.44 0 0 0 
1114.092 338.6925 33.636 0 0 0 
1019.562 368.5415 86.324 0 0 0 
1023.3 457.4275 -46.788 0 0 0 
1019.562 456.6295 -42.42 0 0 0 
1069.293 415.6105 -42.42 0 0 0 
1104.248 334.4 47.552 0 0 0 
1013.24 384.608 74.688 0 0 0 
1015.376 462.44 -40.896 0 0 0 
1013.24 461.984 -38.4 0 0 0 
1081.192 405.936 -38.4 0 0 0 
1093.062 330.9375 61.5 0 0 0 
1007.438 401.5625 61.5 0 0 0 
1007.438 466.5625 -33.5 0 0 0 
1007.438 466.5625 -33.5 0 0 0 
1093.062 395.9375 -33.5 0 0 0 
1081.192 328.56 74.688 0 0 0 
1002.32 418.472 47.552 0 0 0 
1000.184 469.6 -25.344 0 0 0 
1002.32 470.056 -27.84 0 0 0 
1104.248 385.984 -27.84 0 0 0 
1069.293 327.5225 86.324 0 0 0 
998.0525 434.4035 33.636 0 0 0 
994.3145 471.3575 -17.172 0 0 0 
998.0525 472.1555 -21.54 0 0 0 
1114.092 376.4445 -21.54 0 0 0 
1058.024 328.08 95.616 0 0 0 
994.8 448.424 20.544 0 0 0 
990.528 471.64 -9.728 0 0 0 
994.8 472.552 -14.72 0 0 0 
1121.936 367.688 -14.72 0 0 0 
1048.041 330.4875 101.772 0 0 0 
992.7275 459.6005 9.068 0 0 0 
989.5235 470.2525 -3.756 0 0 0 
992.7275 470.9365 -7.5 0 0 0 
1127.125 360.0835 -7.5 0 0 0 
1129 355 0 0 0 0 
1040 336 104 0 0 0 
1040 440 -48 0 0 0 
1040 440 -48 0 0 0 
1040 440 -48 0 0 0 
1127.125 349.752 9.068 0 0 0 
1033.108 343.736 101.772 0 0 0 
1036.312 446.444 -51.084 0 0 0 
1033.108 445.76 -47.34 0 0 0 
1048.041 433.552 -47.34 0 0 0 
1121.936 344.576 20.544 0 0 0 
1026.24 355.128 95.616 0 0 0 
1030.512 452.552 -50.432 0 0 0 
1026.24 451.64 -45.44 0 0 0 
1058.024 425.656 -45.44 0 0 0 
1114.092 339.724 33.636 0 0 0 
1019.562 369.252 86.324 0 0 0 
1023.3 458.138 -46.788 0 0 0 
1019.562 457.34 -42.42 0 0 0 
1069.293 416.684 -42.42 0 0 0 
1104.248 335.448 47.552 0 0 0 
1013.24 385.184 74.688 0 0 0 
1015.376 463.016 -40.896 0 0 0 
1013.24 462.56 -38.4 0 0 0 
1081.192 407.008 -38.4 0 0 0 
1093.062 332 61.5 0 0 0 
1007.438 402 61.5 0 0 0 
1007.438 467 -33.5 0 0 0 
1007.438 467 -33.5 0 0 0 
1093.062 397 -33.5 0 0 0 
1081.192 329.632 74.688 0 0 0 
1002.32 418.776 47.552 0 0 0 
1000.184 469.904 -25.344 0 0 0 
1002.32 470.36 -27.84 0 0 0 
1104.248 387.032 -27.84 0 0 0 
1069.293 328.596 86.324 0 0 0 
998.0525 434.588 33.636 0 0 0 
994.3145 471.542 -17.172 0 0 0 
998.0525 472.34 -21.54 0 0 0 
1114.092 377.476 -21.54 0 0 0 
1058.024 329.144 95.616 0 0 0 
994.8 448.512 20.544 0 0 0 
990.528 471.728 -9.728 0 0 0 
994.8 472.64 -14.72 0 0 0 
1121.936 368.704 -14.72 0 0 0 
1048.041 331.528 101.772 0 0 0 
992.7275 459.624 9.068 0 0 0 
989.5235 470.276 -3.756 0 0 0 
992.7275 470.96 -7.5 0 0 0 
1127.125 361.088 -7.5 0 0 0 
1129 355 0 0 0 0 
1040 337 104 0 0 0 
1040 441 -48 0 0 0 
1040 441 -48 0 0 0 
1040 441 -48 0 0 0 
1127.125 349.7755 9.068 0 0 0 
1033.108 344.7765 101.772 0 0 0 
1036.312 447.4485 -51.084 0 0 0 
1033.108 446.8005 -47.34 0 0 0 
1048.041 434.4835 -47.34 0 0 0 
1121.936 344.664 20.544 0 0 0 
1026.24 356.192 95.616 0 0 0 
1030.512 453.568 -50.432 0 0 0 
1026.24 452.704 -45.44 0 0 0 
1058.024 426.488 -45.44 0 0 0 
1114.092 339.9085 33.636 0 0 0 
1019.562 370.3255 86.324 0 0 0 
1023.3 459.1695 -46.788 0 0 0 
1019.562 458.4135 -42.42 0 0 0 
1069.293 417.3945 -42.42 0 0 0 
1104.248 335.752 47.552 0 0 0 
1013.24 386.256 74.688 0 0 0 
1015.376 464.064 -40.896 0 0 0 
1013.24 463.632 -38.4 0 0 0 
1081.192 407.584 -38.4 0 0 0 
1093.062 332.4375 61.5 0 0 0 
1007.438 403.0625 61.5 0 0 0 
1007.438 468.0625 -33.5 0 0 0 
1007.438 468.0625 -33.5 0 0 0 
1093.062 397.4375 -33.5 0 0 0 
1081.192 330.208 74.688 0 0 0 
1002.32 419.824 47.552 0 0 0 
1000.184 470.976 -25.344 0 0 0 
1002.32 471.408 -27.84 0 0 0 
1104.248 387.336 -27.84 0 0 0 
1069.293 329.3065 86.324 0 0 0 
998.0525 435.6195 33.636 0 0 0 
994.3145 472.6155 -17.172 0 0 0 
998.0525 473.3715 -21.54 0 0 0 
1114.092 377.6605 -21.54 0 0 0 
1058.024 329.976 95.616 0 0 0 
994.8 449.528 20.544 0 0 0 
990.528 472.792 -9.728 0 0 0 
994.8 473.656 -14.72 0 0 0 
1121.936 368.792 -14.72 0 0 0 
1048.041 332.4595 101.772 0 0 0 
992.7275 460.6285 9.068 0 0 0 
989.5235 471.3165 -3.756 0 0 0 
992.7275 471.9645 -7.5 0 0 0 
1127.125 361.1115 -7.5 0 0 0 
1130 291 0 0 0 0 
1040 338 104 0 0 0 
1040 442 -48 0 0 0 
1040 442 -48 0 0 0 
1040 442 -48 0 0 0 
1128.101 287.303 9.068 0 0 0 
1033.067 348.409 101.772 0 0 0 
1036.307 448.741 -51.084 0 0 0 
1033.067 450.433 -47.34 0 0 0 
1048.109 431.031 -47.34 0 0 0 
1122.848 286.384 20.544 0 0 0 
1026.176 361.352 95.616 0 0 0 
1030.496 455.608 -50.432 0 0 0 
1026.176 457.864 -45.44 0 0 0 
1058.192 416.568 -45.44 0 0 0 
1114.907 287.901 33.636 0 0 0 
1019.489 376.103 86.324 0 0 0 
1023.269 462.217 -46.788 0 0 0 
1019.489 464.191 -42.42 0 0 0 
1069.583 399.577 -42.42 0 0 0 
1104.944 291.512 47.552 0 0 0 
1013.168 391.936 74.688 0 0 0 
1015.328 468.184 -40.896 0 0 0 
1013.168 469.312 -38.4 0 0 0 
1081.616 381.024 -38.4 0 0 0 
1093.625 296.875 61.5 0 0 0 
1007.375 408.125 61.5 0 0 0 
1007.375 473.125 -33.5 0 0 0 
1007.375 473.125 -33.5 0 0 0 
1093.625 361.875 -33.5 0 0 0 
1081.616 303.648 74.688 0 0 0 
1002.272 423.944 47.552 0 0 0 
1000.112 476.656 -25.344 0 0 0 
1002.272 475.528 -27.84 0 0 0 
1104.944 343.096 -27.84 0 0 0 
1069.583 311.489 86.324 0 0 0 
998.021 438.667 33.636 0 0 0 
994.241 478.393 -17.172 0 0 0 
998.021 476.419 -21.54 0 0 0 
1114.907 325.653 -21.54 0 0 0 
1058.192 320.056 95.616 0 0 0 
994.784 451.568 20.544 0 0 0 
990.464 477.952 -9.728 0 0 0 
994.784 475.696 -14.72 0 0 0 
1122.848 310.512 -14.72 0 0 0 
1048.109 329.007 101.772 0 0 0 
992.723 461.921 9.068 0 0 0 
989.483 474.949 -3.756 0 0 0 
992.723 473.257 -7.5 0 0 0 
1128.101 298.639 -7.5 0 0 0 
1130 292 0 0 0 0 
1040 339 104 0 0 0 
1040 443 -48 0 0 0 
1040 443 -48 0 0 0 
1040 443 -48 0 0 0 
1128.101 288.303 9.068 0 0 0 
1033.067 349.409 101.772 0 0 0 
1036.307 449.741 -51.084 0 0 0 
1033.067 451.433 -47.34 0 0 0 
1048.109 432.031 -47.34 0 0 0 
1122.848 287.384 20.544 0 0 0 
1026.176 362.352 95.616 0 0 0 
1030.496 456.608 -50.432 0 0 0 
1026.176 458.864 -45.44 0 0 0 
1058.192 417.568 -45.44 0 0 0 
1114.907 288.901 33.636 0 0 0 
1019.489 377.103 86.324 0 0 0 
1023.269 463.217 -46.788 0 0 0 
1019.489 465.191 -42.42 0 0 0 
1069.583 400.577 -42.42 0 0 0 
1104.944 292.512 47.552 0 0 0 
1013.168 392.936 74.688 0 0 0 
1015.328 469.184 -40.896 0 0 0 
1013.168 470.312 -38.4 0 0 0 
1081.616 382.024 -38.4 0 0 0 
1093.625 297.875 61.5 0 0 0 
1007.375 409.125 61.5 0 0 0 
1007.375 474.125 -33.5 0 0 0 
1007.375 474.125 -33.5 0 0 0 
1093.625 362.875 -33.5 0 0 0 
1081.616 304.648 74.688 0 0 0 
1002.272 424.944 47.552 0 0 0 
1000.112 477.656 -25.344 0 0 0 
1002.272 476.528 -27.84 0 0 0 
1104.944 344.096 -27.84 0 0 0 
1069.583 312.489 86.324 0 0 0 
998.021 439.667 33.636 0 0 0 
994.241 479.393 -17.172 0 0 0 
998.021 477.419 -21.54 0 0 0 
1114.907 326.653 -21.54 0 0 0 
1058.192 321.056 95.616 0 0 0 
994.784 452.568 20.544 0 0 0 
990.464 478.952 -9.728 0 0 0 
994.784 476.696 -14.72 0 0 0 
1122.848 311.512 -14.72 0 0 0 
1048.109 330.007 101.772 0 0 0 
992.723 462.921 9.068 0 0 0 
989.483 475.949 -3.756 0 0 0 
992.723 474.257 -7.5 0 0 0 
1128.101 299.639 -7.5 0 0 0 
1130 293 0 0 0 0 
1040 350 104 0 0 0 
1040 444 -48 0 0 0 
1040 444 -48 0 0 0 
1040 444 -48 0 0 0 
1128.101 289.9925 9.068 0 0 0 
1033.067 360.1055 101.772 0 0 0 
1036.307 450.2675 -51.084 0 0 0 
1033.067 452.3195 -47.34 0 0 0 
1048.109 433.0265 -47.34 0 0 0 
1122.848 290.08 20.544 0 0 0 
1026.176 372.304 95.616 0 0 0 
1030.496 456.8 -50.432 0 0 0 
1026.176 459.536 -45.44 0 0 0 
1058.192 418.472 -45.44 0 0 0 
1114.907 292.8275 33.636 0 0 0 
1019.489 385.9685 86.324 0 0 0 
1023.269 463.1925 -46.788 0 0 0 
1019.489 465.5865 -42.42 0 0 0 
1069.583 401.3355 -42.42 0 0 0 
1104.944 297.8 47.552 0 0 0 
1013.168 400.472 74.688 0 0 0 
1015.328 469.04 -40.896 0 0 0 
1013.168 470.408 -38.4 0 0 0 
1081.616 382.616 -38.4 0 0 0 
1093.625 304.5625 61.5 0 0 0 
1007.375 415.1875 61.5 0 0 0 
1007.375 473.9375 -33.5 0 0 0 
1007.375 473.9375 -33.5 0 0 0 
1093.625 363.3125 -33.5 0 0 0 
1081.616 312.68 74.688 0 0 0 
1002.272 429.488 47.552 0 0 0 
1000.112 477.48 -25.344 0 0 0 
1002.272 476.112 -27.84 0 0 0 
1104.944 344.424 -27.84 0 0 0 
1069.583 321.7175 86.324 0 0 0 
998.021 442.7465 33.636 0 0 0 
994.241 479.2625 -17.172 0 0 0 
998.021 476.8685 -21.54 0 0 0 
1114.907 326.9495 -21.54 0 0 0 
1058.192 331.24 95.616 0 0 0 
994.784 454.336 20.544 0 0 0 
990.464 478.88 -9.728 0 0 0 
994.784 476.144 -14.72 0 0 0 
1122.848 311.888 -14.72 0 0 0 
1048.109 340.8125 101.772 0 0 0 
992.723 463.6295 9.068 0 0 0 
989.483 475.9275 -3.756 0 0 0 
992.723 473.8755 -7.5 0 0 0 
1128.101 300.2385 -7.5 0 0 0 
1130 294 0 0 0 0 
1040 351 104 0 0 0 
1040 445 -48 0 0 0 
1040 445 -48 0 0 0 
1040 445 -48 0 0 0 
1128.097 291.96 9.068 0 0 0 
1033.135 346.378 101.772 0 0 0 
1036.375 436.54 -51.084 0 0 0 
1033.135 438.592 -47.34 0 0 0 
1048.068 442.734 -47.34 0 0 0 
1122.832 294.52 20.544 0 0 0 
1026.344 337.184 95.616 0 0 0 
1030.664 421.68 -50.432 0 0 0 
1026.344 424.416 -45.44 0 0 0 
1058.128 433.232 -45.44 0 0 0 
1114.875 300.6 33.636 0 0 0 
1019.779 324.726 86.324 0 0 0 
1023.558 401.95 -46.788 0 0 0 
1019.779 404.344 -42.42 0 0 0 
1069.51 418.138 -42.42 0 0 0 
1104.896 309.12 47.552 0 0 0 
1013.592 310.312 74.688 0 0 0 
1015.752 378.88 -40.896 0 0 0 
1013.592 380.248 -38.4 0 0 0 
1081.544 399.096 -38.4 0 0 0 
1093.562 319 61.5 0 0 0 
1007.938 295.25 61.5 0 0 0 
1007.938 354 -33.5 0 0 0 
1007.938 354 -33.5 0 0 0 
1093.562 377.75 -33.5 0 0 0 
1081.544 329.16 74.688 0 0 0 
1002.968 280.848 47.552 0 0 0 
1000.808 328.84 -25.344 0 0 0 
1002.968 327.472 -27.84 0 0 0 
1104.896 355.744 -27.84 0 0 0 
1069.51 338.52 86.324 0 0 0 
998.8365 268.414 33.636 0 0 0 
995.0565 304.93 -17.172 0 0 0 
998.8365 302.536 -21.54 0 0 0 
1114.875 334.722 -21.54 0 0 0 
1058.128 346 95.616 0 0 0 
995.696 259.256 20.544 0 0 0 
991.376 283.8 -9.728 0 0 0 
995.696 281.064 -14.72 0 0 0 
1122.832 316.328 -14.72 0 0 0 
1048.068 350.52 101.772 0 0 0 
993.6995 254.682 9.068 0 0 0 
990.4595 266.98 -3.756 0 0 0 
993.6995 264.928 -7.5 0 0 0 
1128.097 302.206 -7.5 0 0 0 
1130 294 0 0 0 0 
1040 352 104 0 0 0 
1040 446 -48 0 0 0 
1040 446 -48 0 0 0 
1040 446 -48 0 0 0 
1128.097 291.9835 9.068 0 0 0 
1033.135 347.4185 101.772 0 0 0 
1036.375 437.5445 -51.084 0 0 0 
1033.135 439.6325 -47.34 0 0 0 
1048.068 443.6655 -47.34 0 0 0 
1122.832 294.608 20.544 0 0 0 
1026.344 338.248 95.616 0 0 0 
1030.664 422.696 -50.432 0 0 0 
1026.344 425.48 -45.44 0 0 0 
1058.128 434.064 -45.44 0 0 0 
1114.875 300.7845 33.636 0 0 0 
1019.779 325.7995 86.324 0 0 0 
1023.558 402.9815 -46.788 0 0 0 
1019.779 405.4175 -42.42 0 0 0 
1069.51 418.8485 -42.42 0 0 0 
1104.896 309.424 47.552 0 0 0 
1013.592 311.384 74.688 0 0 0 
1015.752 379.928 -40.896 0 0 0 
1013.592 381.32 -38.4 0 0 0 
1081.544 399.672 -38.4 0 0 0 
1093.562 319.4375 61.5 0 0 0 
1007.938 296.3125 61.5 0 0 0 
1007.938 355.0625 -33.5 0 0 0 
1007.938 355.0625 -33.5 0 0 0 
1093.562 378.1875 -33.5 0 0 0 
1081.544 329.736 74.688 0 0 0 
1002.968 281.896 47.552 0 0 0 
1000.808 329.912 -25.344 0 0 0 
1002.968 328.52 -27.84 0 0 0 
1104.896 356.048 -27.84 0 0 0 
1069.51 339.2305 86.324 0 0 0 
998.8365 269.4455 33.636 0 0 0 
995.0565 306.0035 -17.172 0 0 0 
998.8365 303.5675 -21.54 0 0 0 
1114.875 334.9065 -21.54 0 0 0 
1058.128 346.832 95.616 0 0 0 
995.696 260.272 20.544 0 0 0 
991.376 284.864 -9.728 0 0 0 
995.696 282.08 -14.72 0 0 0 
1122.832 316.416 -14.72 0 0 0 
1048.068 351.4515 101.772 0 0 0 
993.6995 255.6865 9.068 0 0 0 
990.4595 268.0205 -3.756 0 0 0 
993.6995 265.9325 -7.5 0 0 0 
1128.097 302.2295 -7.5 0 0 0 
1130 295 0 0 0 0 
1040 353 104 0 0 0 
1040 447 -48 0 0 0 
1040 447 -48 0 0 0 
1040 447 -48 0 0 0 
1128.097 292.9835 9.068 0 0 0 
1033.135 348.4185 101.772 0 0 0 
1036.375 438.5445 -51.084 0 0 0 
1033.135 440.6325 -47.34 0 0 0 
1048.068 444.6655 -47.34 0 0 0 
1122.832 295.608 20.544 0 0 0 
1026.344 339.248 95.616 0 0 0 
1030.664 423.696 -50.432 0 0 0 
1026.344 426.48 -45.44 0 0 0 
1058.128 435.064 -45.44 0 0 0 
1114.875 301.7845 33.636 0 0 0 
1019.779 326.7995 86.324 0 0 0 
1023.558 403.9815 -46.788 0 0 0 
1019.779 406.4175 -42.42 0 0 0 
1069.51 419.8485 -42.42 0 0 0 
1104.896 310.424 47.552 0 0 0 
1013.592 312.384 74.688 0 0 0 
1015.752 380.928 -40.896 0 0 0 
1013.592 382.32 -38.4 0 0 0 
1081.544 400.672 -38.4 0 0 0 
1093.562 320.4375 61.5 0 0 0 
1007.938 297.3125 61.5 0 0 0 
1007.938 356.0625 -33.5 0 0 0 
1007.938 356.0625 -33.5 0 0 0 
1093.562 379.1875 -33.5 0 0 0 
1081.544 330.736 74.688 0 0 0 
1002.968 282.896 47.552 0 0 0 
1000.808 330.912 -25.344 0 0 0 
1002.968 329.52 -27.84 0 0 0 
1104.896 357.048 -27.84 0 0 0 
1069.51 340.2305 86.324 0 0 0 
998.8365 270.4455 33.636 0 0 0 
995.0565 307.0035 -17.172 0 0 0 
998.8365 304.5675 -21.54 0 0 0 
1114.875 335.9065 -21.54 0 0 0 
1058.128 347.832 95.616 0 0 0 
995.696 261.272 20.544 0 0 0 
991.376 285.864 -9.728 0 0 0 
995.696 283.08 -14.72 0 0 0 
1122.832 317.416 -14.72 0 0 0 
1048.068 352.4515 101.772 0 0 0 
993.6995 256.6865 9.068 0 0 0 
990.4595 269.0205 -3.756 0 0 0 
993.6995 266.9325 -7.5 0 0 0 
1128.097 303.2295 -7.5 0 0 0 
1130 296 0 0 0 0 
1040 354 104 0 0 0 
1040 448 -48 0 0 0 
1040 448 -48 0 0 0 
1040 448 -48 0 0 0 
1128.097 293.988 9.068 0 0 0 
1033.135 349.35 101.772 0 0 0 
1036.375 439.476 -51.084 0 0 0 
1033.135 441.564 -47.34 0 0 0 
1048.068 445.706 -47.34 0 0 0 
1122.832 296.624 20.544 0 0 0 
1026.344 340.08 95.616 0 0 0 
1030.664 424.528 -50.432 0 0 0 
1026.344 427.312 -45.44 0 0 0 
1058.128 436.128 -45.44 0 0 0 
1114.875 302.816 33.636 0 0 0 
1019.779 327.51 86.324 0 0 0 
1023.558 404.692 -46.788 0 0 0 
1019.779 407.128 -42.42 0 0 0 
1069.51 420.922 -42.42 0 0 0 
1104.896 311.472 47.552 0 0 0 
1013.592 312.96 74.688 0 0 0 
1015.752 381.504 -40.896 0 0 0 
1013.592 382.896 -38.4 0 0 0 
1081.544 401.744 -38.4 0 0 0 
1093.562 321.5 61.5 0 0 0 
1007.938 297.75 61.5 0 0 0 
1007.938 356.5 -33.5 0 0 0 
1007.938 356.5 -33.5 0 0 0 
1093.562 380.25 -33.5 0 0 0 
1081.544 331.808 74.688 0 0 0 
1002.968 283.2 47.552 0 0 0 
1000.808 331.216 -25.344 0 0 0 
1002.968 329.824 -27.84 0 0 0 
1104.896 358.096 -27.84 0 0 0 
1069.51 341.304 86.324 0 0 0 
998.8365 270.63 33.636 0 0 0 
995.0565 307.188 -17.172 0 0 0 
998.8365 304.752 -21.54 0 0 0 
1114.875 336.938 -21.54 0 0 0 
1058.128 348.896 95.616 0 0 0 
995.696 261.36 20.544 0 0 0 
991.376 285.952 -9.728 0 0 0 
995.696 283.168 -14.72 0 0 0 
1122.832 318.432 -14.72 0 0 0 
1048.068 353.492 101.772 0 0 0 
993.6995 256.71 9.068 0 0 0 
990.4595 269.044 -3.756 0 0 0 
993.6995 266.956 -7.5 0 0 0 
1128.097 304.234 -7.5 0 0 0 
1130 297 0 0 0 0 
1040 355 104 0 0 0 
1040 449 -48 0 0 0 
1040 449 -48 0 0 0 
1040 449 -48 0 0 0 
1128.097 294.151 9.068 0 0 0 
1033.135 363.091 101.772 0 0 0 
1036.375 453.217 -51.084 0 0 0 
1033.135 455.305 -47.34 0 0 0 
1048.068 439.173 -47.34 0 0 0 
1122.832 294.648 20.544 0 0 0 
1026.344 372.328 95.616 0 0 0 
1030.664 456.776 -50.432 0 0 0 
1026.344 459.56 -45.44 0 0 0 
1058.128 425.224 -45.44 0 0 0 
1114.875 297.957 33.636 0 0 0 
1019.779 382.357 86.324 0 0 0 
1023.558 459.539 -46.788 0 0 0 
1019.779 461.975 -42.42 0 0 0 
1069.51 408.251 -42.42 0 0 0 
1104.896 303.544 47.552 0 0 0 
1013.592 392.824 74.688 0 0 0 
1015.752 461.368 -40.896 0 0 0 
1013.592 462.76 -38.4 0 0 0 
1081.544 389.352 -38.4 0 0 0 
1093.562 310.875 61.5 0 0 0 
1007.938 403.375 61.5 0 0 0 
1007.938 462.125 -33.5 0 0 0 
1007.938 462.125 -33.5 0 0 0 
1093.562 369.625 -33.5 0 0 0 
1081.544 319.416 74.688 0 0 0 
1002.968 413.656 47.552 0 0 0 
1000.808 461.672 -25.344 0 0 0 
1002.968 460.28 -27.84 0 0 0 
1104.896 350.168 -27.84 0 0 0 
1069.51 328.633 86.324 0 0 0 
998.8365 423.313 33.636 0 0 0 
995.0565 459.871 -17.172 0 0 0 
998.8365 457.435 -21.54 0 0 0 
1114.875 332.079 -21.54 0 0 0 
1058.128 337.992 95.616 0 0 0 
995.696 431.992 20.544 0 0 0 
991.376 456.584 -9.728 0 0 0 
995.696 453.8 -14.72 0 0 0 
1122.832 316.456 -14.72 0 0 0 
1048.068 346.959 101.772 0 0 0 
993.6995 439.339 9.068 0 0 0 
990.4595 451.673 -3.756 0 0 0 
993.6995 449.585 -7.5 0 0 0 
1128.097 304.397 -7.5 0 0 0 
1130 297 0 0 0 0 
1040 356 104 0 0 0 
1040 450 -48 0 0 0 
1040 450 -48 0 0 0 
1040 450 -48 0 0 0 
1128.097 294.1745 9.068 0 0 0 
1033.135 364.1315 101.772 0 0 0 
1036.375 454.2215 -51.084 0 0 0 
1033.135 456.3455 -47.34 0 0 0 
1048.068 440.1045 -47.34 0 0 0 
1122.832 294.736 20.544 0 0 0 
1026.344 373.392 95.616 0 0 0 
1030.664 457.792 -50.432 0 0 0 
1026.344 460.624 -45.44 0 0 0 
1058.128 426.056 -45.44 0 0 0 
1114.875 298.1415 33.636 0 0 0 
1019.779 383.4305 86.324 0 0 0 
1023.558 460.5705 -46.788 0 0 0 
1019.779 463.0485 -42.42 0 0 0 
1069.51 408.9615 -42.42 0 0 0 
1104.896 303.848 47.552 0 0 0 
1013.592 393.896 74.688 0 0 0 
1015.752 462.416 -40.896 0 0 0 
1013.592 463.832 -38.4 0 0 0 
1081.544 389.928 -38.4 0 0 0 
1093.562 311.3125 61.5 0 0 0 
1007.938 404.4375 61.5 0 0 0 
1007.938 463.1875 -33.5 0 0 0 
1007.938 463.1875 -33.5 0 0 0 
1093.562 370.0625 -33.5 0 0 0 
1081.544 319.992 74.688 0 0 0 
1002.968 414.704 47.552 0 0 0 
1000.808 462.744 -25.344 0 0 0 
1002.968 461.328 -27.84 0 0 0 
1104.896 350.472 -27.84 0 0 0 
1069.51 329.3435 86.324 0 0 0 
998.8365 424.3445 33.636 0 0 0 
995.0565 460.9445 -17.172 0 0 0 
998.8365 458.4665 -21.54 0 0 0 
1114.875 332.2635 -21.54 0 0 0 
1058.128 338.824 95.616 0 0 0 
995.696 433.008 20.544 0 0 0 
991.376 457.648 -9.728 0 0 0 
995.696 454.816 -14.72 0 0 0 
1122.832 316.544 -14.72 0 0 0 
1048.068 347.8905 101.772 0 0 0 
993.6995 440.3435 9.068 0 0 0 
990.4595 452.7135 -3.756 0 0 0 
993.6995 450.5895 -7.5 0 0 0 
1128.097 304.4205 -7.5 0 0 0 
1130 298 0 0 0 0 
1040 357 104 0 0 0 
1040 451 -48 0 0 0 
1040 451 -48 0 0 0 
1040 451 -48 0 0 0 
1128.092 296.034 9.068 0 0 0 
1033.204 352.048 101.772 0 0 0 
1036.444 442.138 -51.084 0 0 0 
1033.204 444.262 -47.34 0 0 0 
1048.028 448.84 -47.34 0 0 0 
1122.816 298.792 20.544 0 0 0 
1026.512 342.304 95.616 0 0 0 
1030.832 426.704 -50.432 0 0 0 
1026.512 429.536 -45.44 0 0 0 
1058.064 439.28 -45.44 0 0 0 
1114.844 305.158 33.636 0 0 0 
1020.068 329.136 86.324 0 0 0 
1023.848 406.276 -46.788 0 0 0 
1020.068 408.754 -42.42 0 0 0 
1069.436 424 -42.42 0 0 0 
1104.848 314.016 47.552 0 0 0 
1014.016 313.912 74.688 0 0 0 
1016.176 382.432 -40.896 0 0 0 
1014.016 383.848 -38.4 0 0 0 
1081.472 404.68 -38.4 0 0 0 
1093.5 324.25 61.5 0 0 0 
1008.5 298 61.5 0 0 0 
1008.5 356.75 -33.5 0 0 0 
1008.5 356.75 -33.5 0 0 0 
1093.5 383 -33.5 0 0 0 
1081.472 334.744 74.688 0 0 0 
1003.664 282.768 47.552 0 0 0 
1001.504 330.808 -25.344 0 0 0 
1003.664 329.392 -27.84 0 0 0 
1104.848 360.64 -27.84 0 0 0 
1069.436 344.382 86.324 0 0 0 
999.652 269.584 33.636 0 0 0 
995.872 306.184 -17.172 0 0 0 
999.652 303.706 -21.54 0 0 0 
1114.844 339.28 -21.54 0 0 0 
1058.064 352.048 95.616 0 0 0 
996.608 259.816 20.544 0 0 0 
992.288 284.456 -9.728 0 0 0 
996.608 281.624 -14.72 0 0 0 
1122.816 320.6 -14.72 0 0 0 
1048.028 356.626 101.772 0 0 0 
994.676 254.832 9.068 0 0 0 
991.436 267.202 -3.756 0 0 0 
994.676 265.078 -7.5 0 0 0 
1128.092 306.28 -7.5 0 0 0 
1130 299 0 0 0 0 
1040 358 104 0 0 0 
1040 452 -48 0 0 0 
1040 452 -48 0 0 0 
1040 452 -48 0 0 0 
1128.092 297.0385 9.068 0 0 0 
1033.204 352.9795 101.772 0 0 0 
1036.444 443.0695 -51.084 0 0 0 
1033.204 445.1935 -47.34 0 0 0 
1048.028 449.8805 -47.34 0 0 0 
1122.816 299.808 20.544 0 0 0 
1026.512 343.136 95.616 0 0 0 
1030.832 427.536 -50.432 0 0 0 
1026.512 430.368 -45.44 0 0 0 
1058.064 440.344 -45.44 0 0 0 
1114.844 306.1895 33.636 0 0 0 
1020.068 329.8465 86.324 0 0 0 
1023.848 406.9865 -46.788 0 0 0 
1020.068 409.4645 -42.42 0 0 0 
1069.436 425.0735 -42.42 0 0 0 
1104.848 315.064 47.552 0 0 0 
1014.016 314.488 74.688 0 0 0 
1016.176 383.008 -40.896 0 0 0 
1014.016 384.424 -38.4 0 0 0 
1081.472 405.752 -38.4 0 0 0 
1093.5 325.3125 61.5 0 0 0 
1008.5 298.4375 61.5 0 0 0 
1008.5 357.1875 -33.5 0 0 0 
1008.5 357.1875 -33.5 0 0 0 
1093.5 384.0625 -33.5 0 0 0 
1081.472 335.816 74.688 0 0 0 
1003.664 283.072 47.552 0 0 0 
1001.504 331.112 -25.344 0 0 0 
1003.664 329.696 -27.84 0 0 0 
1104.848 361.688 -27.84 0 0 0 
1069.436 345.4555 86.324 0 0 0 
999.652 269.7685 33.636 0 0 0 
995.872 306.3685 -17.172 0 0 0 
999.652 303.8905 -21.54 0 0 0 
1114.844 340.3115 -21.54 0 0 0 
1058.064 353.112 95.616 0 0 0 
996.608 259.904 20.544 0 0 0 
992.288 284.544 -9.728 0 0 0 
996.608 281.712 -14.72 0 0 0 
1122.816 321.616 -14.72 0 0 0 
1048.028 357.6665 101.772 0 0 0 
994.676 254.8555 9.068 0 0 0 
991.436 267.2255 -3.756 0 0 0 
994.676 265.1015 -7.5 0 0 0 
1128.092 307.2845 -7.5 0 0 0 
1130 300 0 0 0 0 
1040 359 104 0 0 0 
1040 254 -47 0 0 0 
1040 254 -47 0 0 0 
1040 254 -47 0 0 0 
1128.092 306.098 9.0275 0 0 0 
1033.204 354.875 101.7675 0 0 0 
1036.444 249.746 -50.1075 0 0 0 
1033.204 251.87 -46.3635 0 0 0 
1048.028 256.557 -46.3635 0 0 0 
1122.816 313.544 20.48 0 0 0 
1026.512 347.32 95.6 0 0 0 
1030.832 247.048 -49.52 0 0 0 
1026.512 249.88 -44.528 0 0 0 
1058.064 259.856 -44.528 0 0 0 
1114.844 321.816 33.5625 0 0 0 
1020.068 337.115 86.2925 0 0 0 
1023.848 245.702 -45.9725 0 0 0 
1020.068 248.18 -41.6045 0 0 0 
1069.436 263.789 -41.6045 0 0 0 
1104.848 330.392 47.48 0 0 0 
1014.016 325.04 74.64 0 0 0 
1016.176 245.504 -40.2 0 0 0 
1014.016 246.92 -37.704 0 0 0 
1081.472 268.248 -37.704 0 0 0 
1093.5 338.75 61.4375 0 0 0 
1008.5 311.875 61.4375 0 0 0 
1008.5 246.25 -32.9375 0 0 0 
1008.5 246.25 -32.9375 0 0 0 
1093.5 273.125 -32.9375 0 0 0 
1081.472 346.368 74.64 0 0 0 
1003.664 298.4 47.48 0 0 0 
1001.504 247.736 -24.92 0 0 0 
1003.664 246.32 -27.416 0 0 0 
1104.848 278.312 -27.416 0 0 0 
1069.436 352.724 86.2925 0 0 0 
999.652 285.395 33.5625 0 0 0 
995.872 249.758 -16.8825 0 0 0 
999.652 247.28 -21.2505 0 0 0 
1114.844 283.701 -21.2505 0 0 0 
1058.064 357.296 95.6 0 0 0 
996.608 273.64 20.48 0 0 0 
992.288 252.112 -9.56 0 0 0 
996.608 249.28 -14.552 0 0 0 
1122.816 289.184 -14.552 0 0 0 
1048.028 359.562 101.7675 0 0 0 
994.676 263.915 9.0275 0 0 0 
991.436 254.594 -3.6875 0 0 0 
994.676 252.47 -7.4315 0 0 0 
1128.092 294.653 -7.4315 0 0 0 
1130 300 0 0 0 0 
1040 360 104 0 0 0 
1040 254 -47 0 0 0 
1040 254 -47 0 0 0 
1040 254 -47 0 0 0 
1128.092 306.162 9.0275 0 0 0 
1033.204 355.92 101.7675 0 0 0 
1036.444 249.774 -50.1075 0 0 0 
1033.204 251.934 -46.3635 0 0 0 
1048.028 256.512 -46.3635 0 0 0 
1122.816 313.696 20.48 0 0 0 
1026.512 348.4 95.6 0 0 0 
1030.832 247.152 -49.52 0 0 0 
1026.512 250.032 -44.528 0 0 0 
1058.064 259.776 -44.528 0 0 0 
1114.844 322.074 33.5625 0 0 0 
1020.068 338.22 86.2925 0 0 0 
1023.848 245.918 -45.9725 0 0 0 
1020.068 248.438 -41.6045 0 0 0 
1069.436 263.684 -41.6045 0 0 0 
1104.848 330.768 47.48 0 0 0 
1014.016 326.16 74.64 0 0 0 
1016.176 245.856 -40.2 0 0 0 
1014.016 247.296 -37.704 0 0 0 
1081.472 268.128 -37.704 0 0 0 
1093.5 339.25 61.4375 0 0 0 
1008.5 313 61.4375 0 0 0 
1008.5 246.75 -32.9375 0 0 0 
1008.5 246.75 -32.9375 0 0 0 
1093.5 273 -32.9375 0 0 0 
1081.472 346.992 74.64 0 0 0 
1003.664 299.52 47.48 0 0 0 
1001.504 248.384 -24.92 0 0 0 
1003.664 246.944 -27.416 0 0 0 
1104.848 278.192 -27.416 0 0 0 
1069.436 353.466 86.2925 0 0 0 
999.652 286.5 33.5625 0 0 0 
995.872 250.542 -16.8825 0 0 0 
999.652 248.022 -21.2505 0 0 0 
1114.844 283.596 -21.2505 0 0 0 
1058.064 358.144 95.6 0 0 0 
996.608 274.72 20.48 0 0 0 
992.288 253.008 -9.56 0 0 0 
996.608 250.128 -14.552 0 0 0 
1122.816 289.104 -14.552 0 0 0 
1048.028 360.498 101.7675 0 0 0 
994.676 264.96 9.0275 0 0 0 
991.436 255.566 -3.6875 0 0 0 
994.676 253.406 -7.4315 0 0 0 
1128.092 294.608 -7.4315 0 0 0 
1130 301 0 0 0 0 
1040 400 104 0 0 0 
1040 255 -47 0 0 0 
1040 255 -47 0 0 0 
1040 255 -47 0 0 0 
1128.092 309.838 9.0275 0 0 0 
1033.204 394.935 101.7675 0 0 0 
1036.444 249.126 -50.1075 0 0 0 
1033.204 252.69 -46.3635 0 0 0 
1048.028 257.377 -46.3635 0 0 0 
1122.816 321.264 20.48 0 0 0 
1026.512 384.8 95.6 0 0 0 
1030.832 245.488 -49.52 0 0 0 
1026.512 250.24 -44.528 0 0 0 
1058.064 260.216 -44.528 0 0 0 
1114.844 334.396 33.5625 0 0 0 
1020.068 370.735 86.2925 0 0 0 
1023.848 243.762 -45.9725 0 0 0 
1020.068 247.92 -41.6045 0 0 0 
1069.436 263.529 -41.6045 0 0 0 
1104.848 348.352 47.48 0 0 0 
1014.016 353.88 74.64 0 0 0 
1016.176 243.624 -40.2 0 0 0 
1014.016 246 -37.704 0 0 0 
1081.472 267.328 -37.704 0 0 0 
1093.5 362.25 61.4375 0 0 0 
1008.5 335.375 61.4375 0 0 0 
1008.5 244.75 -32.9375 0 0 0 
1008.5 244.75 -32.9375 0 0 0 
1093.5 271.625 -32.9375 0 0 0 
1081.472 375.208 74.64 0 0 0 
1003.664 316.36 47.48 0 0 0 
1001.504 246.816 -24.92 0 0 0 
1003.664 244.44 -27.416 0 0 0 
1104.848 276.432 -27.416 0 0 0 
1069.436 386.344 86.2925 0 0 0 
999.652 297.975 33.5625 0 0 0 
995.872 249.498 -16.8825 0 0 0 
999.652 245.34 -21.2505 0 0 0 
1114.844 281.761 -21.2505 0 0 0 
1058.064 394.776 95.6 0 0 0 
996.608 281.36 20.48 0 0 0 
992.288 252.472 -9.56 0 0 0 
996.608 247.72 -14.552 0 0 0 
1122.816 287.624 -14.552 0 0 0 
1048.028 399.622 101.7675 0 0 0 
994.676 267.655 9.0275 0 0 0 
991.436 255.414 -3.6875 0 0 0 
994.676 251.85 -7.4315 0 0 0 
1128.092 294.033 -7.4315 0 0 0 
1130 344 0 0 0 0 
1040 401 104 0 0 0 
1040 256 -47 0 0 0 
1040 256 -47 0 0 0 
1040 256 -47 0 0 0 
1128.088 351.8645 9.0275 0 0 0 
1033.272 394.0285 101.7675 0 0 0 
1036.512 249.7315 -50.1075 0 0 0 
1033.272 251.7835 -46.3635 0 0 0 
1047.988 261.3755 -46.3635 0 0 0 
1122.8 360.616 20.48 0 0 0 
1026.68 382.608 95.6 0 0 0 
1031 245.312 -49.52 0 0 0 
1026.68 248.048 -44.528 0 0 0 
1058 268.464 -44.528 0 0 0 
1114.812 369.7415 33.5625 0 0 0 
1020.357 367.7795 86.2925 0 0 0 
1024.137 242.5705 -45.9725 0 0 0 
1020.357 244.9645 -41.6045 0 0 0 
1069.363 276.9085 -41.6045 0 0 0 
1104.8 378.728 47.48 0 0 0 
1014.44 350.584 74.64 0 0 0 
1016.6 241.336 -40.2 0 0 0 
1014.44 242.704 -37.704 0 0 0 
1081.4 286.352 -37.704 0 0 0 
1093.438 387.0625 61.4375 0 0 0 
1009.062 332.0625 61.4375 0 0 0 
1009.062 241.4375 -32.9375 0 0 0 
1009.062 241.4375 -32.9375 0 0 0 
1093.438 296.4375 -32.9375 0 0 0 
1081.4 394.232 74.64 0 0 0 
1004.36 313.256 47.48 0 0 0 
1002.2 242.704 -24.92 0 0 0 
1004.36 241.336 -27.416 0 0 0 
1104.8 306.808 -27.416 0 0 0 
1069.363 399.7235 86.2925 0 0 0 
1000.468 295.2055 33.5625 0 0 0 
996.6875 244.9645 -16.8825 0 0 0 
1000.468 242.5705 -21.2505 0 0 0 
1114.812 317.1065 -21.2505 0 0 0 
1058 403.024 95.6 0 0 0 
997.52 278.952 20.48 0 0 0 
993.2 248.048 -9.56 0 0 0 
997.52 245.312 -14.552 0 0 0 
1122.8 326.976 -14.552 0 0 0 
1047.988 403.6205 101.7675 0 0 0 
995.6525 265.5365 9.0275 0 0 0 
992.4125 251.7835 -3.6875 0 0 0 
995.6525 249.7315 -7.4315 0 0 0 
1128.088 336.0595 -7.4315 0 0 0 
1130 345 0 0 0 0 
1040 402 104 0 0 0 
1040 448 -47 0 0 0 
1040 448 -47 0 0 0 
1040 448 -47 0 0 0 
1128.088 345.129 9.0275 0 0 0 
1033.272 394.169 101.7675 0 0 0 
1036.512 437.243 -50.1075 0 0 0 
1033.272 439.295 -46.3635 0 0 0 
1047.988 448.887 -46.3635 0 0 0 
1122.8 349.392 20.48 0 0 0 
1026.68 380.552 95.6 0 0 0 
1031 420.504 -49.52 0 0 0 
1026.68 423.24 -44.528 0 0 0 
1058 443.656 -44.528 0 0 0 
1114.812 356.703 33.5625 0 0 0 
1020.357 362.763 86.2925 0 0 0 
1024.137 399.331 -45.9725 0 0 0 
1020.357 401.725 -41.6045 0 0 0 
1069.363 433.669 -41.6045 0 0 0 
1104.8 365.976 47.48 0 0 0 
1014.44 342.416 74.64 0 0 0 
1016.6 375.272 -40.2 0 0 0 
1014.44 376.64 -37.704 0 0 0 
1081.4 420.288 -37.704 0 0 0 
1093.438 376.125 61.4375 0 0 0 
1009.062 321.125 61.4375 0 0 0 
1009.062 349.875 -32.9375 0 0 0 
1009.062 349.875 -32.9375 0 0 0 
1093.438 404.875 -32.9375 0 0 0 
1081.4 386.064 74.64 0 0 0 
1004.36 300.504 47.48 0 0 0 
1002.2 324.688 -24.92 0 0 0 
1004.36 323.32 -27.416 0 0 0 
1104.8 388.792 -27.416 0 0 0 
1069.363 394.707 86.2925 0 0 0 
1000.468 282.167 33.5625 0 0 0 
996.6875 301.259 -16.8825 0 0 0 
1000.468 298.865 -21.2505 0 0 0 
1114.812 373.401 -21.2505 0 0 0 
1058 400.968 95.6 0 0 0 
997.52 267.728 20.48 0 0 0 
993.2 281.136 -9.56 0 0 0 
997.52 278.4 -14.552 0 0 0 
1122.8 360.064 -14.552 0 0 0 
1047.988 403.761 101.7675 0 0 0 
995.6525 258.801 9.0275 0 0 0 
992.4125 265.867 -3.6875 0 0 0 
995.6525 263.815 -7.4315 0 0 0 
1128.088 350.143 -7.4315 0 0 0 
1130 346 0 0 0 0 
1040 403 104 0 0 0 
1040 253 -46 0 0 0 
1040 253 -46 0 0 0 
1040 253 -46 0 0 0 
1128.083 354.0805 8.987 0 0 0 
1033.341 395.8455 101.763 0 0 0 
1036.581 246.6435 -49.131 0 0 0 
1033.341 248.6955 -45.387 0 0 0 
1047.947 258.6145 -45.387 0 0 0 
1122.784 362.984 20.416 0 0 0 
1026.848 384.184 95.584 0 0 0 
1031.168 242.248 -48.608 0 0 0 
1026.848 244.984 -43.616 0 0 0 
1057.936 266.096 -43.616 0 0 0 
1114.781 372.2035 33.489 0 0 0 
1020.647 369.0685 86.261 0 0 0 
1024.427 239.6245 -45.157 0 0 0 
1020.647 242.0185 -40.789 0 0 0 
1069.289 275.0515 -40.789 0 0 0 
1104.752 381.232 47.408 0 0 0 
1014.864 351.552 74.592 0 0 0 
1017.024 238.584 -39.504 0 0 0 
1014.864 239.952 -37.008 0 0 0 
1081.328 285.088 -37.008 0 0 0 
1093.375 389.5625 61.375 0 0 0 
1009.625 332.6875 61.375 0 0 0 
1009.625 238.9375 -32.375 0 0 0 
1009.625 238.9375 -32.375 0 0 0 
1093.375 295.8125 -32.375 0 0 0 
1081.328 396.688 74.592 0 0 0 
1005.056 313.528 47.408 0 0 0 
1002.896 240.496 -24.496 0 0 0 
1005.056 239.128 -26.992 0 0 0 
1104.752 306.832 -26.992 0 0 0 
1069.289 402.1015 86.261 0 0 0 
1001.283 295.1265 33.489 0 0 0 
997.503 243.0705 -16.593 0 0 0 
1001.283 240.6765 -20.961 0 0 0 
1114.781 317.7535 -20.961 0 0 0 
1057.936 405.296 95.584 0 0 0 
998.432 278.536 20.416 0 0 0 
994.112 246.472 -9.392 0 0 0 
998.432 243.736 -14.384 0 0 0 
1122.784 328.184 -14.384 0 0 0 
1047.947 405.7645 101.763 0 0 0 
996.629 264.8095 8.987 0 0 0 
993.389 250.5115 -3.619 0 0 0 
996.629 248.4595 -7.363 0 0 0 
1128.083 337.7305 -7.363 0 0 0 
1130 346 0 0 0 0 
1040 404 104 0 0 0 
1040 254 -46 0 0 0 
1040 254 -46 0 0 0 
1040 254 -46 0 0 0 
1128.083 354.1085 8.987 0 0 0 
1033.341 396.8175 101.763 0 0 0 
1036.581 247.5795 -49.131 0 0 0 
1033.341 249.6675 -45.387 0 0 0 
1047.947 259.5865 -45.387 0 0 0 
1122.784 363.088 20.416 0 0 0 
1026.848 385.08 95.584 0 0 0 
1031.168 243.096 -48.608 0 0 0 
1026.848 245.88 -43.616 0 0 0 
1057.936 266.992 -43.616 0 0 0 
1114.781 372.4195 33.489 0 0 0 
1020.647 369.8525 86.261 0 0 0 
1024.427 240.3665 -45.157 0 0 0 
1020.647 242.8025 -40.789 0 0 0 
1069.289 275.8355 -40.789 0 0 0 
1104.752 381.584 47.408 0 0 0 
1014.864 352.2 74.592 0 0 0 
1017.024 239.208 -39.504 0 0 0 
1014.864 240.6 -37.008 0 0 0 
1081.328 285.736 -37.008 0 0 0 
1093.375 390.0625 61.375 0 0 0 
1009.625 333.1875 61.375 0 0 0 
1009.625 239.4375 -32.375 0 0 0 
1009.625 239.4375 -32.375 0 0 0 
1093.375 296.3125 -32.375 0 0 0 
1081.328 397.336 74.592 0 0 0 
1005.056 313.88 47.408 0 0 0 
1002.896 240.872 -24.496 0 0 0 
1005.056 239.48 -26.992 0 0 0 
1104.752 307.184 -26.992 0 0 0 
1069.289 402.8855 86.261 0 0 0 
1001.283 295.3425 33.489 0 0 0 
997.503 243.3285 -16.593 0 0 0 
1001.283 240.8925 -20.961 0 0 0 
1114.781 317.9695 -20.961 0 0 0 
1057.936 406.192 95.584 0 0 0 
998.432 278.64 20.416 0 0 0 
994.112 246.624 -9.392 0 0 0 
998.432 243.84 -14.384 0 0 0 
1122.784 328.288 -14.384 0 0 0 
1047.947 406.7365 101.763 0 0 0 
996.629 264.8375 8.987 0 0 0 
993.389 250.5755 -3.619 0 0 0 
996.629 248.4875 -7.363 0 0 0 
1128.083 337.7585 -7.363 0 0 0 
1130 347 0 0 0 0 
1040 409 104 0 0 0 
1040 255 -46 0 0 0 
1040 255 -46 0 0 0 
1040 255 -46 0 0 0 
1128.083 355.3825 8.987 0 0 0 
1033.341 401.7235 101.763 0 0 0 
1036.581 248.4175 -49.131 0 0 0 
1033.341 250.6495 -45.387 0 0 0 
1047.947 260.5685 -45.387 0 0 0 
1122.784 364.76 20.416 0 0 0 
1026.848 389.728 95.584 0 0 0 
1031.168 243.84 -48.608 0 0 0 
1026.848 246.816 -43.616 0 0 0 
1057.936 267.928 -43.616 0 0 0 
1114.781 374.5775 33.489 0 0 0 
1020.647 374.1145 86.261 0 0 0 
1024.427 241.0725 -45.157 0 0 0 
1020.647 243.6765 -40.789 0 0 0 
1069.289 276.7095 -40.789 0 0 0 
1104.752 384.28 47.408 0 0 0 
1014.864 355.984 74.592 0 0 0 
1017.024 239.92 -39.504 0 0 0 
1014.864 241.408 -37.008 0 0 0 
1081.328 286.544 -37.008 0 0 0 
1093.375 393.3125 61.375 0 0 0 
1009.625 336.4375 61.375 0 0 0 
1009.625 240.1875 -32.375 0 0 0 
1009.625 240.1875 -32.375 0 0 0 
1093.375 297.0625 -32.375 0 0 0 
1081.328 401.12 74.592 0 0 0 
1005.056 316.576 47.408 0 0 0 
1002.896 241.68 -24.496 0 0 0 
1005.056 240.192 -26.992 0 0 0 
1104.752 307.896 -26.992 0 0 0 
1069.289 407.1475 86.261 0 0 0 
1001.283 297.5005 33.489 0 0 0 
997.503 244.2025 -16.593 0 0 0 
1001.283 241.5985 -20.961 0 0 0 
1114.781 318.6755 -20.961 0 0 0 
1057.936 410.84 95.584 0 0 0 
998.432 280.312 20.416 0 0 0 
994.112 247.56 -9.392 0 0 0 
998.432 244.584 -14.384 0 0 0 
1122.784 329.032 -14.384 0 0 0 
1047.947 411.6425 101.763 0 0 0 
996.629 266.1115 8.987 0 0 0 
993.389 251.5575 -3.619 0 0 0 
996.629 249.3255 -7.363 0 0 0 
1128.083 338.5965 -7.363 0 0 0 
1130 348 0 0 0 0 
1040 410 104 0 0 0 
1040 253 -45 0 0 0 
1040 253 -45 0 0 0 
1040 253 -45 0 0 0 
1128.083 356.504 8.9465 0 0 0 
1033.341 402.737 101.7585 0 0 0 
1036.581 246.488 -48.1545 0 0 0 
1033.341 248.72 -44.4105 0 0 0 
1047.947 258.639 -44.4105 0 0 0 
1122.784 365.952 20.352 0 0 0 
1026.848 390.776 95.568 0 0 0 
1031.168 242.104 -47.696 0 0 0 
1026.848 245.08 -42.704 0 0 0 
1057.936 266.192 -42.704 0 0 0 
1114.781 375.798 33.4155 0 0 0 
1020.647 375.209 86.2295 0 0 0 
1024.427 239.626 -44.3415 0 0 0 
1020.647 242.23 -39.9735 0 0 0 
1069.289 275.263 -39.9735 0 0 0 
1104.752 385.496 47.336 0 0 0 
1014.864 357.128 74.544 0 0 0 
1017.024 238.832 -38.808 0 0 0 
1014.864 240.32 -36.312 0 0 0 
1081.328 285.456 -36.312 0 0 0 
1093.375 394.5 61.3125 0 0 0 
1009.625 337.625 61.3125 0 0 0 
1009.625 239.5 -31.8125 0 0 0 
1009.625 239.5 -31.8125 0 0 0 
1093.375 296.375 -31.8125 0 0 0 
1081.328 402.264 74.544 0 0 0 
1005.056 317.792 47.336 0 0 0 
1002.896 241.408 -24.072 0 0 0 
1005.056 239.92 -26.568 0 0 0 
1104.752 307.624 -26.568 0 0 0 
1069.289 408.242 86.2295 0 0 0 
1001.283 298.721 33.4155 0 0 0 
997.503 244.334 -16.3035 0 0 0 
1001.283 241.73 -20.6715 0 0 0 
1114.781 318.807 -20.6715 0 0 0 
1057.936 411.888 95.568 0 0 0 
998.432 281.504 20.352 0 0 0 
994.112 248.056 -9.224 0 0 0 
998.432 245.08 -14.216 0 0 0 
1122.784 329.528 -14.216 0 0 0 
1047.947 412.656 101.7585 0 0 0 
996.629 267.233 8.9465 0 0 0 
993.389 252.352 -3.5505 0 0 0 
996.629 250.12 -7.2945 0 0 0 
1128.083 339.391 -7.2945 0 0 0 
1130 349 0 0 0 0 
1040 411 104 0 0 0 
1040 254 -45 0 0 0 
1040 254 -45 0 0 0 
1040 254 -45 0 0 0 
1128.078 357.5175 8.9465 0 0 0 
1033.41 403.5315 101.7585 0 0 0 
1036.65 247.2825 -48.1545 0 0 0 
1033.41 249.5145 -44.4105 0 0 0 
1047.906 259.7605 -44.4105 0 0 0 
1122.768 367 20.352 0 0 0 
1027.016 391.272 95.568 0 0 0 
1031.336 242.6 -47.696 0 0 0 
1027.016 245.576 -42.704 0 0 0 
1057.872 267.384 -42.704 0 0 0 
1114.75 376.8925 33.4155 0 0 0 
1020.937 375.3405 86.2295 0 0 0 
1024.717 239.7575 -44.3415 0 0 0 
1020.937 242.3615 -39.9735 0 0 0 
1069.215 276.4835 -39.9735 0 0 0 
1104.704 386.64 47.336 0 0 0 
1015.288 356.856 74.544 0 0 0 
1017.448 238.56 -38.808 0 0 0 
1015.288 240.048 -36.312 0 0 0 
1081.256 286.672 -36.312 0 0 0 
1093.312 395.6875 61.3125 0 0 0 
1010.188 336.9375 61.3125 0 0 0 
1010.188 238.8125 -31.8125 0 0 0 
1010.188 238.8125 -31.8125 0 0 0 
1093.312 297.5625 -31.8125 0 0 0 
1081.256 403.48 74.544 0 0 0 
1005.752 316.704 47.336 0 0 0 
1003.592 240.32 -24.072 0 0 0 
1005.752 238.832 -26.568 0 0 0 
1104.704 308.768 -26.568 0 0 0 
1069.215 409.4625 86.2295 0 0 0 
1002.099 297.2745 33.4155 0 0 0 
998.3185 242.8875 -16.3035 0 0 0 
1002.099 240.2835 -20.6715 0 0 0 
1114.75 319.9015 -20.6715 0 0 0 
1057.872 413.08 95.568 0 0 0 
999.344 279.768 20.352 0 0 0 
995.024 246.32 -9.224 0 0 0 
999.344 243.344 -14.216 0 0 0 
1122.768 330.576 -14.216 0 0 0 
1047.906 413.7775 101.7585 0 0 0 
997.6055 265.3035 8.9465 0 0 0 
994.3655 250.4225 -3.5505 0 0 0 
997.6055 248.1905 -7.2945 0 0 0 
1128.078 340.4045 -7.2945 0 0 0 
1130 349 0 0 0 0 
1040 412 104 0 0 0 
1040 255 -45 0 0 0 
1040 255 -45 0 0 0 
1040 255 -45 0 0 0 
1128.078 357.5455 8.9465 0 0 0 
1033.41 404.5035 101.7585 0 0 0 
1036.65 248.2185 -48.1545 0 0 0 
1033.41 250.4865 -44.4105 0 0 0 
1047.906 260.7325 -44.4105 0 0 0 
1122.768 367.104 20.352 0 0 0 
1027.016 392.168 95.568 0 0 0 
1031.336 243.448 -47.696 0 0 0 
1027.016 246.472 -42.704 0 0 0 
1057.872 268.28 -42.704 0 0 0 
1114.75 377.1085 33.4155 0 0 0 
