ply
format ascii 1.0
element vertex 1731
property float x
property float y
property float z
element face 0
property list uchar int vertex_index
end_header
965.4375 580.8125 -46.8125
965.4375 840.1875 86.3125
965.4375 840.1875 86.3125
1146.0625 1092.6875 86.3125
1122.7600 760.8800 -53.6400
952.9040 605.2240 -38.9200
948.6800 797.7200 65.1200
952.9040 811.0640 66.7280
1167.9200 1111.6400 66.7280
1099.2575 692.7175 -59.2375
942.3045 631.9395 -30.1275
934.9125 759.2325 44.3775
942.3045 782.5845 47.1915
1187.0875 1124.7725 47.1915
1076.8000 633.0400 -63.4400
934.1280 659.1680 -20.6000
925.6800 728.7600 25.6000
934.1280 755.4480 28.8160
1202.3200 1130.3600 28.8160
1056.6325 586.0625 -66.0825
928.8635 685.1185 -10.5025
922.5275 710.3375 10.3025
928.8635 730.3535 12.7145
1212.3725 1126.6775 12.7145
1216.0000 1112.0000 0.0000
1040.0000 557.0000 -67.0000
1040.0000 972.0000 146.0000
1040.0000 972.0000 146.0000
1040.0000 972.0000 146.0000
1212.3725 1081.4660 -10.5025
1025.1315 543.0670 -66.0825
1031.4675 970.1620 145.2825
1025.1315 950.1820 142.8705
1056.6325 994.1090 142.8705
1202.3200 1034.1680 -20.6000
1009.7520 540.3760 -63.4400
1018.2000 952.1360 137.4400
1009.7520 925.4960 134.2240
1076.8000 1018.9920 134.2240
1187.0875 974.3120 -30.1275
994.3505 547.1390 -59.2375
1001.7425 921.9540 123.9875
994.3505 898.6440 121.1735
1099.2575 1044.9330 121.1735
1167.9200 906.1040 -38.9200
979.4160 561.5680 -53.6400
983.6400 883.6480 106.4400
979.4160 870.3280 104.8320
1122.7600 1070.2160 104.8320
1146.0625 833.7500 -46.8125
965.4375 581.8750 -46.8125
965.4375 841.2500 86.3125
965.4375 841.2500 86.3125
1146.0625 1093.1250 86.3125
1122.7600 761.4560 -53.6400
952.9040 606.2720 -38.9200
948.6800 798.7920 65.1200
952.9040 812.1120 66.7280
1167.9200 1111.9440 66.7280
1099.2575 693.4280 -59.2375
942.3045 632.9710 -30.1275
934.9125 760.3060 44.3775
942.3045 783.6160 47.1915
1187.0875 1124.9570 47.1915
1076.8000 633.8720 -63.4400
934.1280 660.1840 -20.6000
925.6800 729.8240 25.6000
934.1280 756.4640 28.8160
1202.3200 1130.4480 28.8160
1056.6325 586.9940 -66.0825
928.8635 686.1230 -10.5025
922.5275 711.3780 10.3025
928.8635 731.3580 12.7145
1212.3725 1126.7010 12.7145
1216.0000 1113.0000 0.0000
1040.0000 558.0000 -67.0000
1040.0000 973.0000 146.0000
1040.0000 973.0000 146.0000
1040.0000 973.0000 146.0000
1212.3725 1082.3085 -10.5025
1025.1315 546.4645 -66.0825
1031.4675 973.5595 145.2825
1025.1315 953.5795 142.8705
1056.6325 993.6915 142.8705
1202.3200 1034.6080 -20.6000
1009.7520 547.2560 -63.4400
1018.2000 959.0160 137.4400
1009.7520 932.3760 134.2240
1076.8000 1017.7520 134.2240
1187.0875 974.2095 -30.1275
994.3505 558.2715 -59.2375
1001.7425 933.0865 123.9875
994.3505 909.7765 121.1735
1099.2575 1043.3605 121.1735
1167.9200 905.4240 -38.9200
979.4160 577.4080 -53.6400
983.6400 899.4880 106.4400
979.4160 886.1680 104.8320
1122.7600 1068.6960 104.8320
1146.0625 832.5625 -46.8125
965.4375 602.5625 -46.8125
965.4375 861.9375 86.3125
965.4375 861.9375 86.3125
1146.0625 1091.9375 86.3125
1122.7600 759.9360 -53.6400
952.9040 631.6320 -38.9200
948.6800 824.1520 65.1200
952.9040 837.4720 66.7280
1167.9200 1111.2640 66.7280
1099.2575 691.8555 -59.2375
942.3045 662.5135 -30.1275
934.9125 789.8485 44.3775
942.3045 813.1585 47.1915
1187.0875 1124.8545 47.1915
1076.8000 632.6320 -63.4400
934.1280 693.1040 -20.6000
925.6800 762.7440 25.6000
934.1280 789.3840 28.8160
1202.3200 1130.8880 28.8160
1056.6325 586.5765 -66.0825
928.8635 721.3005 -10.5025
922.5275 746.5555 10.3025
928.8635 766.5355 12.7145
1212.3725 1127.5435 12.7145
1216.0000 1114.0000 0.0000
1040.0000 870.0000 -67.0000
1040.0000 974.0000 146.0000
1040.0000 974.0000 146.0000
1040.0000 974.0000 146.0000
1212.3725 1104.6165 -10.5025
1025.1315 851.0875 -66.0825
1031.4675 961.8955 145.2825
1025.1315 953.1115 142.8705
1056.6325 993.3325 142.8705
1202.3200 1087.8720 -20.6000
1009.7520 831.7200 -63.4400
1018.2000 939.9440 137.4400
1009.7520 928.2320 134.2240
1076.8000 1013.8400 134.2240
1187.0875 1065.2755 -30.1275
994.3505 812.6025 -59.2375
1001.7425 910.9385 123.9875
994.3505 900.6905 121.1735
1099.2575 1034.6375 121.1735
1167.9200 1038.3360 -38.9200
979.4160 794.4400 -53.6400
983.6400 877.6720 106.4400
979.4160 871.8160 104.8320
1122.7600 1054.8400 104.8320
1146.0625 1008.5625 -46.8125
965.4375 777.9375 -46.8125
965.4375 842.9375 86.3125
965.4375 842.9375 86.3125
1146.0625 1073.5625 86.3125
1122.7600 977.4640 -53.6400
952.9040 763.8000 -38.9200
948.6800 809.5280 65.1200
952.9040 815.3840 66.7280
1167.9200 1089.9200 66.7280
1099.2575 946.5495 -59.2375
942.3045 752.7325 -30.1275
934.9125 780.2365 44.3775
942.3045 790.4845 47.1915
1187.0875 1103.0275 47.1915
1076.8000 917.3280 -63.4400
934.1280 745.4400 -20.6000
925.6800 757.8560 25.6000
934.1280 769.5680 28.8160
1202.3200 1112.0000 28.8160
1056.6325 891.3085 -66.0825
928.8635 742.6275 -10.5025
922.5275 745.1795 10.3025
928.8635 753.9635 12.7145
1212.3725 1115.9525 12.7145
1216.0000 1115.0000 0.0000
1040.0000 871.0000 -67.0000
1040.0000 975.0000 146.0000
1040.0000 975.0000 146.0000
1040.0000 975.0000 146.0000
1212.3725 1105.6165 -10.5025
1025.1315 852.0875 -66.0825
1031.4675 962.8955 145.2825
1025.1315 954.1115 142.8705
1056.6325 994.3325 142.8705
1202.3200 1088.8720 -20.6000
1009.7520 832.7200 -63.4400
1018.2000 940.9440 137.4400
1009.7520 929.2320 134.2240
1076.8000 1014.8400 134.2240
1187.0875 1066.2755 -30.1275
994.3505 813.6025 -59.2375
1001.7425 911.9385 123.9875
994.3505 901.6905 121.1735
1099.2575 1035.6375 121.1735
1167.9200 1039.3360 -38.9200
979.4160 795.4400 -53.6400
983.6400 878.6720 106.4400
979.4160 872.8160 104.8320
1122.7600 1055.8400 104.8320
1146.0625 1009.5625 -46.8125
965.4375 778.9375 -46.8125
965.4375 843.9375 86.3125
965.4375 843.9375 86.3125
1146.0625 1074.5625 86.3125
1122.7600 978.4640 -53.6400
952.9040 764.8000 -38.9200
948.6800 810.5280 65.1200
952.9040 816.3840 66.7280
1167.9200 1090.9200 66.7280
1099.2575 947.5495 -59.2375
942.3045 753.7325 -30.1275
934.9125 781.2365 44.3775
942.3045 791.4845 47.1915
1187.0875 1104.0275 47.1915
1076.8000 918.3280 -63.4400
934.1280 746.4400 -20.6000
925.6800 758.8560 25.6000
934.1280 770.5680 28.8160
1202.3200 1113.0000 28.8160
1056.6325 892.3085 -66.0825
928.8635 743.6275 -10.5025
922.5275 746.1795 10.3025
928.8635 754.9635 12.7145
1212.3725 1116.9525 12.7145
1216.0000 1120.0000 0.0000
1040.0000 872.0000 -67.0000
1040.0000 976.0000 146.0000
1040.0000 976.0000 146.0000
1040.0000 976.0000 146.0000
1212.3725 1110.5225 -10.5025
1025.1315 852.9255 -66.0825
1031.4675 963.8775 145.2825
1025.1315 954.9495 142.8705
1056.6325 995.6065 142.8705
1202.3200 1093.5200 -20.6000
1009.7520 833.4640 -63.4400
1018.2000 941.8800 137.4400
1009.7520 929.9760 134.2240
1076.8000 1016.5120 134.2240
1187.0875 1070.5375 -30.1275
994.3505 814.3085 -59.2375
1001.7425 912.8125 123.9875
994.3505 902.3965 121.1735
1099.2575 1037.7955 121.1735
1167.9200 1043.1200 -38.9200
979.4160 796.1520 -53.6400
983.6400 879.4800 106.4400
979.4160 873.5280 104.8320
1122.7600 1058.5360 104.8320
1146.0625 1012.8125 -46.8125
965.4375 779.6875 -46.8125
965.4375 844.6875 86.3125
965.4375 844.6875 86.3125
1146.0625 1077.8125 86.3125
1122.7600 981.1600 -53.6400
952.9040 765.6080 -38.9200
948.6800 811.2400 65.1200
952.9040 817.1920 66.7280
1167.9200 1094.7040 66.7280
1099.2575 949.7075 -59.2375
942.3045 754.6065 -30.1275
934.9125 781.9425 44.3775
942.3045 792.3585 47.1915
1187.0875 1108.2895 47.1915
1076.8000 920.0000 -63.4400
934.1280 747.3760 -20.6000
925.6800 759.6000 25.6000
934.1280 771.5040 28.8160
1202.3200 1117.6480 28.8160
1056.6325 893.5825 -66.0825
928.8635 744.6095 -10.5025
922.5275 747.0175 10.3025
928.8635 755.9455 12.7145
1212.3725 1121.8585 12.7145
1216.0000 1120.0000 0.0000
1040.0000 873.0000 -67.0000
1040.0000 977.0000 146.0000
1040.0000 977.0000 146.0000
1040.0000 977.0000 146.0000
1212.3725 1110.5505 -10.5025
1025.1315 853.8975 -66.0825
1031.4675 964.8135 145.2825
1025.1315 955.9215 142.8705
1056.6325 996.5785 142.8705
1202.3200 1093.6240 -20.6000
1009.7520 834.3600 -63.4400
1018.2000 942.7280 137.4400
1009.7520 930.8720 134.2240
1076.8000 1017.4080 134.2240
1187.0875 1070.7535 -30.1275
994.3505 815.0925 -59.2375
1001.7425 913.5545 123.9875
994.3505 903.1805 121.1735
1099.2575 1038.5795 121.1735
1167.9200 1043.4720 -38.9200
979.4160 796.8000 -53.6400
983.6400 880.1040 106.4400
979.4160 874.1760 104.8320
1122.7600 1059.1840 104.8320
1146.0625 1013.3125 -46.8125
965.4375 780.1875 -46.8125
965.4375 845.1875 86.3125
965.4375 845.1875 86.3125
1146.0625 1078.3125 86.3125
1122.7600 981.8080 -53.6400
952.9040 765.9600 -38.9200
948.6800 811.6160 65.1200
952.9040 817.5440 66.7280
1167.9200 1095.0560 66.7280
1099.2575 950.4915 -59.2375
942.3045 754.8225 -30.1275
934.9125 782.2005 44.3775
942.3045 792.5745 47.1915
1187.0875 1108.5055 47.1915
1076.8000 920.8960 -63.4400
934.1280 747.4800 -20.6000
925.6800 759.7520 25.6000
934.1280 771.6080 28.8160
1202.3200 1117.7520 28.8160
1056.6325 894.5545 -66.0825
928.8635 744.6375 -10.5025
922.5275 747.0815 10.3025
928.8635 755.9735 12.7145
1212.3725 1121.8865 12.7145
1216.0000 1121.0000 0.0000
1040.0000 874.0000 -67.0000
1040.0000 977.0000 146.0000
1040.0000 977.0000 146.0000
1040.0000 977.0000 146.0000
1212.3725 1111.5910 -10.5025
1025.1315 854.9020 -66.0825
1031.4675 964.8370 145.2825
1025.1315 955.9450 142.8705
1056.6325 996.6020 142.8705
1202.3200 1094.6880 -20.6000
1009.7520 835.3760 -63.4400
1018.2000 942.8160 137.4400
1009.7520 930.9600 134.2240
1076.8000 1017.4960 134.2240
1187.0875 1071.8270 -30.1275
994.3505 816.1240 -59.2375
1001.7425 913.7390 123.9875
994.3505 903.3650 121.1735
1099.2575 1038.7640 121.1735
1167.9200 1044.5440 -38.9200
979.4160 797.8480 -53.6400
983.6400 880.4080 106.4400
979.4160 874.4800 104.8320
1122.7600 1059.4880 104.8320
1146.0625 1014.3750 -46.8125
965.4375 781.2500 -46.8125
965.4375 845.6250 86.3125
965.4375 845.6250 86.3125
1146.0625 1078.7500 86.3125
1122.7600 982.8560 -53.6400
952.9040 767.0320 -38.9200
948.6800 812.1920 65.1200
952.9040 818.1200 66.7280
1167.9200 1095.6320 66.7280
1099.2575 951.5230 -59.2375
942.3045 755.8960 -30.1275
934.9125 782.9110 44.3775
942.3045 793.2850 47.1915
1187.0875 1109.2160 47.1915
1076.8000 921.9120 -63.4400
934.1280 748.5440 -20.6000
925.6800 760.5840 25.6000
934.1280 772.4400 28.8160
1202.3200 1118.5840 28.8160
1056.6325 895.5590 -66.0825
928.8635 745.6780 -10.5025
922.5275 748.0130 10.3025
928.8635 756.9050 12.7145
1212.3725 1122.8180 12.7145
1216.0000 1122.0000 0.0000
1040.0000 875.0000 -67.0000
1040.0000 978.0000 146.0000
1040.0000 978.0000 146.0000
1040.0000 978.0000 146.0000
1212.3725 1112.5910 -10.5025
1025.1315 855.9020 -66.0825
1031.4675 965.8370 145.2825
1025.1315 956.9450 142.8705
1056.6325 997.6020 142.8705
1202.3200 1095.6880 -20.6000
1009.7520 836.3760 -63.4400
1018.2000 943.8160 137.4400
1009.7520 931.9600 134.2240
1076.8000 1018.4960 134.2240
1187.0875 1072.8270 -30.1275
994.3505 817.1240 -59.2375
1001.7425 914.7390 123.9875
994.3505 904.3650 121.1735
1099.2575 1039.7640 121.1735
1167.9200 1045.5440 -38.9200
979.4160 798.8480 -53.6400
983.6400 881.4080 106.4400
979.4160 875.4800 104.8320
1122.7600 1060.4880 104.8320
1146.0625 1015.3750 -46.8125
965.4375 782.2500 -46.8125
965.4375 846.6250 86.3125
965.4375 846.6250 86.3125
1146.0625 1079.7500 86.3125
1122.7600 983.8560 -53.6400
952.9040 768.0320 -38.9200
948.6800 813.1920 65.1200
952.9040 819.1200 66.7280
1167.9200 1096.6320 66.7280
1099.2575 952.5230 -59.2375
942.3045 756.8960 -30.1275
934.9125 783.9110 44.3775
942.3045 794.2850 47.1915
1187.0875 1110.2160 47.1915
1076.8000 922.9120 -63.4400
934.1280 749.5440 -20.6000
925.6800 761.5840 25.6000
934.1280 773.4400 28.8160
1202.3200 1119.5840 28.8160
1056.6325 896.5590 -66.0825
928.8635 746.6780 -10.5025
922.5275 749.0130 10.3025
928.8635 757.9050 12.7145
1212.3725 1123.8180 12.7145
1216.0000 1134.0000 0.0000
1040.0000 876.0000 -67.0000
1040.0000 1074.0000 146.0000
1040.0000 1074.0000 146.0000
1040.0000 1074.0000 146.0000
1212.3725 1120.4895 -10.5025
1025.1315 855.9605 -66.0825
1031.4675 1059.4865 145.2825
1025.1315 1050.1985 142.8705
1056.6325 1092.1635 142.8705
1202.3200 1100.6560 -20.6000
1009.7520 834.9840 -63.4400
1018.2000 1031.1120 137.4400
1009.7520 1018.7280 134.2240
1076.8000 1108.0480 134.2240
1187.0875 1075.8465 -30.1275
994.3505 814.0335 -59.2375
1001.7425 992.5755 123.9875
994.3505 981.7395 121.1735
1099.2575 1121.4945 121.1735
1167.9200 1047.4080 -38.9200
979.4160 794.0720 -53.6400
983.6400 947.5760 106.4400
979.4160 941.3840 104.8320
1122.7600 1132.3440 104.8320
1146.0625 1016.6875 -46.8125
965.4375 776.0625 -46.8125
965.4375 899.8125 86.3125
965.4375 899.8125 86.3125
1146.0625 1140.4375 86.3125
1122.7600 985.0320 -53.6400
952.9040 760.9680 -38.9200
948.6800 852.9840 65.1200
952.9040 859.1760 66.7280
1167.9200 1145.6160 66.7280
1099.2575 953.7885 -59.2375
942.3045 749.7515 -30.1275
934.9125 810.7895 44.3775
942.3045 821.6255 47.1915
1187.0875 1147.7205 47.1915
1076.8000 924.3040 -63.4400
934.1280 743.3760 -20.6000
925.6800 776.9280 25.6000
934.1280 789.3120 28.8160
1202.3200 1146.5920 28.8160
1056.6325 897.9255 -66.0825
928.8635 742.8045 -10.5025
922.5275 755.0985 10.3025
928.8635 764.3865 12.7145
1212.3725 1142.0715 12.7145
1216.0000 1134.0000 0.0000
1040.0000 877.0000 -67.0000
1040.0000 1075.0000 146.0000
1040.0000 1075.0000 146.0000
1040.0000 1075.0000 146.0000
1212.3725 1120.5130 -10.5025
1025.1315 857.0010 -66.0825
1031.4675 1060.4910 145.2825
1025.1315 1051.2390 142.8705
1056.6325 1093.0950 142.8705
1202.3200 1100.7440 -20.6000
1009.7520 836.0480 -63.4400
1018.2000 1032.1280 137.4400
1009.7520 1019.7920 134.2240
1076.8000 1108.8800 134.2240
1187.0875 1076.0310 -30.1275
994.3505 815.1070 -59.2375
1001.7425 993.6070 123.9875
994.3505 982.8130 121.1735
1099.2575 1122.2050 121.1735
1167.9200 1047.7120 -38.9200
979.4160 795.1440 -53.6400
983.6400 948.6240 106.4400
979.4160 942.4560 104.8320
1122.7600 1132.9200 104.8320
1146.0625 1017.1250 -46.8125
965.4375 777.1250 -46.8125
965.4375 900.8750 86.3125
965.4375 900.8750 86.3125
1146.0625 1140.8750 86.3125
1122.7600 985.6080 -53.6400
952.9040 762.0160 -38.9200
948.6800 854.0560 65.1200
952.9040 860.2240 66.7280
1167.9200 1145.9200 66.7280
1099.2575 954.4990 -59.2375
942.3045 750.7830 -30.1275
934.9125 811.8630 44.3775
942.3045 822.6570 47.1915
1187.0875 1147.9050 47.1915
1076.8000 925.1360 -63.4400
934.1280 744.3920 -20.6000
925.6800 777.9920 25.6000
934.1280 790.3280 28.8160
1202.3200 1146.6800 28.8160
1056.6325 898.8570 -66.0825
928.8635 743.8090 -10.5025
922.5275 756.1390 10.3025
928.8635 765.3910 12.7145
1212.3725 1142.0950 12.7145
1216.0000 1135.0000 0.0000
1040.0000 878.0000 -67.0000
1040.0000 1076.0000 146.0000
1040.0000 1076.0000 146.0000
1040.0000 1076.0000 146.0000
1212.3725 1121.5130 -10.5025
1025.1315 858.0010 -66.0825
1031.4675 1061.4910 145.2825
1025.1315 1052.2390 142.8705
1056.6325 1094.0950 142.8705
1202.3200 1101.7440 -20.6000
1009.7520 837.0480 -63.4400
1018.2000 1033.1280 137.4400
1009.7520 1020.7920 134.2240
1076.8000 1109.8800 134.2240
1187.0875 1077.0310 -30.1275
994.3505 816.1070 -59.2375
1001.7425 994.6070 123.9875
994.3505 983.8130 121.1735
1099.2575 1123.2050 121.1735
1167.9200 1048.7120 -38.9200
979.4160 796.1440 -53.6400
983.6400 949.6240 106.4400
979.4160 943.4560 104.8320
1122.7600 1133.9200 104.8320
1146.0625 1018.1250 -46.8125
965.4375 778.1250 -46.8125
965.4375 901.8750 86.3125
965.4375 901.8750 86.3125
1146.0625 1141.8750 86.3125
1122.7600 986.6080 -53.6400
952.9040 763.0160 -38.9200
948.6800 855.0560 65.1200
952.9040 861.2240 66.7280
1167.9200 1146.9200 66.7280
1099.2575 955.4990 -59.2375
942.3045 751.7830 -30.1275
934.9125 812.8630 44.3775
942.3045 823.6570 47.1915
1187.0875 1148.9050 47.1915
1076.8000 926.1360 -63.4400
934.1280 745.3920 -20.6000
925.6800 778.9920 25.6000
934.1280 791.3280 28.8160
1202.3200 1147.6800 28.8160
1056.6325 899.8570 -66.0825
928.8635 744.8090 -10.5025
922.5275 757.1390 10.3025
928.8635 766.3910 12.7145
1212.3725 1143.0950 12.7145
1216.0000 1136.0000 0.0000
1040.0000 879.0000 -67.0000
1040.0000 1077.0000 146.0000
1040.0000 1077.0000 146.0000
1040.0000 1077.0000 146.0000
1212.3725 1122.4635 -10.5025
1025.1315 859.7545 -66.0825
1031.4675 1063.2445 145.2825
1025.1315 1053.9925 142.8705
1056.6325 1094.6495 142.8705
1202.3200 1102.5680 -20.6000
1009.7520 839.8960 -63.4400
1018.2000 1035.9760 137.4400
1009.7520 1023.6400 134.2240
1076.8000 1110.1760 134.2240
1187.0875 1077.6845 -30.1275
994.3505 820.2915 -59.2375
1001.7425 998.7915 123.9875
994.3505 987.9975 121.1735
1099.2575 1123.3965 121.1735
1167.9200 1049.1840 -38.9200
979.4160 801.8080 -53.6400
983.6400 955.2880 106.4400
979.4160 949.1200 104.8320
1122.7600 1134.1280 104.8320
1146.0625 1018.4375 -46.8125
965.4375 785.3125 -46.8125
965.4375 909.0625 86.3125
965.4375 909.0625 86.3125
1146.0625 1142.1875 86.3125
1122.7600 986.8160 -53.6400
952.9040 771.6720 -38.9200
948.6800 863.7120 65.1200
952.9040 869.8800 66.7280
1167.9200 1147.3920 66.7280
1099.2575 955.6905 -59.2375
942.3045 761.7535 -30.1275
934.9125 822.8335 44.3775
942.3045 833.6275 47.1915
1187.0875 1149.5585 47.1915
1076.8000 926.4320 -63.4400
934.1280 756.4240 -20.6000
925.6800 790.0240 25.6000
934.1280 802.3600 28.8160
1202.3200 1148.5040 28.8160
1056.6325 900.4115 -66.0825
928.8635 756.5505 -10.5025
922.5275 768.8805 10.3025
928.8635 778.1325 12.7145
1212.3725 1144.0455 12.7145
1216.0000 1137.0000 0.0000
1040.0000 880.0000 -67.0000
1040.0000 1078.0000 146.0000
1040.0000 1078.0000 146.0000
1040.0000 1078.0000 146.0000
1212.3725 1123.4680 -10.5025
1025.1315 860.6860 -66.0825
1031.4675 1064.1760 145.2825
1025.1315 1054.9240 142.8705
1056.6325 1095.6900 142.8705
1202.3200 1103.5840 -20.6000
1009.7520 840.7280 -63.4400
1018.2000 1036.8080 137.4400
1009.7520 1024.4720 134.2240
1076.8000 1111.2400 134.2240
1187.0875 1078.7160 -30.1275
994.3505 821.0020 -59.2375
1001.7425 999.5020 123.9875
994.3505 988.7080 121.1735
1099.2575 1124.4700 121.1735
1167.9200 1050.2320 -38.9200
979.4160 802.3840 -53.6400
983.6400 955.8640 106.4400
979.4160 949.6960 104.8320
1122.7600 1135.2000 104.8320
1146.0625 1019.5000 -46.8125
965.4375 785.7500 -46.8125
965.4375 909.5000 86.3125
965.4375 909.5000 86.3125
1146.0625 1143.2500 86.3125
1122.7600 987.8880 -53.6400
952.9040 771.9760 -38.9200
948.6800 864.0160 65.1200
952.9040 870.1840 66.7280
1167.9200 1148.4400 66.7280
1099.2575 956.7640 -59.2375
942.3045 761.9380 -30.1275
934.9125 823.0180 44.3775
942.3045 833.8120 47.1915
1187.0875 1150.5900 47.1915
1076.8000 927.4960 -63.4400
934.1280 756.5120 -20.6000
925.6800 790.1120 25.6000
934.1280 802.4480 28.8160
1202.3200 1149.5200 28.8160
1056.6325 901.4520 -66.0825
928.8635 756.5740 -10.5025
922.5275 768.9040 10.3025
928.8635 778.1560 12.7145
1212.3725 1145.0500 12.7145
1216.0000 1137.0000 0.0000
1040.0000 881.0000 -67.0000
1040.0000 1079.0000 146.0000
1040.0000 1079.0000 146.0000
1040.0000 1079.0000 146.0000
1212.3725 1123.4915 -10.5025
1025.1315 861.7265 -66.0825
1031.4675 1065.1805 145.2825
1025.1315 1055.9645 142.8705
1056.6325 1096.6215 142.8705
1202.3200 1103.6720 -20.6000
1009.7520 841.7920 -63.4400
1018.2000 1037.8240 137.4400
1009.7520 1025.5360 134.2240
1076.8000 1112.0720 134.2240
1187.0875 1078.9005 -30.1275
994.3505 822.0755 -59.2375
1001.7425 1000.5335 123.9875
994.3505 989.7815 121.1735
1099.2575 1125.1805 121.1735
1167.9200 1050.5360 -38.9200
979.4160 803.4560 -53.6400
983.6400 956.9120 106.4400
979.4160 950.7680 104.8320
1122.7600 1135.7760 104.8320
1146.0625 1019.9375 -46.8125
965.4375 786.8125 -46.8125
965.4375 910.5625 86.3125
965.4375 910.5625 86.3125
1146.0625 1143.6875 86.3125
1122.7600 988.4640 -53.6400
952.9040 773.0240 -38.9200
948.6800 865.0880 65.1200
952.9040 871.2320 66.7280
1167.9200 1148.7440 66.7280
1099.2575 957.4745 -59.2375
942.3045 762.9695 -30.1275
934.9125 824.0915 44.3775
942.3045 834.8435 47.1915
1187.0875 1150.7745 47.1915
1076.8000 928.3280 -63.4400
934.1280 757.5280 -20.6000
925.6800 791.1760 25.6000
934.1280 803.4640 28.8160
1202.3200 1149.6080 28.8160
1056.6325 902.3835 -66.0825
928.8635 757.5785 -10.5025
922.5275 769.9445 10.3025
928.8635 779.1605 12.7145
1212.3725 1145.0735 12.7145
1216.0000 1138.0000 0.0000
1040.0000 882.0000 -67.0000
1040.0000 1080.0000 146.0000
1040.0000 1080.0000 146.0000
1040.0000 1080.0000 146.0000
1212.3725 1124.4915 -10.5025
1025.1315 862.7265 -66.0825
1031.4675 1066.1805 145.2825
1025.1315 1056.9645 142.8705
1056.6325 1097.6215 142.8705
1202.3200 1104.6720 -20.6000
1009.7520 842.7920 -63.4400
1018.2000 1038.8240 137.4400
1009.7520 1026.5360 134.2240
1076.8000 1113.0720 134.2240
1187.0875 1079.9005 -30.1275
994.3505 823.0755 -59.2375
1001.7425 1001.5335 123.9875
994.3505 990.7815 121.1735
1099.2575 1126.1805 121.1735
1167.9200 1051.5360 -38.9200
979.4160 804.4560 -53.6400
983.6400 957.9120 106.4400
979.4160 951.7680 104.8320
1122.7600 1136.7760 104.8320
1146.0625 1020.9375 -46.8125
965.4375 787.8125 -46.8125
965.4375 911.5625 86.3125
965.4375 911.5625 86.3125
1146.0625 1144.6875 86.3125
1122.7600 989.4640 -53.6400
952.9040 774.0240 -38.9200
948.6800 866.0880 65.1200
952.9040 872.2320 66.7280
1167.9200 1149.7440 66.7280
1099.2575 958.4745 -59.2375
942.3045 763.9695 -30.1275
934.9125 825.0915 44.3775
942.3045 835.8435 47.1915
1187.0875 1151.7745 47.1915
1076.8000 929.3280 -63.4400
934.1280 758.5280 -20.6000
925.6800 792.1760 25.6000
934.1280 804.4640 28.8160
1202.3200 1150.6080 28.8160
1056.6325 903.3835 -66.0825
928.8635 758.5785 -10.5025
922.5275 770.9445 10.3025
928.8635 780.1605 12.7145
1212.3725 1146.0735 12.7145
1216.0000 1139.0000 0.0000
1040.0000 883.0000 -67.0000
1040.0000 1081.0000 146.0000
1040.0000 1081.0000 146.0000
1040.0000 1081.0000 146.0000
1212.3725 1125.4960 -10.5025
1025.1315 863.6580 -66.0825
1031.4675 1067.1120 145.2825
1025.1315 1057.8960 142.8705
1056.6325 1098.6620 142.8705
1202.3200 1105.6880 -20.6000
1009.7520 843.6240 -63.4400
1018.2000 1039.6560 137.4400
1009.7520 1027.3680 134.2240
1076.8000 1114.1360 134.2240
1187.0875 1080.9320 -30.1275
994.3505 823.7860 -59.2375
1001.7425 1002.2440 123.9875
994.3505 991.4920 121.1735
1099.2575 1127.2540 121.1735
1167.9200 1052.5840 -38.9200
979.4160 805.0320 -53.6400
983.6400 958.4880 106.4400
979.4160 952.3440 104.8320
1122.7600 1137.8480 104.8320
1146.0625 1022.0000 -46.8125
965.4375 788.2500 -46.8125
965.4375 912.0000 86.3125
965.4375 912.0000 86.3125
1146.0625 1145.7500 86.3125
1122.7600 990.5360 -53.6400
952.9040 774.3280 -38.9200
948.6800 866.3920 65.1200
952.9040 872.5360 66.7280
1167.9200 1150.7920 66.7280
1099.2575 959.5480 -59.2375
942.3045 764.1540 -30.1275
934.9125 825.2760 44.3775
942.3045 836.0280 47.1915
1187.0875 1152.8060 47.1915
1076.8000 930.3920 -63.4400
934.1280 758.6160 -20.6000
925.6800 792.2640 25.6000
934.1280 804.5520 28.8160
1202.3200 1151.6240 28.8160
1056.6325 904.4240 -66.0825
928.8635 758.6020 -10.5025
922.5275 770.9680 10.3025
928.8635 780.1840 12.7145
1212.3725 1147.0780 12.7145
1216.0000 1140.0000 0.0000
1040.0000 884.0000 -67.0000
1040.0000 1082.0000 146.0000
1040.0000 1082.0000 146.0000
1040.0000 1082.0000 146.0000
1212.3725 1126.4960 -10.5025
1025.1315 864.6580 -66.0825
1031.4675 1068.1120 145.2825
1025.1315 1058.8960 142.8705
1056.6325 1099.6620 142.8705
1202.3200 1106.6880 -20.6000
1009.7520 844.6240 -63.4400
1018.2000 1040.6560 137.4400
1009.7520 1028.3680 134.2240
1076.8000 1115.1360 134.2240
1187.0875 1081.9320 -30.1275
994.3505 824.7860 -59.2375
1001.7425 1003.2440 123.9875
994.3505 992.4920 121.1735
1099.2575 1128.2540 121.1735
1167.9200 1053.5840 -38.9200
979.4160 806.0320 -53.6400
983.6400 959.4880 106.4400
979.4160 953.3440 104.8320
1122.7600 1138.8480 104.8320
1146.0625 1023.0000 -46.8125
965.4375 789.2500 -46.8125
965.4375 913.0000 86.3125
965.4375 913.0000 86.3125
1146.0625 1146.7500 86.3125
1122.7600 991.5360 -53.6400
952.9040 775.3280 -38.9200
948.6800 867.3920 65.1200
952.9040 873.5360 66.7280
1167.9200 1151.7920 66.7280
1099.2575 960.5480 -59.2375
942.3045 765.1540 -30.1275
934.9125 826.2760 44.3775
942.3045 837.0280 47.1915
1187.0875 1153.8060 47.1915
1076.8000 931.3920 -63.4400
934.1280 759.6160 -20.6000
925.6800 793.2640 25.6000
934.1280 805.5520 28.8160
1202.3200 1152.6240 28.8160
1056.6325 905.4240 -66.0825
928.8635 759.6020 -10.5025
922.5275 771.9680 10.3025
928.8635 781.1840 12.7145
1212.3725 1148.0780 12.7145
1216.0000 1140.0000 0.0000
1040.0000 885.0000 -67.0000
1040.0000 973.0000 147.0000
1040.0000 973.0000 147.0000
1040.0000 973.0000 147.0000
1212.3725 1130.9745 -10.5430
1025.1315 866.1935 -66.0870
1031.4675 961.7015 146.2590
1025.1315 952.5215 143.8470
1056.6325 993.1785 143.8470
1202.3200 1113.8160 -20.6640
1009.7520 847.4480 -63.4560
1018.2000 941.3520 138.3520
1009.7520 929.1120 135.1360
1076.8000 1015.6480 135.1360
1187.0875 1090.2015 -30.2010
994.3505 829.3245 -59.2690
1001.7425 914.5705 124.8030
994.3505 903.8605 121.9890
1099.2575 1039.2595 121.9890
1167.9200 1061.8080 -38.9920
979.4160 812.3840 -53.6880
983.6400 883.9760 107.1360
979.4160 877.8560 105.5280
1122.7600 1062.8640 105.5280
1146.0625 1030.3125 -46.8750
965.4375 797.1875 -46.8750
965.4375 852.1875 86.8750
965.4375 852.1875 86.8750
1146.0625 1085.3125 86.8750
1122.7600 997.3920 -53.6880
952.9040 784.2960 -38.9920
948.6800 821.8240 65.5440
952.9040 827.9440 67.1520
1167.9200 1105.4560 67.1520
1099.2575 964.7235 -59.2690
942.3045 774.2705 -30.2010
934.9125 795.5045 44.6670
942.3045 806.2145 47.4810
1187.0875 1122.1455 47.4810
1076.8000 933.9840 -63.4560
934.1280 767.6720 -20.6640
925.6800 775.8480 25.7680
934.1280 788.0880 28.9840
1202.3200 1134.2320 28.9840
1056.6325 906.8505 -66.0870
928.8635 765.0615 -10.5430
922.5275 765.4735 10.3710
928.8635 774.6535 12.7830
1212.3725 1140.5665 12.7830
1216.0000 1141.0000 0.0000
1040.0000 886.0000 -67.0000
1040.0000 974.0000 147.0000
1040.0000 974.0000 147.0000
1040.0000 974.0000 147.0000
1212.3725 1131.9745 -10.5430
1025.1315 867.1935 -66.0870
1031.4675 962.7015 146.2590
1025.1315 953.5215 143.8470
1056.6325 994.1785 143.8470
1202.3200 1114.8160 -20.6640
1009.7520 848.4480 -63.4560
1018.2000 942.3520 138.3520
1009.7520 930.1120 135.1360
1076.8000 1016.6480 135.1360
1187.0875 1091.2015 -30.2010
994.3505 830.3245 -59.2690
1001.7425 915.5705 124.8030
994.3505 904.8605 121.9890
1099.2575 1040.2595 121.9890
1167.9200 1062.8080 -38.9920
979.4160 813.3840 -53.6880
983.6400 884.9760 107.1360
979.4160 878.8560 105.5280
1122.7600 1063.8640 105.5280
1146.0625 1031.3125 -46.8750
965.4375 798.1875 -46.8750
965.4375 853.1875 86.8750
965.4375 853.1875 86.8750
1146.0625 1086.3125 86.8750
1122.7600 998.3920 -53.6880
952.9040 785.2960 -38.9920
948.6800 822.8240 65.5440
952.9040 828.9440 67.1520
1167.9200 1106.4560 67.1520
1099.2575 965.7235 -59.2690
942.3045 775.2705 -30.2010
934.9125 796.5045 44.6670
942.3045 807.2145 47.4810
1187.0875 1123.1455 47.4810
1076.8000 934.9840 -63.4560
934.1280 768.6720 -20.6640
925.6800 776.8480 25.7680
934.1280 789.0880 28.9840
1202.3200 1135.2320 28.9840
1056.6325 907.8505 -66.0870
928.8635 766.0615 -10.5430
922.5275 766.4735 10.3710
928.8635 775.6535 12.7830
1212.3725 1141.5665 12.7830
1216.0000 1142.0000 0.0000
1040.0000 887.0000 -67.0000
1040.0000 975.0000 147.0000
1040.0000 975.0000 147.0000
1040.0000 975.0000 147.0000
1212.3725 1132.9790 -10.5430
1025.1315 868.1250 -66.0870
1031.4675 963.6330 146.2590
1025.1315 954.4530 143.8470
1056.6325 995.2190 143.8470
1202.3200 1115.8320 -20.6640
1009.7520 849.2800 -63.4560
1018.2000 943.1840 138.3520
1009.7520 930.9440 135.1360
1076.8000 1017.7120 135.1360
1187.0875 1092.2330 -30.2010
994.3505 831.0350 -59.2690
1001.7425 916.2810 124.8030
994.3505 905.5710 121.9890
1099.2575 1041.3330 121.9890
1167.9200 1063.8560 -38.9920
979.4160 813.9600 -53.6880
983.6400 885.5520 107.1360
979.4160 879.4320 105.5280
1122.7600 1064.9360 105.5280
1146.0625 1032.3750 -46.8750
965.4375 798.6250 -46.8750
965.4375 853.6250 86.8750
965.4375 853.6250 86.8750
1146.0625 1087.3750 86.8750
1122.7600 999.4640 -53.6880
952.9040 785.6000 -38.9920
948.6800 823.1280 65.5440
952.9040 829.2480 67.1520
1167.9200 1107.5040 67.1520
1099.2575 966.7970 -59.2690
942.3045 775.4550 -30.2010
934.9125 796.6890 44.6670
942.3045 807.3990 47.4810
1187.0875 1124.1770 47.4810
1076.8000 936.0480 -63.4560
934.1280 768.7600 -20.6640
925.6800 776.9360 25.7680
934.1280 789.1760 28.9840
1202.3200 1136.2480 28.9840
1056.6325 908.8910 -66.0870
928.8635 766.0850 -10.5430
922.5275 766.4970 10.3710
928.8635 775.6770 12.7830
1212.3725 1142.5710 12.7830
1216.0000 1143.0000 0.0000
1040.0000 955.0000 -67.0000
1040.0000 976.0000 147.0000
1040.0000 976.0000 147.0000
1040.0000 976.0000 147.0000
1212.3725 1138.5685 -10.5430
1025.1315 934.5505 -66.0870
1031.4675 961.9195 146.2590
1025.1315 955.1515 143.8470
1056.6325 995.9175 143.8470
1202.3200 1128.0880 -20.6640
1009.7520 911.3840 -63.4560
1018.2000 939.8960 138.3520
1009.7520 930.8720 135.1360
1076.8000 1017.6400 135.1360
1187.0875 1112.6295 -30.2010
994.3505 886.6735 -59.2690
1001.7425 912.3565 124.8030
994.3505 904.4605 121.9890
1099.2575 1040.2225 121.9890
1167.9200 1093.2640 -38.9920
979.4160 861.5920 -53.6880
983.6400 881.7280 107.1360
979.4160 877.2160 105.5280
1122.7600 1062.7200 105.5280
1146.0625 1071.0625 -46.8750
965.4375 837.3125 -46.8750
965.4375 850.4375 86.8750
965.4375 850.4375 86.8750
1146.0625 1084.1875 86.8750
1122.7600 1047.0960 -53.6880
952.9040 815.0080 -38.9920
948.6800 820.9120 65.5440
952.9040 825.4240 67.1520
1167.9200 1103.6800 67.1520
1099.2575 1022.4355 -59.2690
942.3045 795.8515 -30.2010
934.9125 795.5785 44.6670
942.3045 803.4745 47.4810
1187.0875 1120.2525 47.4810
1076.8000 998.1520 -63.4560
934.1280 781.0160 -20.6640
925.6800 776.8640 25.7680
934.1280 785.8880 28.9840
1202.3200 1132.9600 28.9840
1056.6325 975.3165 -66.0870
928.8635 771.6745 -10.5430
922.5275 767.1955 10.3710
928.8635 773.9635 12.7830
1212.3725 1140.8575 12.7830
1216.0000 1144.0000 0.0000
1040.0000 956.0000 -67.0000
1040.0000 977.0000 147.0000
1040.0000 977.0000 147.0000
1040.0000 977.0000 147.0000
1212.3725 1139.5685 -10.5430
1025.1315 935.5505 -66.0870
1031.4675 962.9195 146.2590
1025.1315 956.1515 143.8470
1056.6325 996.9175 143.8470
1202.3200 1129.0880 -20.6640
1009.7520 912.3840 -63.4560
1018.2000 940.8960 138.3520
1009.7520 931.8720 135.1360
1076.8000 1018.6400 135.1360
1187.0875 1113.6295 -30.2010
994.3505 887.6735 -59.2690
1001.7425 913.3565 124.8030
994.3505 905.4605 121.9890
1099.2575 1041.2225 121.9890
1167.9200 1094.2640 -38.9920
979.4160 862.5920 -53.6880
983.6400 882.7280 107.1360
979.4160 878.2160 105.5280
1122.7600 1063.7200 105.5280
1146.0625 1072.0625 -46.8750
965.4375 838.3125 -46.8750
965.4375 851.4375 86.8750
965.4375 851.4375 86.8750
1146.0625 1085.1875 86.8750
1122.7600 1048.0960 -53.6880
952.9040 816.0080 -38.9920
948.6800 821.9120 65.5440
952.9040 826.4240 67.1520
1167.9200 1104.6800 67.1520
1099.2575 1023.4355 -59.2690
942.3045 796.8515 -30.2010
934.9125 796.5785 44.6670
942.3045 804.4745 47.4810
1187.0875 1121.2525 47.4810
1076.8000 999.1520 -63.4560
934.1280 782.0160 -20.6640
925.6800 777.8640 25.7680
934.1280 786.8880 28.9840
1202.3200 1133.9600 28.9840
1056.6325 976.3165 -66.0870
928.8635 772.6745 -10.5430
922.5275 768.1955 10.3710
928.8635 774.9635 12.7830
1212.3725 1141.8575 12.7830
1216.0000 1144.0000 0.0000
1040.0000 957.0000 -67.0000
1040.0000 977.0000 147.0000
1040.0000 977.0000 147.0000
1040.0000 977.0000 147.0000
1212.3725 1139.6370 -10.5430
1025.1315 936.5270 -66.0870
1031.4675 962.8790 146.2590
1025.1315 956.1470 143.8470
1056.6325 996.9130 143.8470
1202.3200 1129.2560 -20.6640
1009.7520 913.2960 -63.4560
1018.2000 940.8320 138.3520
1009.7520 931.8560 135.1360
1076.8000 1018.6240 135.1360
1187.0875 1113.9190 -30.2010
994.3505 888.4890 -59.2690
1001.7425 913.2830 124.8030
994.3505 905.4290 121.9890
1099.2575 1041.1910 121.9890
1167.9200 1094.6880 -38.9920
979.4160 863.2880 -53.6880
983.6400 882.6560 107.1360
979.4160 878.1680 105.5280
1122.7600 1063.6720 105.5280
1146.0625 1072.6250 -46.8750
965.4375 838.8750 -46.8750
965.4375 851.3750 86.8750
965.4375 851.3750 86.8750
1146.0625 1085.1250 86.8750
1122.7600 1048.7920 -53.6880
952.9040 816.4320 -38.9920
948.6800 821.8640 65.5440
952.9040 826.3520 67.1520
1167.9200 1104.6080 67.1520
1099.2575 1024.2510 -59.2690
942.3045 797.1410 -30.2010
934.9125 796.5470 44.6670
942.3045 804.4010 47.4810
1187.0875 1121.1790 47.4810
1076.8000 1000.0640 -63.4560
934.1280 782.1840 -20.6640
925.6800 777.8480 25.7680
934.1280 786.8240 28.9840
1202.3200 1133.8960 28.9840
1056.6325 977.2930 -66.0870
928.8635 772.7430 -10.5430
922.5275 768.1910 10.3710
928.8635 774.9230 12.7830
1212.3725 1141.8170 12.7830
1216.0000 1145.0000 0.0000
1040.0000 958.0000 -67.0000
1040.0000 978.0000 147.0000
1040.0000 978.0000 147.0000
1040.0000 978.0000 147.0000
1212.3725 1140.6370 -10.5430
1025.1315 937.5270 -66.0870
1031.4675 963.8790 146.2590
1025.1315 957.1470 143.8470
1056.6325 997.9130 143.8470
1202.3200 1130.2560 -20.6640
1009.7520 914.2960 -63.4560
1018.2000 941.8320 138.3520
1009.7520 932.8560 135.1360
1076.8000 1019.6240 135.1360
1187.0875 1114.9190 -30.2010
994.3505 889.4890 -59.2690
1001.7425 914.2830 124.8030
994.3505 906.4290 121.9890
1099.2575 1042.1910 121.9890
1167.9200 1095.6880 -38.9920
979.4160 864.2880 -53.6880
983.6400 883.6560 107.1360
979.4160 879.1680 105.5280
1122.7600 1064.6720 105.5280
1146.0625 1073.6250 -46.8750
965.4375 839.8750 -46.8750
965.4375 852.3750 86.8750
965.4375 852.3750 86.8750
1146.0625 1086.1250 86.8750
1122.7600 1049.7920 -53.6880
952.9040 817.4320 -38.9920
948.6800 822.8640 65.5440
952.9040 827.3520 67.1520
1167.9200 1105.6080 67.1520
1099.2575 1025.2510 -59.2690
942.3045 798.1410 -30.2010
934.9125 797.5470 44.6670
942.3045 805.4010 47.4810
1187.0875 1122.1790 47.4810
1076.8000 1001.0640 -63.4560
934.1280 783.1840 -20.6640
925.6800 778.8480 25.7680
934.1280 787.8240 28.9840
1202.3200 1134.8960 28.9840
1056.6325 978.2930 -66.0870
928.8635 773.7430 -10.5430
922.5275 769.1910 10.3710
928.8635 775.9230 12.7830
1212.3725 1142.8170 12.7830
1216.0000 1146.0000 0.0000
1040.0000 959.0000 -67.0000
1040.0000 979.0000 147.0000
1040.0000 979.0000 147.0000
1040.0000 979.0000 147.0000
1212.3725 1141.6370 -10.5430
1025.1315 938.5270 -66.0870
1031.4675 964.8790 146.2590
1025.1315 958.1470 143.8470
1056.6325 998.9130 143.8470
1202.3200 1131.2560 -20.6640
1009.7520 915.2960 -63.4560
1018.2000 942.8320 138.3520
1009.7520 933.8560 135.1360
1076.8000 1020.6240 135.1360
1187.0875 1115.9190 -30.2010
994.3505 890.4890 -59.2690
1001.7425 915.2830 124.8030
994.3505 907.4290 121.9890
1099.2575 1043.1910 121.9890
1167.9200 1096.6880 -38.9920
979.4160 865.2880 -53.6880
983.6400 884.6560 107.1360
979.4160 880.1680 105.5280
1122.7600 1065.6720 105.5280
1146.0625 1074.6250 -46.8750
965.4375 840.8750 -46.8750
965.4375 853.3750 86.8750
965.4375 853.3750 86.8750
1146.0625 1087.1250 86.8750
1122.7600 1050.7920 -53.6880
952.9040 818.4320 -38.9920
948.6800 823.8640 65.5440
952.9040 828.3520 67.1520
1167.9200 1106.6080 67.1520
1099.2575 1026.2510 -59.2690
942.3045 799.1410 -30.2010
934.9125 798.5470 44.6670
942.3045 806.4010 47.4810
1187.0875 1123.1790 47.4810
1076.8000 1002.0640 -63.4560
934.1280 784.1840 -20.6640
925.6800 779.8480 25.7680
934.1280 788.8240 28.9840
1202.3200 1135.8960 28.9840
1056.6325 979.2930 -66.0870
928.8635 774.7430 -10.5430
922.5275 770.1910 10.3710
928.8635 776.9230 12.7830
1212.3725 1143.8170 12.7830
1216.0000 1147.0000 0.0000
1040.0000 960.0000 -67.0000
1040.0000 980.0000 147.0000
1040.0000 980.0000 147.0000
1040.0000 980.0000 147.0000
1212.3725 1142.6415 -10.5430
1025.1315 939.4585 -66.0870
1031.4675 965.8105 146.2590
1025.1315 959.0785 143.8470
1056.6325 999.9535 143.8470
1202.3200 1132.2720 -20.6640
1009.7520 916.1280 -63.4560
1018.2000 943.6640 138.3520
1009.7520 934.6880 135.1360
1076.8000 1021.6880 135.1360
1187.0875 1116.9505 -30.2010
994.3505 891.1995 -59.2690
1001.7425 915.9935 124.8030
994.3505 908.1395 121.9890
1099.2575 1044.2645 121.9890
1167.9200 1097.7360 -38.9920
979.4160 865.8640 -53.6880
983.6400 885.2320 107.1360
979.4160 880.7440 105.5280
1122.7600 1066.7440 105.5280
1146.0625 1075.6875 -46.8750
965.4375 841.3125 -46.8750
965.4375 853.8125 86.8750
965.4375 853.8125 86.8750
1146.0625 1088.1875 86.8750
1122.7600 1051.8640 -53.6880
952.9040 818.7360 -38.9920
948.6800 824.1680 65.5440
952.9040 828.6560 67.1520
1167.9200 1107.6560 67.1520
1099.2575 1027.3245 -59.2690
942.3045 799.3255 -30.2010
934.9125 798.7315 44.6670
942.3045 806.5855 47.4810
1187.0875 1124.2105 47.4810
1076.8000 1003.1280 -63.4560
934.1280 784.2720 -20.6640
925.6800 779.9360 25.7680
934.1280 788.9120 28.9840
1202.3200 1136.9120 28.9840
1056.6325 980.3335 -66.0870
928.8635 774.7665 -10.5430
922.5275 770.2145 10.3710
928.8635 776.9465 12.7830
1212.3725 1144.8215 12.7830
1216.0000 1147.0000 0.0000
1040.0000 961.0000 -67.0000
1040.0000 1071.0000 147.0000
1040.0000 1071.0000 147.0000
1040.0000 1071.0000 147.0000
1212.3725 1139.0200 -10.5430
1025.1315 940.0940 -66.0870
1031.4675 1054.7000 146.2590
1025.1315 1048.0040 143.8470
1056.6325 1088.7700 143.8470
1202.3200 1126.6000 -20.6640
1009.7520 915.7520 -63.4560
1018.2000 1026.7600 138.3520
1009.7520 1017.8320 135.1360
1076.8000 1104.6000 135.1360
1187.0875 1110.5200 -30.2010
994.3505 889.4380 -59.2690
1001.7425 990.4200 124.8030
994.3505 982.6080 121.9890
1099.2575 1118.3700 121.9890
1167.9200 1091.5600 -38.9920
979.4160 862.6160 -53.6880
983.6400 948.9200 107.1360
979.4160 944.4560 105.5280
1122.7600 1129.9600 105.5280
1146.0625 1070.5000 -46.8750
965.4375 836.7500 -46.8750
965.4375 905.5000 86.8750
965.4375 905.5000 86.8750
1146.0625 1139.2500 86.8750
1122.7600 1048.1200 -53.6880
952.9040 813.3040 -38.9920
948.6800 863.4000 65.5440
952.9040 867.8640 67.1520
1167.9200 1146.1200 67.1520
1099.2575 1025.2000 -59.2690
942.3045 793.7420 -30.2010
934.9125 825.8600 44.6670
942.3045 833.6720 47.4810
1187.0875 1150.4500 47.4810
1076.8000 1002.5200 -63.4560
934.1280 779.5280 -20.6640
925.6800 796.1200 25.7680
934.1280 805.0480 28.9840
1202.3200 1152.1200 28.9840
1056.6325 980.8600 -66.0870
928.8635 772.1260 -10.5430
922.5275 777.4200 10.3710
928.8635 784.1160 12.7830
1212.3725 1151.0100 12.7830
1216.0000 1148.0000 0.0000
1040.0000 962.0000 -67.0000
1040.0000 1072.0000 147.0000
1040.0000 1072.0000 147.0000
1040.0000 1072.0000 147.0000
1212.3680 1140.8705 -10.5430
1025.2000 928.1475 -66.0870
1031.5360 1042.7535 146.2590
1025.2000 1036.0575 143.8470
1056.5920 1097.4245 143.8470
1202.3040 1130.6240 -20.6640
1009.9200 885.0000 -63.4560
1018.3680 996.0080 138.3520
1009.9200 987.0800 135.1360
1076.7360 1117.6960 135.1360
1187.0560 1117.4735 -30.2010
994.6400 835.7225 -59.2690
1002.0320 936.7045 124.8030
994.6400 928.8925 121.9890
1099.1840 1133.2615 121.9890
1167.8720 1101.6320 -38.9920
979.8400 783.4800 -53.6880
984.0640 869.7840 107.1360
979.8400 865.3200 105.5280
1122.6880 1144.5680 105.5280
1146.0000 1083.3125 -46.8750
966.0000 731.4375 -46.8750
966.0000 800.1875 86.8750
966.0000 800.1875 86.8750
1146.0000 1152.0625 86.8750
1122.6880 1062.7280 -53.6880
953.6000 682.7600 -38.9920
949.3760 732.8560 65.5440
953.6000 737.3200 67.1520
1167.8720 1156.1920 67.1520
1099.1840 1040.0915 -59.2690
943.1200 640.6125 -30.2010
935.7280 672.7305 44.6670
943.1200 680.5425 47.4810
1187.0560 1157.4035 47.4810
1076.7360 1015.6160 -63.4560
935.0400 608.1600 -20.6640
926.5920 624.7520 25.7680
935.0400 633.6800 28.9840
1202.3040 1156.1440 28.9840
1056.5920 989.5145 -66.0870
929.8400 588.5675 -10.5430
923.5040 593.8615 10.3710
929.8400 600.5575 12.7830
1212.3680 1152.8605 12.7830
1216.0000 1149.0000 0.0000
1040.0000 963.0000 -67.0000
1040.0000 1073.0000 147.0000
1040.0000 1073.0000 147.0000
1040.0000 1073.0000 147.0000
1212.3680 1141.8705 -10.5430
1025.2000 929.1475 -66.0870
1031.5360 1043.7535 146.2590
1025.2000 1037.0575 143.8470
1056.5920 1098.4245 143.8470
1202.3040 1131.6240 -20.6640
1009.9200 886.0000 -63.4560
1018.3680 997.0080 138.3520
1009.9200 988.0800 135.1360
1076.7360 1118.6960 135.1360
1187.0560 1118.4735 -30.2010
994.6400 836.7225 -59.2690
1002.0320 937.7045 124.8030
994.6400 929.8925 121.9890
1099.1840 1134.2615 121.9890
1167.8720 1102.6320 -38.9920
979.8400 784.4800 -53.6880
984.0640 870.7840 107.1360
979.8400 866.3200 105.5280
1122.6880 1145.5680 105.5280
1146.0000 1084.3125 -46.8750
966.0000 732.4375 -46.8750
966.0000 801.1875 86.8750
966.0000 801.1875 86.8750
1146.0000 1153.0625 86.8750
1122.6880 1063.7280 -53.6880
953.6000 683.7600 -38.9920
949.3760 733.8560 65.5440
953.6000 738.3200 67.1520
1167.8720 1157.1920 67.1520
1099.1840 1041.0915 -59.2690
943.1200 641.6125 -30.2010
935.7280 673.7305 44.6670
943.1200 681.5425 47.4810
1187.0560 1158.4035 47.4810
1076.7360 1016.6160 -63.4560
935.0400 609.1600 -20.6640
926.5920 625.7520 25.7680
935.0400 634.6800 28.9840
1202.3040 1157.1440 28.9840
1056.5920 990.5145 -66.0870
929.8400 589.5675 -10.5430
923.5040 594.8615 10.3710
929.8400 601.5575 12.7830
1212.3680 1153.8605 12.7830
1216.0000 1150.0000 0.0000
1040.0000 964.0000 -67.0000
1040.0000 1074.0000 147.0000
1040.0000 1074.0000 147.0000
1040.0000 1074.0000 147.0000
1212.3680 1142.8750 -10.5430
1025.2000 930.0790 -66.0870
1031.5360 1044.6850 146.2590
1025.2000 1037.9890 143.8470
1056.5920 1099.4650 143.8470
1202.3040 1132.6400 -20.6640
1009.9200 886.8320 -63.4560
1018.3680 997.8400 138.3520
1009.9200 988.9120 135.1360
1076.7360 1119.7600 135.1360
1187.0560 1119.5050 -30.2010
994.6400 837.4330 -59.2690
1002.0320 938.4150 124.8030
994.6400 930.6030 121.9890
1099.1840 1135.3350 121.9890
1167.8720 1103.6800 -38.9920
979.8400 785.0560 -53.6880
984.0640 871.3600 107.1360
979.8400 866.8960 105.5280
1122.6880 1146.6400 105.5280
1146.0000 1085.3750 -46.8750
966.0000 732.8750 -46.8750
966.0000 801.6250 86.8750
966.0000 801.6250 86.8750
1146.0000 1154.1250 86.8750
1122.6880 1064.8000 -53.6880
953.6000 684.0640 -38.9920
949.3760 734.1600 65.5440
953.6000 738.6240 67.1520
1167.8720 1158.2400 67.1520
1099.1840 1042.1650 -59.2690
943.1200 641.7970 -30.2010
935.7280 673.9150 44.6670
943.1200 681.7270 47.4810
1187.0560 1159.4350 47.4810
1076.7360 1017.6800 -63.4560
935.0400 609.2480 -20.6640
926.5920 625.8400 25.7680
935.0400 634.7680 28.9840
1202.3040 1158.1600 28.9840
1056.5920 991.5550 -66.0870
929.8400 589.5910 -10.5430
923.5040 594.8850 10.3710
929.8400 601.5810 12.7830
1212.3680 1154.8650 12.7830
1216.0000 1150.0000 0.0000
1040.0000 965.0000 -67.0000
1040.0000 1075.0000 147.0000
1040.0000 1075.0000 147.0000
1040.0000 1075.0000 147.0000
1212.3680 1142.8985 -10.5430
1025.2000 931.1195 -66.0870
1031.5360 1045.6895 146.2590
1025.2000 1039.0295 143.8470
1056.5920 1100.3965 143.8470
1202.3040 1132.7280 -20.6640
1009.9200 887.8960 -63.4560
1018.3680 998.8560 138.3520
1009.9200 989.9760 135.1360
1076.7360 1120.5920 135.1360
1187.0560 1119.6895 -30.2010
994.6400 838.5065 -59.2690
1002.0320 939.4465 124.8030
994.6400 931.6765 121.9890
1099.1840 1136.0455 121.9890
1167.8720 1103.9840 -38.9920
979.8400 786.1280 -53.6880
984.0640 872.4080 107.1360
979.8400 867.9680 105.5280
1122.6880 1147.2160 105.5280
1146.0000 1085.8125 -46.8750
966.0000 733.9375 -46.8750
966.0000 802.6875 86.8750
966.0000 802.6875 86.8750
1146.0000 1154.5625 86.8750
1122.6880 1065.3760 -53.6880
953.6000 685.1120 -38.9920
949.3760 735.2320 65.5440
953.6000 739.6720 67.1520
1167.8720 1158.5440 67.1520
1099.1840 1042.8755 -59.2690
943.1200 642.8285 -30.2010
935.7280 674.9885 44.6670
943.1200 682.7585 47.4810
1187.0560 1159.6195 47.4810
1076.7360 1018.5120 -63.4560
935.0400 610.2640 -20.6640
926.5920 626.9040 25.7680
935.0400 635.7840 28.9840
1202.3040 1158.2480 28.9840
1056.5920 992.4865 -66.0870
929.8400 590.5955 -10.5430
923.5040 595.9255 10.3710
929.8400 602.5855 12.7830
1212.3680 1154.8885 12.7830
1216.0000 1151.0000 0.0000
1040.0000 966.0000 -67.0000
1040.0000 1076.0000 147.0000
1040.0000 1076.0000 147.0000
1040.0000 1076.0000 147.0000
1212.3680 1143.8985 -10.5430
1025.2000 932.1195 -66.0870
1031.5360 1046.6895 146.2590
1025.2000 1040.0295 143.8470
1056.5920 1101.3965 143.8470
1202.3040 1133.7280 -20.6640
1009.9200 888.8960 -63.4560
1018.3680 999.8560 138.3520
1009.9200 990.9760 135.1360
1076.7360 1121.5920 135.1360
1187.0560 1120.6895 -30.2010
994.6400 839.5065 -59.2690
1002.0320 940.4465 124.8030
994.6400 932.6765 121.9890
1099.1840 1137.0455 121.9890
1167.8720 1104.9840 -38.9920
979.8400 787.1280 -53.6880
984.0640 873.4080 107.1360
979.8400 868.9680 105.5280
1122.6880 1148.2160 105.5280
1146.0000 1086.8125 -46.8750
966.0000 734.9375 -46.8750
966.0000 803.6875 86.8750
966.0000 803.6875 86.8750
1146.0000 1155.5625 86.8750
1122.6880 1066.3760 -53.6880
953.6000 686.1120 -38.9920
949.3760 736.2320 65.5440
953.6000 740.6720 67.1520
1167.8720 1159.5440 67.1520
1099.1840 1043.8755 -59.2690
943.1200 643.8285 -30.2010
935.7280 675.9885 44.6670
943.1200 683.7585 47.4810
1187.0560 1160.6195 47.4810
1076.7360 1019.5120 -63.4560
935.0400 611.2640 -20.6640
926.5920 627.9040 25.7680
935.0400 636.7840 28.9840
1202.3040 1159.2480 28.9840
1056.5920 993.4865 -66.0870
929.8400 591.5955 -10.5430
923.5040 596.9255 10.3710
929.8400 603.5855 12.7830
1212.3680 1155.8885 12.7830
1216.0000 1152.0000 0.0000
1040.0000 549.0000 -66.0000
1040.0000 1077.0000 147.0000
1040.0000 1077.0000 147.0000
1040.0000 1077.0000 147.0000
1212.3680 1116.2700 -10.4745
1025.2000 524.8740 -65.1105
1031.5360 1064.5500 146.2185
1025.2000 1042.8420 143.8425
1056.5920 1104.3180 143.8425
1202.3040 1064.5200 -20.4960
1009.9200 508.5120 -62.5440
1018.3680 1027.4400 138.2880
1009.9200 998.4960 135.1200
1076.7360 1129.3440 135.1200
1187.0560 1000.7100 -29.9115
994.6400 499.3380 -58.4535
1002.0320 971.8800 124.7295
994.6400 946.5540 121.9575
1099.1840 1151.2860 121.9575
1167.8720 928.8000 -38.5680
979.8400 496.7760 -52.9920
984.0640 904.0800 107.0640
979.8400 889.6080 105.4800
1122.6880 1169.3520 105.4800
1146.0000 852.7500 -46.3125
966.0000 500.2500 -46.3125
966.0000 830.2500 86.8125
966.0000 830.2500 86.8125
1146.0000 1182.7500 86.8125
1122.6880 776.5200 -52.9920
953.6000 509.1840 -38.5680
949.3760 756.6000 65.4960
953.6000 771.0720 67.0800
1167.8720 1190.6880 67.0800
1099.1840 704.0700 -58.4535
943.1200 523.0020 -29.9115
935.7280 689.3400 44.6355
943.1200 714.6660 47.4075
1187.0560 1192.3740 47.4075
1076.7360 639.3600 -62.5440
935.0400 541.1280 -20.4960
926.5920 634.6800 25.7520
935.0400 663.6240 28.9200
1202.3040 1187.0160 28.9200
1056.5920 586.3500 -65.1105
929.8400 562.9860 -10.4745
923.5040 598.8300 10.3665
929.8400 620.5380 12.7425
1212.3680 1173.8220 12.7425
1216.0000 1153.0000 0.0000
1040.0000 550.0000 -66.0000
1040.0000 1078.0000 147.0000
1040.0000 1078.0000 147.0000
1040.0000 1078.0000 147.0000
1212.3680 1116.7615 -10.4745
1025.2000 533.6145 -65.1105
1031.5360 1073.2905 146.2185
1025.2000 1051.5825 143.8425
1056.5920 1100.7415 143.8425
1202.3040 1063.7120 -20.4960
1009.9200 528.4960 -62.5440
1018.3680 1047.4240 138.2880
1009.9200 1018.4800 135.1200
1076.7360 1123.1120 135.1200
1187.0560 998.1505 -29.9115
994.6400 533.0515 -58.4535
1002.0320 1005.5935 124.7295
994.6400 980.2675 121.9575
1099.1840 1143.9805 121.9575
1167.8720 924.3760 -38.5680
979.8400 545.6880 -52.9920
984.0640 952.9920 107.0640
979.8400 938.5200 105.4800
1122.6880 1162.2160 105.4800
1146.0000 846.6875 -46.3125
966.0000 564.8125 -46.3125
966.0000 894.8125 86.8125
966.0000 894.8125 86.8125
1146.0000 1176.6875 86.8125
1122.6880 769.3840 -52.9920
953.6000 588.8320 -38.5680
949.3760 836.2480 65.4960
953.6000 850.7200 67.0800
1167.8720 1186.2640 67.0800
1099.1840 696.7645 -58.4535
943.1200 616.1535 -29.9115
935.7280 782.4915 44.6355
943.1200 807.8175 47.4075
1187.0560 1189.8145 47.4075
1076.7360 633.1280 -62.5440
935.0400 645.1840 -20.4960
926.5920 738.7360 25.7520
935.0400 767.6800 28.9200
1202.3040 1186.2080 28.9200
1056.5920 582.7735 -65.1105
929.8400 674.3305 -10.4745
923.5040 710.1745 10.3665
929.8400 731.8825 12.7425
1212.3680 1174.3135 12.7425
1216.0000 1154.0000 0.0000
1040.0000 551.0000 -66.0000
1040.0000 1079.0000 147.0000
1040.0000 1079.0000 147.0000
1040.0000 1079.0000 147.0000
1212.3680 1117.7615 -10.4745
1025.2000 534.6145 -65.1105
