ply
format ascii 1.0
comment VCGLIB generated
element vertex 1391
property float x
property float y
property float z
property float nx
property float ny
property float nz
element face 0
property list uchar int vertex_indices
end_header
1375.481 1263.512 -12.00006 0 0 0 
1388.307 1293.425 1.855938 0 0 0 
1337.61 1193.521 19.58393 0 0 0 
1374.781 1258.175 -12.52806 0 0 0 
1372.927 1254.689 -11.80806 0 0 0 
1377.94 1270.712 -11.80806 0 0 0 
1384.074 1286.29 4.127937 0 0 0 
1336.535 1185.537 18.43193 0 0 0 
1372.416 1248.049 -12.22406 0 0 0 
1369.943 1243.4 -11.26406 0 0 0 
1380.615 1277.504 -11.26406 0 0 0 
1378.675 1277.13 6.671937 0 0 0 
1336.158 1177.556 16.68793 0 0 0 
1368.814 1234.436 -11.25606 0 0 0 
1366.65 1230.369 -10.41606 0 0 0 
1383.348 1283.73 -10.41606 0 0 0 
1372.481 1266.479 9.343936 0 0 0 
1336.384 1169.926 14.49593 0 0 0 
1364.404 1218.641 -9.792064 0 0 0 
1363.168 1216.317 -9.312065 0 0 0 
1385.984 1289.229 -9.312062 0 0 0 
1365.865 1254.87 11.99994 0 0 0 
1337.115 1162.995 11.99993 0 0 0 
1359.615 1201.966 -8.000065 0 0 0 
1359.615 1201.966 -8.000065 0 0 0 
1388.365 1293.841 -8.000062 0 0 0 
1359.2 1242.838 14.49594 0 0 0 
1338.257 1157.111 9.343933 0 0 0 
1354.877 1185.714 -6.048065 0 0 0 
1356.113 1188.038 -6.528065 0 0 0 
1390.337 1297.406 -6.528062 0 0 0 
1352.856 1230.917 16.68793 0 0 0 
1339.713 1152.621 6.671934 0 0 0 
1350.617 1171.188 -4.104065 0 0 0 
1352.781 1175.255 -4.944065 0 0 0 
1391.743 1299.764 -4.944062 0 0 0 
1347.207 1219.641 18.43193 0 0 0 
1341.386 1149.874 4.127934 0 0 0 
1347.265 1159.692 -2.336066 0 0 0 
1349.738 1164.34 -3.296066 0 0 0 
1392.426 1300.756 -3.296062 0 0 0 
1342.625 1209.543 19.58393 0 0 0 
1343.18 1149.218 1.855934 0 0 0 
1345.25 1152.528 -0.912066 0 0 0 
1347.104 1156.014 -1.632066 0 0 0 
1392.23 1300.221 -1.632062 0 0 0 
1391 1298 -6.198275e-05 0 0 0 
1339.981 1202.025 19.99993 0 0 0 
1375.981 1264.379 -12.00006 0 0 0 
1375.981 1264.379 -12.00006 0 0 0 
1375.981 1264.379 -12.00006 0 0 0 
1388.321 1293.444 1.855938 0 0 0 
1338.096 1194.431 19.58393 0 0 0 
1375.249 1259.055 -12.52806 0 0 0 
1373.412 1255.6 -11.80806 0 0 0 
1378.427 1271.514 -11.80806 0 0 0 
1384.126 1286.364 4.127937 0 0 0 
1336.983 1186.481 18.43193 0 0 0 
1372.84 1248.952 -12.22406 0 0 0 
1370.391 1244.345 -11.26406 0 0 0 
1381.063 1278.217 -11.26406 0 0 0 
1378.783 1277.285 6.671937 0 0 0 
1336.55 1178.524 16.68793 0 0 0 
1369.185 1235.369 -11.25606 0 0 0 
1367.042 1231.338 -10.41606 0 0 0 
1383.74 1284.336 -10.41606 0 0 0 
1372.657 1266.735 9.343936 0 0 0 
1336.708 1170.911 14.49593 0 0 0 
1364.716 1219.606 -9.792064 0 0 0 
1363.492 1217.303 -9.312065 0 0 0 
1386.308 1289.719 -9.312062 0 0 0 
1366.115 1255.24 11.99994 0 0 0 
1337.365 1163.99 11.99993 0 0 0 
1359.865 1202.962 -8.000065 0 0 0 
1359.865 1202.962 -8.000065 0 0 0 
1388.615 1294.212 -8.000062 0 0 0 
1359.524 1243.327 14.49594 0 0 0 
1338.433 1158.111 9.343933 0 0 0 
1355.065 1186.735 -6.048065 0 0 0 
1356.289 1189.039 -6.528065 0 0 0 
1390.513 1297.663 -6.528062 0 0 0 
1353.248 1231.522 16.68793 0 0 0 
1339.821 1153.623 6.671934 0 0 0 
1350.746 1172.227 -4.104065 0 0 0 
1352.889 1176.258 -4.944065 0 0 0 
1391.851 1299.92 -4.944062 0 0 0 
1347.655 1220.353 18.43193 0 0 0 
1341.438 1150.876 4.127934 0 0 0 
1347.341 1160.735 -2.336066 0 0 0 
1349.79 1165.342 -3.296066 0 0 0 
1392.478 1300.83 -3.296062 0 0 0 
1343.11 1210.345 19.58393 0 0 0 
1343.195 1150.218 1.855934 0 0 0 
1345.282 1153.56 -0.912066 0 0 0 
1347.119 1157.015 -1.632066 0 0 0 
1392.245 1300.241 -1.632062 0 0 0 
1390 1196 -6.207017e-05 0 0 0 
1340.481 1202.891 19.99993 0 0 0 
1376.481 1265.245 -12.00006 0 0 0 
1376.481 1265.245 -12.00006 0 0 0 
1376.481 1265.245 -12.00006 0 0 0 
1387.358 1193.866 1.855938 0 0 0 
1338.623 1199.403 19.58393 0 0 0 
1375.722 1260.325 -12.52806 0 0 0 
1373.939 1260.573 -11.80806 0 0 0 
1378.844 1265.369 -11.80806 0 0 0 
1383.266 1193.43 4.127937 0 0 0 
1337.495 1193.785 18.43193 0 0 0 
1373.28 1251.318 -12.22406 0 0 0 
1370.903 1251.649 -11.26406 0 0 0 
1381.343 1261.857 -11.26406 0 0 0 
1378.075 1194.291 6.671937 0 0 0 
1337.016 1186.7 16.68793 0 0 0 
1369.587 1239.225 -11.25606 0 0 0 
1367.508 1239.514 -10.41606 0 0 0 
1383.843 1255.486 -10.41606 0 0 0 
1372.137 1196.048 9.343936 0 0 0 
1337.104 1178.816 14.49593 0 0 0 
1365.076 1225.042 -9.792064 0 0 0 
1363.888 1225.208 -9.312064 0 0 0 
1386.208 1247.032 -9.312062 0 0 0 
1365.803 1198.298 11.99994 0 0 0 
1337.678 1170.798 11.99993 0 0 0 
1360.178 1209.77 -8.000065 0 0 0 
1360.178 1209.77 -8.000065 0 0 0 
1388.303 1237.27 -8.000062 0 0 0 
1359.424 1200.64 14.49594 0 0 0 
1338.657 1163.312 9.343933 0 0 0 
1355.325 1194.405 -6.048065 0 0 0 
1356.513 1194.24 -6.528065 0 0 0 
1389.993 1226.976 -6.528062 0 0 0 
1353.351 1202.672 16.68793 0 0 0 
1339.96 1157.023 6.671934 0 0 0 
1350.949 1179.947 -4.104065 0 0 0 
1353.028 1179.658 -4.944065 0 0 0 
1391.143 1216.926 -4.944062 0 0 0 
1347.935 1203.993 18.43193 0 0 0 
1341.506 1152.598 4.127934 0 0 0 
1347.481 1167.395 -2.336066 0 0 0 
1349.858 1167.064 -3.296066 0 0 0 
1391.618 1207.896 -3.296062 0 0 0 
1343.528 1204.199 19.58393 0 0 0 
1343.213 1150.702 1.855934 0 0 0 
1345.354 1157.746 -0.912066 0 0 0 
1347.137 1157.498 -1.632066 0 0 0 
1391.282 1200.662 -1.632062 0 0 0 
1390 1196 -6.207017e-05 0 0 0 
1342.481 1206.355 19.99993 0 0 0 
1376.981 1266.111 -12.00006 0 0 0 
1376.981 1266.111 -12.00006 0 0 0 
1376.981 1266.111 -12.00006 0 0 0 
1387.475 1194.063 1.855938 0 0 0 
1340.574 1202.851 19.58393 0 0 0 
1376.129 1261.099 -12.52806 0 0 0 
1374.418 1261.471 -11.80806 0 0 0 
1379.323 1266.158 -11.80806 0 0 0 
1383.57 1193.941 4.127937 0 0 0 
1339.311 1197.098 18.43193 0 0 0 
1373.608 1252.054 -12.22406 0 0 0 
1371.327 1252.552 -11.26406 0 0 0 
1381.767 1262.528 -11.26406 0 0 0 
1378.618 1195.199 6.671937 0 0 0 
1338.631 1189.787 16.68793 0 0 0 
1369.848 1239.966 -11.25606 0 0 0 
1367.852 1240.401 -10.41606 0 0 0 
1384.187 1256.01 -10.41606 0 0 0 
1372.949 1197.406 9.343936 0 0 0 
1338.472 1181.61 14.49593 0 0 0 
1365.28 1225.82 -9.792064 0 0 0 
1364.14 1226.068 -9.312064 0 0 0 
1386.46 1247.396 -9.312062 0 0 0 
1366.897 1200.13 11.99994 0 0 0 
1338.772 1173.255 11.99993 0 0 0 
1360.334 1210.603 -8.000065 0 0 0 
1360.334 1210.603 -8.000065 0 0 0 
1388.459 1237.478 -8.000062 0 0 0 
1360.792 1202.938 14.49594 0 0 0 
1339.469 1165.415 9.343933 0 0 0 
1355.441 1195.302 -6.048065 0 0 0 
1356.581 1195.053 -6.528065 0 0 0 
1390.061 1227.046 -6.528062 0 0 0 
1354.966 1205.396 16.68793 0 0 0 
1340.503 1158.778 6.671934 0 0 0 
1351.03 1180.905 -4.104065 0 0 0 
1353.026 1180.469 -4.944065 0 0 0 
1391.141 1216.891 -4.944062 0 0 0 
1349.751 1207.074 18.43193 0 0 0 
1341.81 1154.036 4.127934 0 0 0 
1347.533 1168.397 -2.336066 0 0 0 
1349.814 1167.9 -3.296066 0 0 0 
1391.574 1207.804 -3.296062 0 0 0 
1345.479 1207.538 19.58393 0 0 0 
1343.33 1151.88 1.855934 0 0 0 
1345.38 1158.766 -0.912066 0 0 0 
1347.09 1158.394 -1.632066 0 0 0 
1391.235 1200.577 -1.632062 0 0 0 
1390 1197 -6.207017e-05 0 0 0 
1342.481 1206.355 19.99993 0 0 0 
1382.481 1275.637 -12.00006 0 0 0 
1382.481 1275.637 -12.00006 0 0 0 
1382.481 1275.637 -12.00006 0 0 0 
1387.252 1194.654 1.855938 0 0 0 
1340.549 1202.767 19.58393 0 0 0 
1381.5 1270.396 -12.52806 0 0 0 
1379.789 1270.733 -11.80806 0 0 0 
1384.694 1275.529 -11.80806 0 0 0 
1383.218 1194.243 4.127937 0 0 0 
1339.223 1196.882 18.43193 0 0 0 
1378.624 1260.726 -12.22406 0 0 0 
1376.343 1261.175 -11.26406 0 0 0 
1386.783 1271.383 -11.26406 0 0 0 
1378.213 1195.314 6.671937 0 0 0 
1338.458 1189.414 16.68793 0 0 0 
1374.333 1247.703 -11.25606 0 0 0 
1372.338 1248.096 -10.41606 0 0 0 
1388.673 1264.068 -10.41606 0 0 0 
1372.553 1197.417 9.343936 0 0 0 
1338.208 1181.08 14.49593 0 0 0 
1369.108 1232.402 -9.792064 0 0 0 
1367.968 1232.626 -9.312064 0 0 0 
1390.288 1254.45 -9.312062 0 0 0 
1366.553 1200.097 11.99994 0 0 0 
1338.428 1172.597 11.99993 0 0 0 
1363.428 1215.899 -8.000065 0 0 0 
1363.428 1215.899 -8.000065 0 0 0 
1391.553 1243.399 -8.000062 0 0 0 
1360.528 1202.905 14.49594 0 0 0 
1339.073 1164.681 9.343933 0 0 0 
1357.773 1199.269 -6.048065 0 0 0 
1358.913 1199.045 -6.528065 0 0 0 
1392.393 1231.781 -6.528062 0 0 0 
1354.793 1205.386 16.68793 0 0 0 
1340.098 1158.047 6.671934 0 0 0 
1352.623 1183.589 -4.104065 0 0 0 
1354.618 1183.196 -4.944065 0 0 0 
1392.733 1220.464 -4.944062 0 0 0 
1349.663 1207.09 18.43193 0 0 0 
1341.458 1153.411 4.127934 0 0 0 
1348.457 1169.933 -2.336066 0 0 0 
1350.738 1169.484 -3.296066 0 0 0 
1392.498 1210.316 -3.296062 0 0 0 
1345.454 1207.563 19.58393 0 0 0 
1343.107 1151.49 1.855934 0 0 0 
1345.756 1159.379 -0.9120659 0 0 0 
1347.467 1159.042 -1.632066 0 0 0 
1391.612 1202.206 -1.632062 0 0 0 
1390 1197 -6.207017e-05 0 0 0 
1342.981 1207.221 19.99993 0 0 0 
1382.981 1276.503 -12.00006 0 0 0 
1382.981 1276.503 -12.00006 0 0 0 
1382.981 1276.503 -12.00006 0 0 0 
1387.266 1194.057 1.855938 0 0 0 
1341.035 1213.062 19.58393 0 0 0 
1381.968 1280.66 -12.52806 0 0 0 
1380.275 1281.028 -11.80806 0 0 0 
1385.18 1270.782 -11.80806 0 0 0 
1383.27 1192.125 4.127937 0 0 0 
1339.671 1220.842 18.43193 0 0 0 
1379.048 1284.645 -12.22406 0 0 0 
1376.791 1285.135 -11.26406 0 0 0 
1387.231 1263.327 -11.26406 0 0 0 
1378.321 1191.155 6.671937 0 0 0 
1338.85 1230.044 16.68793 0 0 0 
1374.704 1288.297 -11.25606 0 0 0 
1372.73 1288.726 -10.41606 0 0 0 
1389.065 1254.604 -10.41606 0 0 0 
1372.729 1191.098 9.343936 0 0 0 
1338.532 1240.154 14.49593 0 0 0 
1369.42 1291.454 -9.792064 0 0 0 
1368.292 1291.699 -9.312064 0 0 0 
1390.612 1245.075 -9.312062 0 0 0 
1366.803 1191.905 11.99994 0 0 0 
1338.678 1250.655 11.99993 0 0 0 
1363.678 1293.957 -8.000064 0 0 0 
1363.678 1293.957 -8.000064 0 0 0 
1391.803 1235.207 -8.000062 0 0 0 
1360.852 1193.53 14.49594 0 0 0 
1339.249 1261.033 9.343933 0 0 0 
1357.961 1295.643 -6.048065 0 0 0 
1359.089 1295.397 -6.528065 0 0 0 
1392.569 1225.461 -6.528062 0 0 0 
1355.185 1195.922 16.68793 0 0 0 
1340.206 1270.772 6.671934 0 0 0 
1352.752 1296.351 -4.104065 0 0 0 
1354.726 1295.922 -4.944065 0 0 0 
1392.841 1216.304 -4.944062 0 0 0 
1350.111 1199.033 18.43193 0 0 0 
1341.51 1279.357 4.127934 0 0 0 
1348.533 1295.921 -2.336066 0 0 0 
1350.79 1295.43 -3.296066 0 0 0 
1392.55 1208.198 -3.296062 0 0 0 
1345.94 1202.816 19.58393 0 0 0 
1343.121 1286.271 1.855934 0 0 0 
1345.788 1294.191 -0.9120659 0 0 0 
1347.481 1293.823 -1.632066 0 0 0 
1391.626 1201.609 -1.632062 0 0 0 
1390 1222 -6.207017e-05 0 0 0 
1343.481 1208.087 19.99993 0 0 0 
1383.481 1277.369 -12.00006 0 0 0 
1383.481 1277.369 -12.00006 0 0 0 
1383.481 1277.369 -12.00006 0 0 0 
1387.28 1218.494 1.855938 0 0 0 
1341.521 1212.891 19.58393 0 0 0 
1382.436 1281.358 -12.52806 0 0 0 
1380.761 1280.857 -11.80806 0 0 0 
1385.666 1273.336 -11.80806 0 0 0 
1383.322 1215.015 4.127937 0 0 0 
1340.119 1220.017 18.43193 0 0 0 
1379.472 1284.979 -12.22406 0 0 0 
1377.239 1284.311 -11.26406 0 0 0 
1387.679 1268.303 -11.26406 0 0 0 
1378.429 1211.729 6.671937 0 0 0 
1339.242 1228.885 16.68793 0 0 0 
1375.075 1288.151 -11.25606 0 0 0 
1373.122 1287.567 -10.41606 0 0 0 
1389.457 1262.52 -10.41606 0 0 0 
1372.905 1208.802 9.343936 0 0 0 
1338.856 1238.915 14.49593 0 0 0 
1369.732 1290.795 -9.792064 0 0 0 
1368.616 1290.461 -9.312064 0 0 0 
1390.936 1256.237 -9.312062 0 0 0 
1367.053 1206.401 11.99994 0 0 0 
1338.928 1249.526 11.99993 0 0 0 
1363.928 1292.827 -8.000064 0 0 0 
1363.928 1292.827 -8.000064 0 0 0 
1392.053 1249.702 -8.000062 0 0 0 
1361.176 1204.691 14.49594 0 0 0 
1339.425 1260.138 9.343933 0 0 0 
1358.149 1294.168 -6.048065 0 0 0 
1359.265 1294.502 -6.528065 0 0 0 
1392.745 1243.166 -6.528062 0 0 0 
1355.577 1203.838 16.68793 0 0 0 
1340.314 1270.172 6.671934 0 0 0 
1352.881 1294.737 -4.104065 0 0 0 
1354.834 1295.321 -4.944065 0 0 0 
1392.949 1236.878 -4.944062 0 0 0 
1350.559 1204.009 18.43193 0 0 0 
1341.562 1279.047 4.127934 0 0 0 
1348.609 1294.453 -2.336066 0 0 0 
1350.842 1295.12 -3.296066 0 0 0 
1392.602 1231.088 -3.296062 0 0 0 
1346.426 1205.37 19.58393 0 0 0 
1343.135 1286.183 1.855934 0 0 0 
1345.82 1293.234 -0.9120659 0 0 0 
1347.495 1293.735 -1.632066 0 0 0 
1391.64 1226.046 -1.632062 0 0 0 
1390 1222 -6.207017e-05 0 0 0 
1343.481 1208.087 19.99993 0 0 0 
1366.981 1248.79 -13.00006 0 0 0 
1366.981 1248.79 -13.00006 0 0 0 
1366.981 1248.79 -13.00006 0 0 0 
1387.948 1219.647 1.896438 0 0 0 
1341.595 1213.088 19.58843 0 0 0 
1366.323 1253.519 -13.50456 0 0 0 
1364.649 1253.018 -12.78456 0 0 0 
1369.554 1245.388 -12.78456 0 0 0 
1384.378 1216.828 4.191937 0 0 0 
1340.383 1220.643 18.44793 0 0 0 
1364.424 1259.083 -13.13606 0 0 0 
1362.191 1258.415 -12.17606 0 0 0 
1372.631 1242.175 -12.17606 0 0 0 
1379.642 1213.798 6.745437 0 0 0 
1339.761 1230.075 16.71943 0 0 0 
1361.62 1265.135 -12.07156 0 0 0 
1359.666 1264.551 -11.23156 0 0 0 
1376.001 1239.141 -11.23156 0 0 0 
1374.093 1210.812 9.415936 0 0 0 
1339.648 1240.711 14.54393 0 0 0 
1358.248 1271.328 -10.48806 0 0 0 
1357.132 1270.994 -10.00807 0 0 0 
1379.452 1236.274 -10.00806 0 0 0 
1368.084 1208.125 12.06244 0 0 0 
1339.959 1251.875 12.06243 0 0 0 
1354.647 1277.314 -8.562565 0 0 0 
1354.647 1277.314 -8.562565 0 0 0 
1382.772 1233.564 -8.562563 0 0 0 
1361.968 1205.991 14.54393 0 0 0 
1340.613 1262.892 9.415934 0 0 0 
1351.153 1282.747 -6.472065 0 0 0 
1352.269 1283.081 -6.952065 0 0 0 
1385.749 1231.001 -6.952063 0 0 0 
1356.096 1204.665 16.71943 0 0 0 
1341.527 1273.088 6.745434 0 0 0 
1348.104 1287.279 -4.393566 0 0 0 
1350.058 1287.863 -5.233565 0 0 0 
1388.173 1228.573 -5.233562 0 0 0 
1350.823 1204.403 18.44794 0 0 0 
1342.618 1281.788 4.191934 0 0 0 
1345.837 1290.563 -2.504066 0 0 0 
1348.07 1291.231 -3.464066 0 0 0 
1389.83 1226.271 -3.464062 0 0 0 
1346.5 1205.458 19.58843 0 0 0 
1343.803 1288.317 1.896434 0 0 0 
1344.69 1292.253 -0.980566 0 0 0 
1346.365 1292.754 -1.700566 0 0 0 
1390.51 1224.084 -1.700562 0 0 0 
1390 1223 -6.207017e-05 0 0 0 
1345.481 1211.551 19.99993 0 0 0 
1367.481 1249.656 -13.00006 0 0 0 
1367.481 1249.656 -13.00006 0 0 0 
1367.481 1249.656 -13.00006 0 0 0 
1388.065 1220.826 1.896438 0 0 0 
1343.546 1216.427 19.58843 0 0 0 
1366.731 1254.22 -13.50456 0 0 0 
1365.128 1253.808 -12.78456 0 0 0 
1370.033 1246.287 -12.78456 0 0 0 
1384.682 1218.267 4.191937 0 0 0 
1342.199 1223.724 18.44793 0 0 0 
1364.752 1259.635 -13.13606 0 0 0 
1362.615 1259.085 -12.17606 0 0 0 
1373.055 1243.078 -12.17606 0 0 0 
1380.184 1215.553 6.745437 0 0 0 
1341.377 1232.799 16.71943 0 0 0 
1361.88 1265.555 -12.07156 0 0 0 
1360.011 1265.074 -11.23156 0 0 0 
1376.346 1240.027 -11.23156 0 0 0 
1374.905 1212.914 9.415937 0 0 0 
1341.016 1243.008 14.54393 0 0 0 
1358.452 1271.633 -10.48806 0 0 0 
1357.384 1271.358 -10.00807 0 0 0 
1379.704 1237.134 -10.00806 0 0 0 
1369.178 1210.581 12.06244 0 0 0 
1341.053 1253.706 12.06243 0 0 0 
1354.803 1277.522 -8.562565 0 0 0 
1354.803 1277.522 -8.562565 0 0 0 
1382.928 1234.397 -8.562563 0 0 0 
1363.336 1208.784 14.54393 0 0 0 
1341.425 1264.25 9.415934 0 0 0 
1351.269 1282.876 -6.472065 0 0 0 
1352.337 1283.151 -6.952065 0 0 0 
1385.817 1231.814 -6.952063 0 0 0 
1357.712 1207.752 16.71943 0 0 0 
1342.069 1273.996 6.745434 0 0 0 
1348.186 1287.347 -4.393566 0 0 0 
1350.055 1287.828 -5.233565 0 0 0 
1388.17 1229.385 -5.233562 0 0 0 
1352.639 1207.716 18.44794 0 0 0 
1342.922 1282.299 4.191934 0 0 0 
1345.889 1290.589 -2.504066 0 0 0 
1348.026 1291.139 -3.464066 0 0 0 
1389.786 1227.107 -3.464062 0 0 0 
1348.451 1208.906 19.58843 0 0 0 
1343.92 1288.515 1.896434 0 0 0 
1344.715 1292.256 -0.980566 0 0 0 
1346.318 1292.668 -1.700566 0 0 0 
1390.463 1224.979 -1.700562 0 0 0 
1390 1223 -6.207017e-05 0 0 0 
1345.981 1212.417 19.99993 0 0 0 
1367.981 1250.522 -13.00006 0 0 0 
1367.981 1250.522 -13.00006 0 0 0 
1367.981 1250.522 -13.00006 0 0 0 
1388.083 1221.489 1.896438 0 0 0 
1343.964 1207.541 19.58843 0 0 0 
1367.13 1245.303 -13.50456 0 0 0 
1365.545 1244.922 -12.78456 0 0 0 
1370.56 1252.879 -12.78456 0 0 0 
1384.75 1220.629 4.191937 0 0 0 
1342.479 1200.644 18.44793 0 0 0 
1365.008 1236.513 -13.13606 0 0 0 
1362.895 1236.005 -12.17606 0 0 0 
1373.567 1252.941 -12.17606 0 0 0 
1380.324 1220.213 6.745437 0 0 0 
1341.479 1192.369 16.71943 0 0 0 
1361.962 1225.089 -12.07156 0 0 0 
1360.113 1224.644 -11.23156 0 0 0 
1376.811 1251.143 -11.23156 0 0 0 
1375.129 1220.035 9.415937 0 0 0 
1340.916 1183.361 14.54393 0 0 0 
1358.34 1211.965 -10.48806 0 0 0 
1357.284 1211.711 -10.00807 0 0 0 
1380.1 1247.919 -10.00806 0 0 0 
1369.49 1219.889 12.06244 0 0 0 
1340.74 1174.264 12.06243 0 0 0 
1354.49 1198.08 -8.562565 0 0 0 
1354.49 1198.08 -8.562565 0 0 0 
1383.24 1243.705 -8.562563 0 0 0 
1363.732 1219.569 14.54394 0 0 0 
1340.905 1165.723 9.415934 0 0 0 
1350.761 1184.369 -6.472065 0 0 0 
1351.817 1184.623 -6.952065 0 0 0 
1386.041 1238.935 -6.952063 0 0 0 
1358.177 1218.868 16.71943 0 0 0 
1341.362 1158.382 6.745434 0 0 0 
1347.499 1171.77 -4.393566 0 0 0 
1349.348 1172.214 -5.233566 0 0 0 
1388.31 1234.045 -5.233562 0 0 0 
1353.151 1217.58 18.44794 0 0 0 
1342.062 1152.885 4.191934 0 0 0 
1345.053 1161.217 -2.504066 0 0 0 
1347.166 1161.725 -3.464066 0 0 0 
1389.854 1229.469 -3.464062 0 0 0 
1348.978 1215.498 19.58843 0 0 0 
1342.958 1149.876 1.896434 0 0 0 
1343.771 1153.648 -0.9805661 0 0 0 
1345.355 1154.029 -1.700566 0 0 0 
1390.481 1225.642 -1.700562 0 0 0 
1390 1277 -6.207017e-05 0 0 0 
1346.481 1213.283 19.99993 0 0 0 
1368.481 1251.388 -13.00006 0 0 0 
1368.481 1251.388 -13.00006 0 0 0 
1368.481 1251.388 -13.00006 0 0 0 
1388.097 1274.244 1.896438 0 0 0 
1344.449 1206.196 19.58843 0 0 0 
1367.598 1245.871 -13.50456 0 0 0 
1366.031 1243.577 -12.78456 0 0 0 
1371.045 1257.42 -12.78456 0 0 0 
1384.802 1269.967 4.191937 0 0 0 
1342.927 1197.964 18.44793 0 0 0 
1365.432 1236.384 -13.13606 0 0 0 
1363.343 1233.325 -12.17606 0 0 0 
1374.015 1262.789 -12.17606 0 0 0 
1380.432 1264.437 6.745437 0 0 0 
1341.871 1189.079 16.71943 0 0 0 
1362.333 1224.03 -12.07156 0 0 0 
1360.505 1221.354 -11.23156 0 0 0 
1377.203 1267.455 -11.23156 0 0 0 
1375.305 1257.924 9.415937 0 0 0 
1341.24 1180.034 14.54393 0 0 0 
1358.652 1209.914 -10.48806 0 0 0 
1357.608 1208.385 -10.00807 0 0 0 
1380.424 1271.376 -10.00806 0 0 0 
1369.74 1250.697 12.06244 0 0 0 
1340.99 1171.322 12.06243 0 0 0 
1354.74 1195.138 -8.562565 0 0 0 
1354.74 1195.138 -8.562565 0 0 0 
1383.49 1274.513 -8.562563 0 0 0 
1364.056 1243.026 14.54394 0 0 0 
1341.081 1163.436 9.415934 0 0 0 
1350.949 1180.807 -6.472065 0 0 0 
1351.993 1182.336 -6.952065 0 0 0 
1386.217 1276.824 -6.952063 0 0 0 
1358.569 1235.18 16.71943 0 0 0 
1341.47 1156.868 6.745434 0 0 0 
1347.628 1168.024 -4.393566 0 0 0 
1349.456 1170.7 -5.233566 0 0 0 
1388.418 1278.269 -5.233562 0 0 0 
1353.599 1227.428 18.44794 0 0 0 
1342.114 1152.111 4.191934 0 0 0 
1345.129 1157.893 -2.504066 0 0 0 
1347.218 1160.951 -3.464066 0 0 0 
1389.906 1278.807 -3.464062 0 0 0 
1349.464 1220.039 19.58843 0 0 0 
1342.971 1149.657 1.896434 0 0 0 
1343.803 1151.517 -0.9805661 0 0 0 
1345.37 1153.811 -1.700566 0 0 0 
1390.495 1278.398 -1.700562 0 0 0 
1390 1277 -6.207017e-05 0 0 0 
1346.481 1213.283 19.99993 0 0 0 
1368.981 1252.254 -13.00006 0 0 0 
1368.981 1252.254 -13.00006 0 0 0 
1368.981 1252.254 -13.00006 0 0 0 
1388.077 1274.205 1.896438 0 0 0 
1344.447 1206.261 19.58843 0 0 0 
1368.086 1246.785 -13.50456 0 0 0 
1366.52 1244.491 -12.78456 0 0 0 
1371.534 1258.225 -12.78456 0 0 0 
1384.77 1269.895 4.191937 0 0 0 
1342.919 1198.118 18.44793 0 0 0 
1365.888 1237.342 -13.13606 0 0 0 
1363.799 1234.283 -12.17606 0 0 0 
1374.471 1263.515 -12.17606 0 0 0 
1380.395 1264.342 6.745437 0 0 0 
1341.855 1189.341 16.71943 0 0 0 
1362.741 1225.026 -12.07156 0 0 0 
1360.913 1222.35 -11.23156 0 0 0 
1377.611 1268.088 -11.23156 0 0 0 
1375.269 1257.814 9.415937 0 0 0 
1341.216 1180.417 14.54393 0 0 0 
1359 1210.94 -10.48806 0 0 0 
1357.956 1209.411 -10.00807 0 0 0 
1380.772 1271.907 -10.00806 0 0 0 
1369.709 1250.581 12.06244 0 0 0 
1340.959 1171.831 12.06243 0 0 0 
1355.022 1196.188 -8.562565 0 0 0 
1355.022 1196.188 -8.562565 0 0 0 
1383.772 1274.938 -8.562563 0 0 0 
1364.032 1242.913 14.54394 0 0 0 
1341.045 1164.07 9.415934 0 0 0 
1351.161 1181.87 -6.472065 0 0 0 
1352.205 1183.399 -6.952065 0 0 0 
1386.429 1277.143 -6.952063 0 0 0 
1358.553 1235.079 16.71943 0 0 0 
1341.433 1157.62 6.745434 0 0 0 
1347.773 1169.09 -4.393566 0 0 0 
1349.601 1171.766 -5.233566 0 0 0 
1388.563 1278.488 -5.233562 0 0 0 
1353.591 1227.35 18.44794 0 0 0 
1342.082 1152.967 4.191934 0 0 0 
1345.213 1158.95 -2.504066 0 0 0 
1347.302 1162.009 -3.464066 0 0 0 
1389.99 1278.937 -3.464062 0 0 0 
1349.461 1219.995 19.58843 0 0 0 
1342.951 1150.599 1.896434 0 0 0 
1343.837 1152.553 -0.9805661 0 0 0 
1345.404 1154.846 -1.700566 0 0 0 
1390.53 1278.452 -1.700562 0 0 0 
1390 1278 -6.207017e-05 0 0 0 
1346.981 1214.149 19.99993 0 0 0 
1369.481 1253.12 -13.00006 0 0 0 
1369.481 1253.12 -13.00006 0 0 0 
1369.481 1253.12 -13.00006 0 0 0 
1388.091 1275.201 1.896438 0 0 0 
1344.933 1207.13 19.58843 0 0 0 
1368.554 1247.66 -13.50456 0 0 0 
1367.006 1245.361 -12.78456 0 0 0 
1372.02 1259.095 -12.78456 0 0 0 
1384.822 1270.881 4.191937 0 0 0 
1343.367 1198.998 18.44793 0 0 0 
1366.312 1238.228 -13.13606 0 0 0 
1364.247 1235.163 -12.17606 0 0 0 
1374.919 1264.395 -12.17606 0 0 0 
1380.503 1265.313 6.745437 0 0 0 
1342.247 1190.236 16.71943 0 0 0 
1363.112 1225.926 -12.07156 0 0 0 
1361.305 1223.245 -11.23156 0 0 0 
1378.003 1268.983 -11.23156 0 0 0 
1375.445 1258.766 9.415937 0 0 0 
1341.54 1181.33 14.54393 0 0 0 
1359.312 1211.857 -10.48806 0 0 0 
1358.28 1210.324 -10.00807 0 0 0 
1381.096 1272.82 -10.00806 0 0 0 
1369.959 1251.514 12.06244 0 0 0 
1341.209 1172.764 12.06243 0 0 0 
1355.272 1197.121 -8.562565 0 0 0 
1355.272 1197.121 -8.562565 0 0 0 
1384.022 1275.871 -8.562563 0 0 0 
1364.356 1243.826 14.54394 0 0 0 
1341.221 1165.022 9.415934 0 0 0 
1351.349 1182.82 -6.472065 0 0 0 
1352.381 1184.352 -6.952065 0 0 0 
1386.605 1278.096 -6.952063 0 0 0 
1358.945 1235.974 16.71943 0 0 0 
1341.541 1158.591 6.745434 0 0 0 
1347.902 1170.056 -4.393566 0 0 0 
1349.709 1172.737 -5.233566 0 0 0 
1388.671 1279.459 -5.233562 0 0 0 
1354.039 1228.23 18.44794 0 0 0 
1342.134 1153.953 4.191934 0 0 0 
1345.289 1159.93 -2.504066 0 0 0 
1347.354 1162.995 -3.464066 0 0 0 
1390.042 1279.923 -3.464062 0 0 0 
1349.947 1220.865 19.58843 0 0 0 
1342.965 1151.595 1.896434 0 0 0 
1343.869 1153.544 -0.9805661 0 0 0 
1345.418 1155.843 -1.700566 0 0 0 
1390.544 1279.449 -1.700562 0 0 0 
1390 1278 -6.207017e-05 0 0 0 
1347.481 1215.015 19.99994 0 0 0 
1369.981 1253.986 -13.00006 0 0 0 
1369.981 1253.986 -13.00006 0 0 0 
1369.981 1253.986 -13.00006 0 0 0 
1388.105 1275.225 1.896438 0 0 0 
1345.419 1207.972 19.58843 0 0 0 
1369.022 1248.47 -13.50456 0 0 0 
1367.492 1246.203 -12.78456 0 0 0 
1372.506 1259.937 -12.78456 0 0 0 
1384.874 1270.971 4.191937 0 0 0 
1343.815 1199.774 18.44793 0 0 0 
1366.736 1238.962 -13.13606 0 0 0 
1364.695 1235.939 -12.17606 0 0 0 
1375.367 1265.171 -12.17606 0 0 0 
1380.611 1265.5 6.745437 0 0 0 
1342.639 1190.915 16.71943 0 0 0 
1363.483 1226.569 -12.07156 0 0 0 
1361.697 1223.924 -11.23156 0 0 0 
1378.395 1269.662 -11.23156 0 0 0 
1375.621 1259.071 9.415937 0 0 0 
1341.864 1181.891 14.54393 0 0 0 
1359.624 1212.397 -10.48806 0 0 0 
1358.604 1210.885 -10.00807 0 0 0 
1381.42 1273.381 -10.00806 0 0 0 
1370.209 1251.947 12.06244 0 0 0 
1341.459 1173.197 12.06243 0 0 0 
1355.522 1197.554 -8.562565 0 0 0 
1355.522 1197.554 -8.562565 0 0 0 
1384.272 1276.304 -8.562563 0 0 0 
1364.68 1244.387 14.54394 0 0 0 
1341.397 1165.327 9.415934 0 0 0 
1351.537 1183.145 -6.472065 0 0 0 
1352.557 1184.657 -6.952065 0 0 0 
1386.781 1278.401 -6.952063 0 0 0 
1359.337 1236.653 16.71943 0 0 0 
1341.649 1158.778 6.745434 0 0 0 
1348.031 1170.279 -4.393566 0 0 0 
1349.817 1172.924 -5.233566 0 0 0 
1388.779 1279.646 -5.233562 0 0 0 
1354.487 1229.006 18.44794 0 0 0 
1342.186 1154.043 4.191934 0 0 0 
1345.365 1160.061 -2.504066 0 0 0 
1347.406 1163.085 -3.464066 0 0 0 
1390.094 1280.013 -3.464062 0 0 0 
1350.433 1221.706 19.58843 0 0 0 
1342.979 1151.619 1.896434 0 0 0 
1343.901 1153.599 -0.9805661 0 0 0 
1345.432 1155.867 -1.700566 0 0 0 
1390.558 1279.473 -1.700562 0 0 0 
1390 1279 -6.207017e-05 0 0 0 
1347.981 1215.881 19.99994 0 0 0 
1383.481 1277.369 -13.00006 0 0 0 
1383.481 1277.369 -13.00006 0 0 0 
1383.481 1277.369 -13.00006 0 0 0 
1387.593 1275.309 1.896438 0 0 0 
1345.847 1208.741 19.58843 0 0 0 
1382.185 1271.333 -13.50456 0 0 0 
1380.672 1269.06 -12.78456 0 0 0 
1385.686 1282.794 -12.78456 0 0 0 
1384.094 1270.516 4.191937 0 0 0 
1344.055 1200.294 18.44793 0 0 0 
1379.016 1260.384 -13.13606 0 0 0 
1376.999 1257.354 -12.17606 0 0 0 
1387.671 1286.586 -12.17606 0 0 0 
1379.764 1264.816 6.745437 0 0 0 
1342.622 1191.101 16.71943 0 0 0 
1374.455 1245.832 -12.07156 0 0 0 
1372.69 1243.181 -11.23156 0 0 0 
1389.388 1288.919 -11.23156 0 0 0 
1374.861 1258.403 9.415937 0 0 0 
1341.564 1181.724 14.54393 0 0 0 
1368.984 1228.985 -10.48806 0 0 0 
1367.976 1227.47 -10.00806 0 0 0 
1390.792 1289.967 -10.00806 0 0 0 
1369.647 1251.473 12.06244 0 0 0 
1340.897 1172.723 12.06243 0 0 0 
1363.084 1211.152 -8.562565 0 0 0 
1363.084 1211.152 -8.562565 0 0 0 
1391.834 1289.902 -8.562562 0 0 0 
1364.38 1244.219 14.54394 0 0 0 
1340.637 1164.659 9.415934 0 0 0 
1357.237 1193.642 -6.472065 0 0 0 
1358.245 1195.157 -6.952065 0 0 0 
1392.469 1288.901 -6.952062 0 0 0 
1359.32 1236.839 16.71943 0 0 0 
1340.802 1158.094 6.745434 0 0 0 
1351.923 1177.763 -4.393565 0 0 0 
1353.688 1180.414 -5.233565 0 0 0 
1392.65 1287.136 -5.233562 0 0 0 
1354.727 1229.526 18.44794 0 0 0 
1341.406 1153.588 4.191934 0 0 0 
1347.625 1164.824 -2.504066 0 0 0 
1349.642 1167.854 -3.464066 0 0 0 
1392.33 1284.782 -3.464062 0 0 0 
1350.861 1222.475 19.58843 0 0 0 
1342.467 1151.703 1.896434 0 0 0 
1344.823 1156.133 -0.980566 0 0 0 
1346.336 1158.406 -1.700566 0 0 0 
1391.462 1282.012 -1.700562 0 0 0 
1390 1279 -6.207017e-05 0 0 0 
1347.981 1215.881 19.99994 0 0 0 
1383.981 1278.235 -13.00006 0 0 0 
1383.981 1278.235 -13.00006 0 0 0 
1383.981 1278.235 -13.00006 0 0 0 
1387.573 1275.274 1.896438 0 0 0 
1345.844 1208.737 19.58843 0 0 0 
1382.673 1272.178 -13.50456 0 0 0 
1381.161 1269.906 -12.78456 0 0 0 
1386.175 1283.64 -12.78456 0 0 0 
1384.062 1270.461 4.191937 0 0 0 
1344.047 1200.28 18.44793 0 0 0 
1379.472 1261.174 -13.13606 0 0 0 
1377.455 1258.144 -12.17606 0 0 0 
1388.127 1287.376 -12.17606 0 0 0 
1379.727 1264.752 6.745437 0 0 0 
1342.606 1191.074 16.71943 0 0 0 
1374.863 1246.538 -12.07156 0 0 0 
1373.098 1243.887 -11.23156 0 0 0 
1389.796 1289.625 -11.23156 0 0 0 
1374.825 1258.341 9.415937 0 0 0 
1341.54 1181.682 14.54393 0 0 0 
1369.332 1229.588 -10.48806 0 0 0 
1368.324 1228.073 -10.00806 0 0 0 
1391.14 1290.569 -10.00806 0 0 0 
1369.615 1251.418 12.06244 0 0 0 
1340.865 1172.668 12.06243 0 0 0 
1363.365 1211.64 -8.562565 0 0 0 
1363.365 1211.64 -8.562565 0 0 0 
1392.115 1290.39 -8.562562 0 0 0 
1364.356 1244.178 14.54394 0 0 0 
1340.601 1164.597 9.415934 0 0 0 
1357.449 1194.009 -6.472065 0 0 0 
1358.457 1195.524 -6.952065 0 0 0 
1392.681 1289.268 -6.952062 0 0 0 
1359.304 1236.812 16.71943 0 0 0 
1340.765 1158.03 6.745434 0 0 0 
1352.068 1178.014 -4.393565 0 0 0 
1353.833 1180.665 -5.233565 0 0 0 
1392.795 1287.387 -5.233562 0 0 0 
1354.719 1229.512 18.44794 0 0 0 
1341.374 1153.533 4.191934 0 0 0 
1347.709 1164.969 -2.504066 0 0 0 
1349.726 1167.999 -3.464066 0 0 0 
1392.414 1284.927 -3.464062 0 0 0 
1350.859 1222.471 19.58843 0 0 0 
1342.447 1151.668 1.896434 0 0 0 
1344.858 1156.193 -0.980566 0 0 0 
1346.37 1158.465 -1.700566 0 0 0 
1391.497 1282.071 -1.700562 0 0 0 
1390 1280 -6.207017e-05 0 0 0 
1348.481 1216.747 19.99994 0 0 0 
1384.481 1279.101 -13.00006 0 0 0 
1384.481 1279.101 -13.00006 0 0 0 
1384.481 1279.101 -13.00006 0 0 0 
1387.586 1275.663 1.896438 0 0 0 
1346.331 1218.854 19.58843 0 0 0 
1383.141 1282.3 -13.50456 0 0 0 
1381.646 1280.023 -12.78456 0 0 0 
1386.661 1279.042 -12.78456 0 0 0 
1384.114 1269.287 4.191937 0 0 0 
1344.495 1223.84 18.44793 0 0 0 
1379.896 1284.74 -13.13606 0 0 0 
1377.903 1281.704 -12.17606 0 0 0 
1388.575 1279.616 -12.17606 0 0 0 
1379.835 1261.471 6.745437 0 0 0 
1342.998 1231.051 16.71943 0 0 0 
1375.234 1286.521 -12.07156 0 0 0 
1373.49 1283.865 -11.23156 0 0 0 
1390.188 1280.598 -11.23156 0 0 0 
1375.001 1252.813 9.415937 0 0 0 
1341.864 1239.835 14.54393 0 0 0 
1369.644 1287.745 -10.48806 0 0 0 
1368.648 1286.226 -10.00806 0 0 0 
1391.464 1281.762 -10.00806 0 0 0 
1369.865 1243.914 12.06244 0 0 0 
1341.115 1249.539 12.06243 0 0 0 
1363.615 1288.51 -8.562565 0 0 0 
1363.615 1288.51 -8.562565 0 0 0 
1392.365 1282.885 -8.562562 0 0 0 
1364.68 1235.371 14.54394 0 0 0 
1340.777 1259.51 9.415934 0 0 0 
1357.637 1288.919 -6.472065 0 0 0 
1358.633 1290.437 -6.952065 0 0 0 
1392.857 1283.741 -6.952062 0 0 0 
1359.696 1227.784 16.71943 0 0 0 
1340.873 1269.094 6.745434 0 0 0 
1352.197 1289.072 -4.393565 0 0 0 
1353.941 1291.728 -5.233565 0 0 0 
1392.903 1284.105 -5.233562 0 0 0 
1355.167 1221.752 18.44794 0 0 0 
1341.426 1277.639 4.191934 0 0 0 
1347.785 1289.069 -2.504066 0 0 0 
1349.778 1292.105 -3.464066 0 0 0 
1392.466 1283.753 -3.464062 0 0 0 
1351.344 1217.873 19.58843 0 0 0 
1342.46 1284.492 1.896434 0 0 0 
1344.89 1289.012 -0.980566 0 0 0 
1346.385 1291.289 -1.700566 0 0 0 
1391.51 1282.46 -1.700562 0 0 0 
1390 1281 -6.207017e-05 0 0 0 
1348.981 1217.613 19.99994 0 0 0 
1384.981 1279.967 -13.00006 0 0 0 
1384.981 1279.967 -13.00006 0 0 0 
1384.981 1279.967 -13.00006 0 0 0 
1387.601 1276.664 1.896438 0 0 0 
1346.817 1219.655 19.58843 0 0 0 
1383.609 1283.106 -13.50456 0 0 0 
1382.133 1280.824 -12.78456 0 0 0 
1387.146 1279.953 -12.78456 0 0 0 
1384.166 1270.289 4.191937 0 0 0 
1344.943 1224.552 18.44793 0 0 0 
1380.32 1285.459 -13.13606 0 0 0 
1378.351 1282.416 -12.17606 0 0 0 
1389.023 1280.56 -12.17606 0 0 0 
1379.943 1262.473 6.745437 0 0 0 
1343.39 1231.656 16.71943 0 0 0 
1375.605 1287.132 -12.07156 0 0 0 
1373.882 1284.47 -11.23156 0 0 0 
1390.58 1281.566 -11.23156 0 0 0 
1375.177 1253.814 9.415937 0 0 0 
1342.188 1240.324 14.54393 0 0 0 
1369.956 1288.237 -10.48806 0 0 0 
1368.972 1286.716 -10.00806 0 0 0 
1391.788 1282.748 -10.00806 0 0 0 
1370.115 1244.909 12.06244 0 0 0 
1341.365 1249.909 12.06243 0 0 0 
1363.865 1288.881 -8.562564 0 0 0 
1363.865 1288.881 -8.562564 0 0 0 
1392.615 1283.881 -8.562562 0 0 0 
1365.004 1236.356 14.54394 0 0 0 
1340.953 1259.766 9.415934 0 0 0 
1357.825 1289.173 -6.472065 0 0 0 
1358.809 1290.694 -6.952065 0 0 0 
1393.033 1284.742 -6.952062 0 0 0 
1360.088 1228.752 16.71943 0 0 0 
1340.981 1269.249 6.745434 0 0 0 
1352.326 1289.222 -4.393565 0 0 0 
1354.049 1291.884 -5.233565 0 0 0 
1393.011 1285.108 -5.233562 0 0 0 
1355.615 1222.696 18.44794 0 0 0 
1341.478 1277.713 4.191934 0 0 0 
1347.861 1289.137 -2.504066 0 0 0 
1349.83 1292.179 -3.464066 0 0 0 
1392.518 1284.755 -3.464062 0 0 0 
1351.831 1218.783 19.58843 0 0 0 
1342.474 1284.512 1.896434 0 0 0 
1344.922 1289.026 -0.980566 0 0 0 
1346.398 1291.308 -1.700566 0 0 0 
1391.524 1283.46 -1.700562 0 0 0 
1390 1281 -6.207017e-05 0 0 0 
1349.481 1218.479 19.99994 0 0 0 
1385.481 1280.833 -13.00006 0 0 0 
1385.481 1280.833 -13.00006 0 0 0 
1385.481 1280.833 -13.00006 0 0 0 
1387.615 1276.684 1.896438 0 0 0 
1347.302 1220.566 19.58843 0 0 0 
1384.077 1283.985 -13.50456 0 0 0 
1382.619 1281.735 -12.78456 0 0 0 
1387.633 1280.754 -12.78456 0 0 0 
1384.218 1270.363 4.191937 0 0 0 
1345.391 1225.495 18.44793 0 0 0 
1380.744 1286.361 -13.13606 0 0 0 
1378.799 1283.36 -12.17606 0 0 0 
1389.471 1281.272 -12.17606 0 0 0 
1380.051 1262.629 6.745437 0 0 0 
1343.782 1232.625 16.71943 0 0 0 
1375.976 1288.065 -12.07156 0 0 0 
1374.274 1285.439 -11.23156 0 0 0 
1390.972 1282.172 -11.23156 0 0 0 
1375.353 1254.071 9.415937 0 0 0 
1342.512 1241.309 14.54393 0 0 0 
1370.268 1289.201 -10.48806 0 0 0 
1369.296 1287.701 -10.00806 0 0 0 
1392.112 1283.237 -10.00806 0 0 0 
1370.365 1245.28 12.06244 0 0 0 
1341.615 1250.905 12.06243 0 0 0 
1364.115 1289.876 -8.562564 0 0 0 
1364.115 1289.876 -8.562564 0 0 0 
1392.865 1284.251 -8.562562 0 0 0 
1365.328 1236.845 14.54394 0 0 0 
1341.129 1260.767 9.415934 0 0 0 
1358.013 1290.194 -6.472065 0 0 0 
1358.985 1291.695 -6.952065 0 0 0 
1393.209 1284.999 -6.952062 0 0 0 
1360.48 1229.358 16.71943 0 0 0 
1341.089 1270.252 6.745434 0 0 0 
1352.455 1290.261 -4.393565 0 0 0 
1354.157 1292.886 -5.233565 0 0 0 
1393.119 1285.263 -5.233562 0 0 0 
1356.063 1223.407 18.44794 0 0 0 
1341.53 1278.715 4.191934 0 0 0 
1347.937 1290.18 -2.504066 0 0 0 
1349.882 1293.181 -3.464066 0 0 0 
1392.57 1284.829 -3.464062 0 0 0 
1352.317 1219.584 19.58843 0 0 0 
1342.489 1285.513 1.896434 0 0 0 
1344.954 1290.058 -0.980566 0 0 0 
1346.412 1292.309 -1.700566 0 0 0 
1391.539 1283.48 -1.700562 0 0 0 
1390 1282 -6.207017e-05 0 0 0 
1349.481 1218.479 19.99994 0 0 0 
1364.981 1245.326 -14.00006 0 0 0 
1364.981 1245.326 -14.00006 0 0 0 
1364.981 1245.326 -14.00006 0 0 0 
1388.445 1279.098 1.936938 0 0 0 
1347.395 1220.685 19.59294 0 0 0 
1364.059 1249.308 -14.48106 0 0 0 
1362.6 1247.022 -13.76106 0 0 0 
1367.614 1246.15 -13.76106 0 0 0 
1385.53 1273.548 4.255938 0 0 0 
1345.719 1226 18.46393 0 0 0 
1362.048 1253.963 -14.04807 0 0 0 
1360.103 1250.914 -13.08807 0 0 0 
1370.775 1249.058 -13.08806 0 0 0 
1381.558 1266.054 6.818937 0 0 0 
1344.428 1233.67 16.75093 0 0 0 
1359.258 1259.077 -12.88706 0 0 0 
1357.556 1256.409 -12.04706 0 0 0 
1374.254 1253.505 -12.04706 0 0 0 
1376.829 1257.324 9.487937 0 0 0 
1343.496 1242.942 14.59193 0 0 0 
1356 1264.44 -11.18406 0 0 0 
1355.028 1262.916 -10.70407 0 0 0 
1377.844 1258.948 -10.70406 0 0 0 
1371.647 1248.062 12.12494 0 0 0 
1342.897 1253.062 12.12493 0 0 0 
1352.584 1269.841 -9.125066 0 0 0 
1352.584 1269.841 -9.125066 0 0 0 
1381.334 1264.841 -9.125063 0 0 0 
1366.312 1238.974 14.59194 0 0 0 
1342.605 1263.276 9.487934 0 0 0 
1349.321 1275.067 -6.896066 0 0 0 
1350.293 1276.592 -7.376065 0 0 0 
1384.517 1270.64 -7.376062 0 0 0 
1361.126 1230.766 16.75093 0 0 0 
1342.596 1272.83 6.818933 0 0 0 
1346.52 1279.908 -4.683066 0 0 0 
1348.222 1282.576 -5.523066 0 0 0 
1387.184 1275.8 -5.523062 0 0 0 
1356.391 1224.144 18.46394 0 0 0 
1342.842 1280.972 4.255934 0 0 0 
1344.493 1284.151 -2.672066 0 0 0 
1346.438 1287.2 -3.632066 0 0 0 
1389.126 1279.776 -3.632062 0 0 0 
1352.409 1219.813 19.59294 0 0 0 
1343.319 1286.946 1.936934 0 0 0 
1343.55 1287.586 -1.049066 0 0 0 
1345.008 1289.872 -1.769066 0 0 0 
1390.134 1282.024 -1.769062 0 0 0 
1390 1282 -6.207017e-05 0 0 0 
1349.981 1219.345 19.99994 0 0 0 
1365.481 1246.192 -14.00006 0 0 0 
1365.481 1246.192 -14.00006 0 0 0 
1365.481 1246.192 -14.00006 0 0 0 
1388.463 1279.757 1.936938 0 0 0 
1347.812 1211.868 19.59294 0 0 0 
1364.458 1240.46 -14.48106 0 0 0 
1363.018 1238.205 -13.76106 0 0 0 
1368.141 1252.702 -13.76106 0 0 0 
1385.598 1275.894 4.255938 0 0 0 
1345.999 1203.088 18.46393 0 0 0 
1362.304 1231.009 -14.04807 0 0 0 
1360.383 1228.002 -13.08807 0 0 0 
1371.287 1258.858 -13.08806 0 0 0 
1381.697 1270.683 6.818937 0 0 0 
1344.53 1193.529 16.75093 0 0 0 
1359.34 1218.9 -12.88706 0 0 0 
1357.659 1216.269 -12.04706 0 0 0 
1374.72 1264.548 -12.04706 0 0 0 
1377.053 1264.396 9.487937 0 0 0 
1343.396 1183.719 14.59193 0 0 0 
1355.888 1205.197 -11.18406 0 0 0 
1354.928 1203.693 -10.70407 0 0 0 
1378.24 1269.661 -10.70406 0 0 0 
1371.959 1257.307 12.12494 0 0 0 
1342.584 1174.182 12.12493 0 0 0 
1352.272 1190.961 -9.125066 0 0 0 
1352.272 1190.961 -9.125066 0 0 0 
1381.647 1274.086 -9.125063 0 0 0 
1366.708 1249.687 14.59194 0 0 0 
1342.085 1165.444 9.487934 0 0 0 
1348.813 1177.257 -6.896066 0 0 0 
1349.773 1178.761 -7.376066 0 0 0 
1384.741 1277.713 -7.376062 0 0 0 
1361.591 1241.808 16.75093 0 0 0 
1341.888 1158.032 6.818933 0 0 0 
1345.834 1165.146 -4.683066 0 0 0 
1347.515 1167.777 -5.523066 0 0 0 
1387.324 1280.428 -5.523062 0 0 0 
1356.903 1233.944 18.46394 0 0 0 
1341.982 1152.47 4.255934 0 0 0 
1343.657 1155.691 -2.672066 0 0 0 
1345.578 1158.698 -3.632066 0 0 0 
1389.194 1282.122 -3.632062 0 0 0 
1352.935 1226.365 19.59294 0 0 0 
1342.356 1149.284 1.936934 0 0 0 
1342.605 1149.955 -1.049066 0 0 0 
1344.046 1152.21 -1.769066 0 0 0 
1390.153 1282.683 -1.769062 0 0 0 
1390 1297 -6.207017e-05 0 0 0 
1350.481 1220.211 19.99994 0 0 0 
1365.981 1247.058 -14.00006 0 0 0 
1365.981 1247.058 -14.00006 0 0 0 
1365.981 1247.058 -14.00006 0 0 0 
1388.477 1294.424 1.936938 0 0 0 
1348.298 1212.171 19.59294 0 0 0 
1364.927 1241.272 -14.48106 0 0 0 
1363.504 1238.508 -13.76106 0 0 0 
1368.627 1254.531 -13.76106 0 0 0 
1385.65 1289.648 4.255938 0 0 0 
1346.447 1203.072 18.46393 0 0 0 
1362.728 1231.671 -14.04807 0 0 0 
1360.831 1227.985 -13.08807 0 0 0 
1371.735 1262.089 -13.08806 0 0 0 
1381.805 1283.071 6.818937 0 0 0 
1344.922 1193.395 16.75093 0 0 0 
1359.711 1219.36 -12.88706 0 0 0 
1358.051 1216.135 -12.04706 0 0 0 
1375.112 1269.496 -12.04706 0 0 0 
1377.229 1275.093 9.487937 0 0 0 
1343.72 1183.624 14.59193 0 0 0 
1356.2 1205.441 -11.18406 0 0 0 
1355.252 1203.598 -10.70407 0 0 0 
1378.564 1276.51 -10.70406 0 0 0 
1372.209 1266.115 12.12494 0 0 0 
1342.834 1174.24 12.12493 0 0 0 
1352.522 1191.019 -9.125066 0 0 0 
1352.522 1191.019 -9.125066 0 0 0 
1381.897 1282.894 -9.125063 0 0 0 
1367.032 1256.536 14.59194 0 0 0 
1342.261 1165.725 9.487934 0 0 0 
1349.001 1177.198 -6.896066 0 0 0 
1349.949 1179.041 -7.376066 0 0 0 
1384.917 1288.409 -7.376062 0 0 0 
1361.983 1246.756 16.75093 0 0 0 
1341.996 1158.562 6.818933 0 0 0 
1345.963 1165.082 -4.683066 0 0 0 
1347.623 1168.307 -5.523066 0 0 0 
1387.432 1292.816 -5.523062 0 0 0 
1357.351 1237.176 18.46394 0 0 0 
1342.034 1153.232 4.255934 0 0 0 
1343.733 1155.774 -2.672066 0 0 0 
1345.63 1159.46 -3.632066 0 0 0 
1389.246 1295.876 -3.632062 0 0 0 
1353.421 1228.194 19.59294 0 0 0 
1342.37 1150.217 1.936934 0 0 0 
1342.637 1150.379 -1.049066 0 0 0 
1344.06 1153.143 -1.769066 0 0 0 
1390.167 1297.35 -1.769062 0 0 0 
1390 1297 -6.207017e-05 0 0 0 
1363.981 1243.594 19.99994 0 0 0 
1366.481 1247.924 -14.00006 0 0 0 
1366.481 1247.924 -14.00006 0 0 0 
1366.481 1247.924 -14.00006 0 0 0 
1389.382 1295.991 1.936938 0 0 0 
1361.479 1235 19.59294 0 0 0 
1364.868 1241.171 -14.48106 0 0 0 
1363.931 1239.248 -13.76106 0 0 0 
1369.054 1255.271 -13.76106 0 0 0 
1387.886 1293.521 4.255938 0 0 0 
1358.751 1224.383 18.46394 0 0 0 
1362.32 1230.965 -14.04807 0 0 0 
1361.071 1228.401 -13.08807 0 0 0 
1371.975 1262.505 -13.08806 0 0 0 
1385.677 1289.776 6.818937 0 0 0 
1355.916 1212.437 16.75093 0 0 0 
1359.126 1218.347 -12.88706 0 0 0 
1358.033 1216.104 -12.04706 0 0 0 
1375.094 1269.465 -12.04706 0 0 0 
1382.917 1284.945 9.487937 0 0 0 
1353.092 1199.857 14.59194 0 0 0 
1355.576 1204.36 -11.18406 0 0 0 
1354.952 1203.079 -10.70407 0 0 0 
1378.264 1275.991 -10.70406 0 0 0 
1379.772 1279.214 12.12494 0 0 0 
1350.397 1187.339 12.12493 0 0 0 
1351.959 1190.045 -9.125066 0 0 0 
1351.959 1190.045 -9.125066 0 0 0 
1381.334 1281.92 -9.125063 0 0 0 
1376.404 1272.769 14.59194 0 0 0 
1347.949 1175.577 9.487934 0 0 0 
1348.565 1176.443 -6.896066 0 0 0 
1349.189 1177.725 -7.376066 0 0 0 
1384.157 1287.093 -7.376062 0 0 0 
1372.977 1265.798 16.75094 0 0 0 
1345.868 1165.267 6.818934 0 0 0 
1345.682 1164.596 -4.683066 0 0 0 
1346.775 1166.839 -5.523066 0 0 0 
1386.584 1291.348 -5.523062 0 0 0 
1369.655 1258.487 18.46394 0 0 0 
1344.27 1157.105 4.255934 0 0 0 
1343.601 1155.546 -2.672066 0 0 0 
1344.85 1158.109 -3.632066 0 0 0 
1388.466 1294.525 -3.632062 0 0 0 
1366.602 1251.023 19.59294 0 0 0 
1343.275 1151.784 1.936934 0 0 0 
1342.61 1150.333 -1.049066 0 0 0 
1343.547 1152.256 -1.769066 0 0 0 
1389.654 1296.463 -1.769062 0 0 0 
1390 1298 -6.207017e-05 0 0 0 
1363.981 1243.594 19.99994 0 0 0 
1366.981 1248.79 -14.00006 0 0 0 
1366.981 1248.79 -14.00006 0 0 0 
1366.981 1248.79 -14.00006 0 0 0 
1389.362 1296.928 1.936938 0 0 0 
1361.477 1235.025 19.59294 0 0 0 
1365.356 1242.08 -14.48106 0 0 0 
1364.419 1240.122 -13.76106 0 0 0 
1369.542 1256.145 -13.76106 0 0 0 
1387.854 1294.361 4.255938 0 0 0 
1358.743 1224.473 18.46394 0 0 0 
1362.776 1231.906 -14.04807 0 0 0 
1361.527 1229.295 -13.08807 0 0 0 
1372.431 1263.399 -13.08806 0 0 0 
1385.64 1290.497 6.818937 0 0 0 
1355.9 1212.625 16.75093 0 0 0 
1359.534 1219.312 -12.88706 0 0 0 
1358.441 1217.026 -12.04706 0 0 0 
1375.502 1270.387 -12.04706 0 0 0 
1382.881 1285.531 9.487937 0 0 0 
1353.068 1200.167 14.59194 0 0 0 
1355.924 1205.339 -11.18406 0 0 0 
1355.3 1204.033 -10.70407 0 0 0 
1378.612 1276.945 -10.70406 0 0 0 
1379.74 1279.66 12.12494 0 0 0 
1350.365 1187.785 12.12493 0 0 0 
1352.24 1191.032 -9.125066 0 0 0 
1352.24 1191.032 -9.125066 0 0 0 
1381.615 1282.907 -9.125063 0 0 0 
1376.38 1273.079 14.59194 0 0 0 
1347.913 1176.163 9.487934 0 0 0 
1348.777 1177.434 -6.896066 0 0 0 
1349.401 1178.74 -7.376066 0 0 0 
1384.369 1288.108 -7.376062 0 0 0 
1372.961 1265.986 16.75094 0 0 0 
1345.831 1165.988 6.818934 0 0 0 
1345.827 1165.589 -4.683066 0 0 0 
1346.92 1167.874 -5.523066 0 0 0 
1386.729 1292.383 -5.523062 0 0 0 
1369.647 1258.577 18.46394 0 0 0 
1344.238 1157.945 4.255934 0 0 0 
1343.685 1156.539 -2.672066 0 0 0 
1344.934 1159.151 -3.632066 0 0 0 
1388.55 1295.567 -3.632062 0 0 0 
1366.599 1251.047 19.59294 0 0 0 
1343.255 1152.721 1.936934 0 0 0 
1342.645 1151.328 -1.049066 0 0 0 
1343.582 1153.287 -1.769066 0 0 0 
1389.688 1297.494 -1.769062 0 0 0 
1390 1298 -6.207017e-05 0 0 0 
1364.481 1244.46 19.99994 0 0 0 
1367.481 1249.656 -14.00006 0 0 0 
1367.481 1249.656 -14.00006 0 0 0 
1367.481 1249.656 -14.00006 0 0 0 
1389.375 1296.952 1.936938 0 0 0 
1361.963 1235.866 19.59294 0 0 0 
1365.824 1242.891 -14.48106 0 0 0 
1364.906 1240.964 -13.76106 0 0 0 
1370.029 1256.986 -13.76106 0 0 0 
1387.906 1294.451 4.255938 0 0 0 
1359.191 1225.249 18.46394 0 0 0 
1363.2 1232.641 -14.04807 0 0 0 
1361.975 1230.071 -13.08807 0 0 0 
1372.879 1264.175 -13.08806 0 0 0 
1385.748 1290.684 6.818937 0 0 0 
1356.292 1213.304 16.75093 0 0 0 
1359.905 1219.954 -12.88706 0 0 0 
1358.833 1217.705 -12.04706 0 0 0 
1375.894 1271.067 -12.04706 0 0 0 
1383.057 1285.836 9.487937 0 0 0 
1353.392 1200.729 14.59194 0 0 0 
1356.236 1205.88 -11.18406 0 0 0 
1355.624 1204.594 -10.70407 0 0 0 
1378.936 1277.506 -10.70406 0 0 0 
1379.99 1280.093 12.12494 0 0 0 
1350.615 1188.218 12.12493 0 0 0 
1352.49 1191.465 -9.125066 0 0 0 
1352.49 1191.465 -9.125066 0 0 0 
1381.865 1283.34 -9.125063 0 0 0 
1376.704 1273.641 14.59194 0 0 0 
1348.089 1176.468 9.487934 0 0 0 
1348.965 1177.76 -6.896066 0 0 0 
1349.577 1179.045 -7.376066 0 0 0 
1384.545 1288.413 -7.376062 0 0 0 
1373.353 1266.666 16.75094 0 0 0 
1345.939 1166.175 6.818934 0 0 0 
1345.956 1165.812 -4.683066 0 0 0 
1347.028 1168.061 -5.523066 0 0 0 
1386.837 1292.57 -5.523062 0 0 0 
1370.095 1259.353 18.46394 0 0 0 
1344.29 1158.035 4.255934 0 0 0 
1343.761 1156.671 -2.672066 0 0 0 
1344.986 1159.241 -3.632066 0 0 0 
1388.602 1295.657 -3.632062 0 0 0 
1367.085 1251.889 19.59294 0 0 0 
1343.269 1152.745 1.936934 0 0 0 
1342.677 1151.384 -1.049066 0 0 0 
1343.595 1153.311 -1.769066 0 0 0 
1389.703 1297.518 -1.769062 0 0 0 
1389 1194 -6.21576e-05 0 0 0 
1364.981 1245.326 19.99994 0 0 0 
1367.981 1250.522 -14.00006 0 0 0 
1367.981 1250.522 -14.00006 0 0 0 
1367.981 1250.522 -14.00006 0 0 0 
1388.413 1195.416 1.936938 0 0 0 
1362.489 1240.989 19.59294 0 0 0 
1366.297 1244.238 -14.48106 0 0 0 
1365.432 1246.086 -13.76106 0 0 0 
1370.446 1250.664 -13.76106 0 0 0 
1387.046 1199.677 4.255938 0 0 0 
1359.703 1232.849 18.46394 0 0 0 
1363.64 1235.207 -14.04807 0 0 0 
1362.487 1237.671 -13.08807 0 0 0 
1373.159 1247.415 -13.08806 0 0 0 
1385.04 1206.027 6.818937 0 0 0 
1356.758 1221.917 16.75093 0 0 0 
1360.307 1224.162 -12.88706 0 0 0 
1359.299 1226.318 -12.04706 0 0 0 
1375.997 1241.564 -12.04706 0 0 0 
1382.537 1213.709 9.487937 0 0 0 
1353.788 1209.202 14.59194 0 0 0 
1356.596 1211.836 -11.18406 0 0 0 
1356.02 1213.068 -10.70407 0 0 0 
1378.836 1233.9 -10.70406 0 0 0 
1379.678 1221.963 12.12494 0 0 0 
1350.928 1195.713 12.12493 0 0 0 
1352.803 1198.961 -9.125065 0 0 0 
1352.803 1198.961 -9.125065 0 0 0 
1381.553 1225.211 -9.125063 0 0 0 
1376.604 1230.034 14.59194 0 0 0 
1348.313 1182.461 9.487934 0 0 0 
1349.225 1186.27 -6.896066 0 0 0 
1349.801 1185.038 -7.376066 0 0 0 
1384.025 1216.286 -7.376062 0 0 0 
1373.456 1237.163 16.75094 0 0 0 
1346.078 1170.453 6.818934 0 0 0 
1346.159 1174.495 -4.683066 0 0 0 
1347.167 1172.34 -5.523066 0 0 0 
1386.129 1207.914 -5.523062 0 0 0 
1370.375 1242.593 18.46394 0 0 0 
1344.358 1160.701 4.255934 0 0 0 
1343.901 1164.37 -2.672066 0 0 0 
1345.054 1161.907 -3.632066 0 0 0 
1387.742 1200.883 -3.632062 0 0 0 
1367.503 1245.567 19.59294 0 0 0 
1343.287 1154.214 1.936934 0 0 0 
1342.749 1156.628 -1.049066 0 0 0 
1343.614 1154.78 -1.769066 0 0 0 
1388.74 1195.982 -1.769062 0 0 0 
1389 1194 -6.21576e-05 0 0 0 
1364.981 1245.326 19.99994 0 0 0 
1383.981 1278.235 -14.00006 0 0 0 
1383.981 1278.235 -14.00006 0 0 0 
1383.981 1278.235 -14.00006 0 0 0 
1387.765 1194.293 1.936938 0 0 0 
1362.417 1240.864 19.59294 0 0 0 
1381.921 1271.3 -14.48106 0 0 0 
1381.056 1273.147 -13.76106 0 0 0 
1386.07 1277.725 -13.76106 0 0 0 
1386.022 1197.904 4.255938 0 0 0 
1359.447 1232.406 18.46394 0 0 0 
1378.232 1260.481 -14.04806 0 0 0 
1377.079 1262.945 -13.08806 0 0 0 
1387.751 1272.689 -13.08806 0 0 0 
1383.864 1203.991 6.818937 0 0 0 
1356.254 1221.044 16.75093 0 0 0 
1373.355 1246.762 -12.88706 0 0 0 
1372.347 1248.918 -12.04706 0 0 0 
1389.045 1264.164 -12.04706 0 0 0 
1381.385 1211.713 9.487937 0 0 0 
1353.02 1207.872 14.59194 0 0 0 
1367.732 1231.124 -11.18406 0 0 0 
1367.156 1232.356 -10.70406 0 0 0 
1389.972 1253.188 -10.70406 0 0 0 
1378.678 1220.231 12.12494 0 0 0 
1349.928 1193.981 12.12493 0 0 0 
1361.803 1214.549 -9.125065 0 0 0 
1361.803 1214.549 -9.125065 0 0 0 
1390.553 1240.799 -9.125062 0 0 0 
1375.836 1228.704 14.59194 0 0 0 
1347.161 1180.465 9.487934 0 0 0 
1356.009 1198.02 -6.896065 0 0 0 
1356.585 1196.788 -7.376065 0 0 0 
1390.809 1228.036 -7.376062 0 0 0 
1372.952 1236.29 16.75094 0 0 0 
1344.902 1168.417 6.818934 0 0 0 
1350.791 1182.518 -4.683065 0 0 0 
1351.799 1180.363 -5.523065 0 0 0 
1390.761 1215.937 -5.523062 0 0 0 
1370.119 1242.15 18.46394 0 0 0 
1343.334 1158.928 4.255934 0 0 0 
1346.589 1169.026 -2.672066 0 0 0 
1347.742 1166.563 -3.632066 0 0 0 
1390.43 1205.539 -3.632062 0 0 0 
1367.431 1245.442 19.59294 0 0 0 
1342.639 1153.091 1.936934 0 0 0 
1343.845 1158.526 -1.049066 0 0 0 
1344.71 1156.678 -1.769066 0 0 0 
1389.836 1197.88 -1.769062 0 0 0 
1389 1195 -6.21576e-05 0 0 0 
1365.481 1246.192 19.99994 0 0 0 
1384.481 1279.101 -14.00006 0 0 0 
1384.481 1279.101 -14.00006 0 0 0 
1384.481 1279.101 -14.00006 0 0 0 
1387.779 1195.29 1.936938 0 0 0 
1362.903 1241.734 19.59294 0 0 0 
1382.389 1272.174 -14.48106 0 0 0 
1381.542 1274.017 -13.76106 0 0 0 
1386.556 1278.595 -13.76106 0 0 0 
1386.074 1198.89 4.255938 0 0 0 
1359.895 1233.286 18.46394 0 0 0 
1378.656 1261.368 -14.04806 0 0 0 
1377.527 1263.825 -13.08806 0 0 0 
1388.199 1273.569 -13.08806 0 0 0 
1383.972 1204.962 6.818937 0 0 0 
1356.646 1221.939 16.75093 0 0 0 
1373.726 1247.663 -12.88706 0 0 0 
1372.739 1249.813 -12.04706 0 0 0 
1389.437 1265.059 -12.04706 0 0 0 
1381.561 1212.666 9.487937 0 0 0 
1353.344 1208.785 14.59194 0 0 0 
1368.044 1232.041 -11.18406 0 0 0 
1367.48 1233.269 -10.70406 0 0 0 
1390.296 1254.101 -10.70406 0 0 0 
1378.928 1221.164 12.12494 0 0 0 
1350.178 1194.914 12.12493 0 0 0 
1362.053 1215.482 -9.125065 0 0 0 
1362.053 1215.482 -9.125065 0 0 0 
1390.803 1241.732 -9.125062 0 0 0 
1376.16 1229.617 14.59194 0 0 0 
1347.337 1181.418 9.487934 0 0 0 
1356.197 1198.97 -6.896065 0 0 0 
1356.761 1197.741 -7.376065 0 0 0 
1390.985 1228.989 -7.376062 0 0 0 
1373.344 1237.185 16.75094 0 0 0 
1345.01 1169.388 6.818934 0 0 0 
1350.92 1183.484 -4.683065 0 0 0 
1351.907 1181.334 -5.523065 0 0 0 
1390.869 1216.908 -5.523062 0 0 0 
1370.567 1243.03 18.46394 0 0 0 
1343.386 1159.914 4.255934 0 0 0 
1346.665 1170.006 -2.672066 0 0 0 
1347.794 1167.549 -3.632066 0 0 0 
1390.482 1206.525 -3.632062 0 0 0 
