ply
format ascii 1.0
comment VCGLIB generated
element vertex 1549
property float x
property float y
property float z
property float nx
property float ny
property float nz
element face 0
property list uchar int vertex_indices
end_header
1194.2 1978.76 -12.984 0 0 0 
1155.624 1992 -11.136 0 0 0 
1156.8 1990.2 101.352 0 0 0 
1155.624 1990.512 101.208 0 0 0 
1180.92 1980.592 101.208 0 0 0 
1187.688 1980.375 -12.4375 0 0 0 
1155.812 1992.875 -12.4375 0 0 0 
1155.812 1991.625 81.9375 0 0 0 
1155.812 1991.625 81.9375 0 0 0 
1187.688 1979.125 81.9375 0 0 0 
1180.92 1982.08 -11.136 0 0 0 
1156.256 1993.64 -12.984 0 0 0 
1155.08 1992.96 61.768 0 0 0 
1156.256 1992.648 61.912 0 0 0 
1194.2 1977.768 61.912 0 0 0 
1174.333 1983.785 -9.4605 0 0 0 
1156.825 1994.265 -12.3945 0 0 0 
1154.768 1994.085 42.1665 0 0 0 
1156.825 1993.539 42.4185 0 0 0 
1200.022 1976.599 42.4185 0 0 0 
1168.36 1985.4 -7.792 0 0 0 
1157.392 1994.72 -10.288 0 0 0 
1155.04 1994.88 24.456 0 0 0 
1157.392 1994.256 24.744 0 0 0 
1204.72 1975.696 24.744 0 0 0 
1163.438 1986.835 -6.5115 0 0 0 
1157.826 1994.975 -6.2835 0 0 0 
1156.062 1995.225 9.9595 0 0 0 
1157.826 1994.757 10.1755 0 0 0 
1207.858 1975.137 10.1755 0 0 0 
1209 1975 0 0 0 0 
1160 1988 -6 0 0 0 
1160 1987 145 0 0 0 
1160 1987 145 0 0 0 
1160 1987 145 0 0 0 
1207.858 1975.314 -6.2835 0 0 0 
1157.878 1989.01 -6.5115 0 0 0 
1159.643 1987.562 141.8355 0 0 0 
1157.878 1988.03 141.6195 0 0 0 
1163.438 1985.849 141.6195 0 0 0 
1204.72 1976.096 -10.288 0 0 0 
1156.528 1990.024 -7.792 0 0 0 
1158.88 1988.472 132.624 0 0 0 
1156.528 1989.096 132.336 0 0 0 
1168.36 1984.456 132.336 0 0 0 
1200.022 1977.251 -12.3945 0 0 0 
1155.82 1991.014 -9.4605 0 0 0 
1157.877 1989.62 118.6885 0 0 0 
1155.82 1990.167 118.4365 0 0 0 
1174.333 1982.906 118.4365 0 0 0 
1194.2 1978.688 -12.984 0 0 0 
1155.624 1991.952 -11.136 0 0 0 
1156.8 1990.896 101.352 0 0 0 
1155.624 1991.208 101.208 0 0 0 
1180.92 1981.288 101.208 0 0 0 
1187.688 1980.312 -12.4375 0 0 0 
1155.812 1992.812 -12.4375 0 0 0 
1155.812 1992.188 81.9375 0 0 0 
1155.812 1992.188 81.9375 0 0 0 
1187.688 1979.688 81.9375 0 0 0 
1180.92 1982.032 -11.136 0 0 0 
1156.256 1993.568 -12.984 0 0 0 
1155.08 1993.384 61.768 0 0 0 
1156.256 1993.072 61.912 0 0 0 
1194.2 1978.192 61.912 0 0 0 
1174.333 1983.754 -9.4605 0 0 0 
1156.825 1994.192 -12.3945 0 0 0 
1154.768 1994.375 42.1665 0 0 0 
1156.825 1993.828 42.4185 0 0 0 
1200.022 1976.889 42.4185 0 0 0 
1168.36 1985.384 -7.792 0 0 0 
1157.392 1994.656 -10.288 0 0 0 
1155.04 1995.048 24.456 0 0 0 
1157.392 1994.424 24.744 0 0 0 
1204.72 1975.864 24.744 0 0 0 
1163.438 1986.83 -6.5115 0 0 0 
1157.826 1994.934 -6.2835 0 0 0 
1156.062 1995.293 9.9595 0 0 0 
1157.826 1994.825 10.1755 0 0 0 
1207.858 1975.205 10.1755 0 0 0 
1209 1975 0 0 0 0 
1160 1988 -6 0 0 0 
1160 1988 145 0 0 0 
1160 1988 145 0 0 0 
1160 1988 145 0 0 0 
1207.858 1975.27 -6.2835 0 0 0 
1157.878 1989.074 -6.5115 0 0 0 
1159.643 1988.606 141.8355 0 0 0 
1157.878 1989.074 141.6195 0 0 0 
1163.438 1986.786 141.6195 0 0 0 
1204.72 1976.016 -10.288 0 0 0 
1156.528 1990.176 -7.792 0 0 0 
1158.88 1989.552 132.624 0 0 0 
1156.528 1990.176 132.336 0 0 0 
1168.36 1985.304 132.336 0 0 0 
1200.022 1977.146 -12.3945 0 0 0 
1155.82 1991.271 -9.4605 0 0 0 
1157.877 1990.725 118.6885 0 0 0 
1155.82 1991.271 118.4365 0 0 0 
1174.333 1983.649 118.4365 0 0 0 
1194.2 1978.568 -12.984 0 0 0 
1155.624 1992.328 -11.136 0 0 0 
1156.8 1992.016 101.352 0 0 0 
1155.624 1992.328 101.208 0 0 0 
1180.92 1981.912 101.208 0 0 0 
1187.688 1980.188 -12.4375 0 0 0 
1155.812 1993.312 -12.4375 0 0 0 
1155.812 1993.312 81.9375 0 0 0 
1155.812 1993.312 81.9375 0 0 0 
1187.688 1980.188 81.9375 0 0 0 
1180.92 1981.912 -11.136 0 0 0 
1156.256 1994.192 -12.984 0 0 0 
1155.08 1994.504 61.768 0 0 0 
1156.256 1994.192 61.912 0 0 0 
1194.2 1978.568 61.912 0 0 0 
1174.333 1983.649 -9.4605 0 0 0 
1156.825 1994.933 -12.3945 0 0 0 
1154.768 1995.479 42.1665 0 0 0 
1156.825 1994.933 42.4185 0 0 0 
1200.022 1977.146 42.4185 0 0 0 
1168.36 1985.304 -7.792 0 0 0 
1157.392 1995.504 -10.288 0 0 0 
1155.04 1996.128 24.456 0 0 0 
1157.392 1995.504 24.744 0 0 0 
1204.72 1976.016 24.744 0 0 0 
1163.438 1986.786 -6.5115 0 0 0 
1157.826 1995.87 -6.2835 0 0 0 
1156.062 1996.339 9.9595 0 0 0 
1157.826 1995.87 10.1755 0 0 0 
1207.858 1975.27 10.1755 0 0 0 
1209 1975 0 0 0 0 
1160 1914 -5 0 0 0 
1160 1989 145 0 0 0 
1160 1989 145 0 0 0 
1160 1989 145 0 0 0 
1207.858 1970.156 -6.215 0 0 0 
1157.878 1916.877 -5.535 0 0 0 
1159.643 1992.649 141.795 0 0 0 
1157.878 1990.453 141.615 0 0 0 
1163.438 1988.054 141.615 0 0 0 
1204.72 1963.504 -10.12 0 0 0 
1156.528 1922.84 -6.88 0 0 0 
1158.88 1995.368 132.56 0 0 0 
1156.528 1992.44 132.32 0 0 0 
1168.36 1987.336 132.32 0 0 0 
1200.022 1955.619 -12.105 0 0 0 
1155.82 1931.182 -8.645 0 0 0 
1157.877 1997.27 118.615 0 0 0 
1155.82 1994.708 118.405 0 0 0 
1174.333 1986.722 118.405 0 0 0 
1194.2 1947.072 -12.56 0 0 0 
1155.624 1941.2 -10.44 0 0 0 
1156.8 1998.464 101.28 0 0 0 
1155.624 1997 101.16 0 0 0 
1180.92 1986.088 101.16 0 0 0 
1187.688 1938.438 -11.875 0 0 0 
1155.812 1952.188 -11.875 0 0 0 
1155.812 1999.062 81.875 0 0 0 
1155.812 1999.062 81.875 0 0 0 
1187.688 1985.312 81.875 0 0 0 
1180.92 1930.288 -10.44 0 0 0 
1156.256 1963.44 -12.56 0 0 0 
1155.08 1999.176 61.72 0 0 0 
1156.256 2000.64 61.84 0 0 0 
1194.2 1984.272 61.84 0 0 0 
1174.333 1923.197 -8.645 0 0 0 
1156.825 1974.252 -12.105 0 0 0 
1154.768 1998.916 42.135 0 0 0 
1156.825 2001.478 42.345 0 0 0 
1200.022 1982.844 42.345 0 0 0 
1168.36 1917.736 -6.88 0 0 0 
1157.392 1983.92 -10.12 0 0 0 
1155.04 1998.392 24.44 0 0 0 
1157.392 2001.32 24.68 0 0 0 
1204.72 1980.904 24.68 0 0 0 
1163.438 1914.479 -5.535 0 0 0 
1157.826 1991.738 -6.215 0 0 0 
1156.062 1997.717 9.955 0 0 0 
1157.826 1999.912 10.135 0 0 0 
1207.858 1978.33 10.135 0 0 0 
1209 1976 0 0 0 0 
1160 1914 -5 0 0 0 
1160 1990 145 0 0 0 
1160 1990 145 0 0 0 
1160 1990 145 0 0 0 
1207.858 1971.092 -6.215 0 0 0 
1157.878 1916.833 -5.535 0 0 0 
1159.643 1993.62 141.795 0 0 0 
1157.878 1991.389 141.615 0 0 0 
1163.438 1989.099 141.615 0 0 0 
1204.72 1964.352 -10.12 0 0 0 
1156.528 1922.76 -6.88 0 0 0 
1158.88 1996.264 132.56 0 0 0 
1156.528 1993.288 132.32 0 0 0 
1168.36 1988.416 132.32 0 0 0 
1200.022 1956.36 -12.105 0 0 0 
1155.82 1931.078 -8.645 0 0 0 
1157.877 1998.053 118.615 0 0 0 
1155.82 1995.449 118.405 0 0 0 
1174.333 1987.827 118.405 0 0 0 
1194.2 1947.696 -12.56 0 0 0 
1155.624 1941.08 -10.44 0 0 0 
1156.8 1999.112 101.28 0 0 0 
1155.624 1997.624 101.16 0 0 0 
1180.92 1987.208 101.16 0 0 0 
1187.688 1938.938 -11.875 0 0 0 
1155.812 1952.062 -11.875 0 0 0 
1155.812 1999.562 81.875 0 0 0 
1155.812 1999.562 81.875 0 0 0 
1187.688 1986.438 81.875 0 0 0 
1180.92 1930.664 -10.44 0 0 0 
1156.256 1963.32 -12.56 0 0 0 
1155.08 1999.528 61.72 0 0 0 
1156.256 2001.016 61.84 0 0 0 
1194.2 1985.392 61.84 0 0 0 
1174.333 1923.454 -8.645 0 0 0 
1156.825 1974.147 -12.105 0 0 0 
1154.768 1999.131 42.135 0 0 0 
1156.825 2001.735 42.345 0 0 0 
1200.022 1983.948 42.345 0 0 0 
1168.36 1917.888 -6.88 0 0 0 
1157.392 1983.84 -10.12 0 0 0 
1155.04 1998.496 24.44 0 0 0 
1157.392 2001.472 24.68 0 0 0 
1204.72 1981.984 24.68 0 0 0 
1163.438 1914.543 -5.535 0 0 0 
1157.826 1991.693 -6.215 0 0 0 
1156.062 1997.745 9.955 0 0 0 
1157.826 1999.976 10.135 0 0 0 
1207.858 1979.375 10.135 0 0 0 
1209 1976 0 0 0 0 
1160 1915 -5 0 0 0 
1160 1966 146 0 0 0 
1160 1966 146 0 0 0 
1160 1966 146 0 0 0 
1207.853 1972.235 -6.2555 0 0 0 
1157.947 1916.342 -5.5395 0 0 0 
1159.711 1968.568 142.7715 0 0 0 
1157.947 1966.373 142.5915 0 0 0 
1163.397 1966.59 142.5915 0 0 0 
1204.704 1966.424 -10.184 0 0 0 
1156.696 1920.192 -6.896 0 0 0 
1159.048 1970.448 133.472 0 0 0 
1156.696 1967.52 133.232 0 0 0 
1168.296 1967.984 133.232 0 0 0 
1199.991 1959.139 -12.1785 0 0 0 
1156.109 1925.99 -8.6765 0 0 0 
1158.167 1971.75 119.4305 0 0 0 
1156.109 1969.188 119.2205 0 0 0 
1174.259 1969.913 119.2205 0 0 0 
1194.152 1950.952 -12.632 0 0 0 
1156.048 1933.176 -10.488 0 0 0 
1157.224 1972.584 101.976 0 0 0 
1156.048 1971.12 101.856 0 0 0 
1180.848 1972.112 101.856 0 0 0 
1187.625 1942.438 -11.9375 0 0 0 
1156.375 1941.188 -11.9375 0 0 0 
1156.375 1973.062 82.4375 0 0 0 
1156.375 1973.062 82.4375 0 0 0 
1187.625 1974.312 82.4375 0 0 0 
1180.848 1934.168 -10.488 0 0 0 
1156.952 1949.464 -12.632 0 0 0 
1155.776 1973.296 62.144 0 0 0 
1156.952 1974.76 62.264 0 0 0 
1194.152 1976.248 62.264 0 0 0 
1174.259 1926.717 -8.6765 0 0 0 
1157.641 1957.444 -12.1785 0 0 0 
1155.583 1973.396 42.4245 0 0 0 
1157.641 1975.958 42.6345 0 0 0 
1199.991 1977.651 42.6345 0 0 0 
1168.296 1920.656 -6.896 0 0 0 
1158.304 1964.568 -10.184 0 0 0 
1155.952 1973.472 24.608 0 0 0 
1158.304 1976.4 24.848 0 0 0 
1204.704 1978.256 24.848 0 0 0 
1163.397 1916.559 -5.5395 0 0 0 
1158.803 1970.274 -6.2555 0 0 0 
1157.039 1973.636 10.0235 0 0 0 
1158.803 1975.833 10.2035 0 0 0 
1207.853 1977.795 10.2035 0 0 0 
1209 1976 0 0 0 0 
1160 1915 -5 0 0 0 
1160 1967 146 0 0 0 
1160 1967 146 0 0 0 
1160 1967 146 0 0 0 
1207.853 1972.195 -6.2555 0 0 0 
1157.947 1916.337 -5.5395 0 0 0 
1159.711 1969.545 142.7715 0 0 0 
1157.947 1967.349 142.5915 0 0 0 
1163.397 1967.567 142.5915 0 0 0 
1204.704 1966.36 -10.184 0 0 0 
1156.696 1920.176 -6.896 0 0 0 
1159.048 1971.36 133.472 0 0 0 
1156.696 1968.432 133.232 0 0 0 
1168.296 1968.896 133.232 0 0 0 
1199.991 1959.065 -12.1785 0 0 0 
1156.109 1925.959 -8.6765 0 0 0 
1158.167 1972.565 119.4305 0 0 0 
1156.109 1970.003 119.2205 0 0 0 
1174.259 1970.729 119.2205 0 0 0 
1194.152 1950.88 -12.632 0 0 0 
1156.048 1933.128 -10.488 0 0 0 
1157.224 1973.28 101.976 0 0 0 
1156.048 1971.816 101.856 0 0 0 
1180.848 1972.808 101.856 0 0 0 
1187.625 1942.375 -11.9375 0 0 0 
1156.375 1941.125 -11.9375 0 0 0 
1156.375 1973.625 82.4375 0 0 0 
1156.375 1973.625 82.4375 0 0 0 
1187.625 1974.875 82.4375 0 0 0 
1180.848 1934.12 -10.488 0 0 0 
1156.952 1949.392 -12.632 0 0 0 
1155.776 1973.72 62.144 0 0 0 
1156.952 1975.184 62.264 0 0 0 
1194.152 1976.672 62.264 0 0 0 
1174.259 1926.685 -8.6765 0 0 0 
1157.641 1957.371 -12.1785 0 0 0 
1155.583 1973.685 42.4245 0 0 0 
1157.641 1976.247 42.6345 0 0 0 
1199.991 1977.941 42.6345 0 0 0 
1168.296 1920.64 -6.896 0 0 0 
1158.304 1964.504 -10.184 0 0 0 
1155.952 1973.64 24.608 0 0 0 
1158.304 1976.568 24.848 0 0 0 
1204.704 1978.424 24.848 0 0 0 
1163.397 1916.555 -5.5395 0 0 0 
1158.803 1970.233 -6.2555 0 0 0 
1157.039 1973.705 10.0235 0 0 0 
1158.803 1975.901 10.2035 0 0 0 
1207.853 1977.863 10.2035 0 0 0 
1209 1976 0 0 0 0 
1160 1915 -5 0 0 0 
1160 1968 146 0 0 0 
1160 1968 146 0 0 0 
1160 1968 146 0 0 0 
1207.853 1972.15 -6.2555 0 0 0 
1157.947 1916.401 -5.5395 0 0 0 
1159.711 1970.59 142.7715 0 0 0 
1157.947 1968.394 142.5915 0 0 0 
1163.397 1968.503 142.5915 0 0 0 
1204.704 1966.28 -10.184 0 0 0 
1156.696 1920.328 -6.896 0 0 0 
1159.048 1972.44 133.472 0 0 0 
1156.696 1969.512 133.232 0 0 0 
1168.296 1969.744 133.232 0 0 0 
1199.991 1958.96 -12.1785 0 0 0 
1156.109 1926.217 -8.6765 0 0 0 
1158.167 1973.67 119.4305 0 0 0 
1156.109 1971.108 119.2205 0 0 0 
1174.259 1971.471 119.2205 0 0 0 
1194.152 1950.76 -12.632 0 0 0 
1156.048 1933.504 -10.488 0 0 0 
1157.224 1974.4 101.976 0 0 0 
1156.048 1972.936 101.856 0 0 0 
1180.848 1973.432 101.856 0 0 0 
1187.625 1942.25 -11.9375 0 0 0 
1156.375 1941.625 -11.9375 0 0 0 
1156.375 1974.75 82.4375 0 0 0 
1156.375 1974.75 82.4375 0 0 0 
1187.625 1975.375 82.4375 0 0 0 
1180.848 1934 -10.488 0 0 0 
1156.952 1950.016 -12.632 0 0 0 
1155.776 1974.84 62.144 0 0 0 
1156.952 1976.304 62.264 0 0 0 
1194.152 1977.048 62.264 0 0 0 
1174.259 1926.58 -8.6765 0 0 0 
1157.641 1958.113 -12.1785 0 0 0 
1155.583 1974.79 42.4245 0 0 0 
1157.641 1977.352 42.6345 0 0 0 
1199.991 1978.199 42.6345 0 0 0 
1168.296 1920.56 -6.896 0 0 0 
1158.304 1965.352 -10.184 0 0 0 
1155.952 1974.72 24.608 0 0 0 
1158.304 1977.648 24.848 0 0 0 
1204.704 1978.576 24.848 0 0 0 
1163.397 1916.51 -5.5395 0 0 0 
1158.803 1971.169 -6.2555 0 0 0 
1157.039 1974.75 10.0235 0 0 0 
1158.803 1976.946 10.2035 0 0 0 
1207.853 1977.927 10.2035 0 0 0 
1209 1977 0 0 0 0 
1160 1916 -5 0 0 0 
1160 1969 146 0 0 0 
1160 1969 146 0 0 0 
1160 1969 146 0 0 0 
1207.853 1973.132 -6.2555 0 0 0 
1157.947 1917.675 -5.5395 0 0 0 
1159.711 1971.864 142.7715 0 0 0 
1157.947 1969.668 142.5915 0 0 0 
1163.397 1969.341 142.5915 0 0 0 
1204.704 1967.216 -10.184 0 0 0 
1156.696 1922 -6.896 0 0 0 
1159.048 1974.112 133.472 0 0 0 
1156.696 1971.184 133.232 0 0 0 
1168.296 1970.488 133.232 0 0 0 
1199.991 1959.834 -12.1785 0 0 0 
1156.109 1928.375 -8.6765 0 0 0 
1158.167 1975.828 119.4305 0 0 0 
1156.109 1973.266 119.2205 0 0 0 
1174.259 1972.177 119.2205 0 0 0 
1194.152 1951.568 -12.632 0 0 0 
1156.048 1936.2 -10.488 0 0 0 
1157.224 1977.096 101.976 0 0 0 
1156.048 1975.632 101.856 0 0 0 
1180.848 1974.144 101.856 0 0 0 
1187.625 1943 -11.9375 0 0 0 
1156.375 1944.875 -11.9375 0 0 0 
1156.375 1978 82.4375 0 0 0 
1156.375 1978 82.4375 0 0 0 
1187.625 1976.125 82.4375 0 0 0 
1180.848 1934.712 -10.488 0 0 0 
1156.952 1953.8 -12.632 0 0 0 
1155.776 1978.624 62.144 0 0 0 
1156.952 1980.088 62.264 0 0 0 
1194.152 1977.856 62.264 0 0 0 
1174.259 1927.286 -8.6765 0 0 0 
1157.641 1962.375 -12.1785 0 0 0 
1155.583 1979.052 42.4245 0 0 0 
1157.641 1981.614 42.6345 0 0 0 
1199.991 1979.073 42.6345 0 0 0 
1168.296 1921.304 -6.896 0 0 0 
1158.304 1970 -10.184 0 0 0 
1155.952 1979.368 24.608 0 0 0 
1158.304 1982.296 24.848 0 0 0 
1204.704 1979.512 24.848 0 0 0 
1163.397 1917.348 -5.5395 0 0 0 
1158.803 1976.075 -6.2555 0 0 0 
1157.039 1979.656 10.0235 0 0 0 
1158.803 1981.852 10.2035 0 0 0 
1207.853 1978.909 10.2035 0 0 0 
1209 1977 0 0 0 0 
1160 1916 -5 0 0 0 
1160 1986 146 0 0 0 
1160 1986 146 0 0 0 
1160 1986 146 0 0 0 
1207.853 1972.443 -6.2555 0 0 0 
1157.947 1917.599 -5.5395 0 0 0 
1159.711 1988.464 142.7715 0 0 0 
1157.947 1986.269 142.5915 0 0 0 
1163.397 1985.942 142.5915 0 0 0 
1204.704 1966.128 -10.184 0 0 0 
1156.696 1921.728 -6.896 0 0 0 
1159.048 1989.616 133.472 0 0 0 
1156.696 1986.688 133.232 0 0 0 
1168.296 1985.992 133.232 0 0 0 
1199.991 1958.584 -12.1785 0 0 0 
1156.109 1927.839 -8.6765 0 0 0 
1158.167 1989.692 119.4305 0 0 0 
1156.109 1987.13 119.2205 0 0 0 
1174.259 1986.041 119.2205 0 0 0 
1194.152 1950.344 -12.632 0 0 0 
1156.048 1935.384 -10.488 0 0 0 
1157.224 1988.928 101.976 0 0 0 
1156.048 1987.464 101.856 0 0 0 
1180.848 1985.976 101.856 0 0 0 
1187.625 1941.938 -11.9375 0 0 0 
1156.375 1943.812 -11.9375 0 0 0 
1156.375 1987.562 82.4375 0 0 0 
1156.375 1987.562 82.4375 0 0 0 
1187.625 1985.688 82.4375 0 0 0 
1180.848 1933.896 -10.488 0 0 0 
1156.952 1952.576 -12.632 0 0 0 
1155.776 1985.832 62.144 0 0 0 
1156.952 1987.296 62.264 0 0 0 
1194.152 1985.064 62.264 0 0 0 
1174.259 1926.75 -8.6765 0 0 0 
1157.641 1961.125 -12.1785 0 0 0 
1155.583 1983.974 42.4245 0 0 0 
1157.641 1986.536 42.6345 0 0 0 
1199.991 1983.995 42.6345 0 0 0 
1168.296 1921.032 -6.896 0 0 0 
1158.304 1968.912 -10.184 0 0 0 
1155.952 1982.224 24.608 0 0 0 
1158.304 1985.152 24.848 0 0 0 
1204.704 1982.368 24.848 0 0 0 
1163.397 1917.271 -5.5395 0 0 0 
1158.803 1975.386 -6.2555 0 0 0 
1157.039 1980.821 10.0235 0 0 0 
1158.803 1983.016 10.2035 0 0 0 
1207.853 1980.073 10.2035 0 0 0 
1209 1977 0 0 0 0 
1160 1916 -5 0 0 0 
1160 1987 146 0 0 0 
1160 1987 146 0 0 0 
1160 1987 146 0 0 0 
1207.853 1972.335 -6.2555 0 0 0 
1157.947 1918.621 -5.5395 0 0 0 
1159.711 1990.469 142.7715 0 0 0 
1157.947 1988.272 142.5915 0 0 0 
1163.397 1986.311 142.5915 0 0 0 
1204.704 1965.824 -10.184 0 0 0 
1156.696 1924.232 -6.896 0 0 0 
1159.048 1993.048 133.472 0 0 0 
1156.696 1990.12 133.232 0 0 0 
1168.296 1985.944 133.232 0 0 0 
1199.991 1958.038 -12.1785 0 0 0 
1156.109 1932.151 -8.6765 0 0 0 
1158.167 1994.849 119.4305 0 0 0 
1156.109 1992.287 119.2205 0 0 0 
1174.259 1985.754 119.2205 0 0 0 
1194.152 1949.552 -12.632 0 0 0 
1156.048 1941.696 -10.488 0 0 0 
1157.224 1995.984 101.976 0 0 0 
1156.048 1994.52 101.856 0 0 0 
1180.848 1985.592 101.856 0 0 0 
1187.625 1940.938 -11.9375 0 0 0 
1156.375 1952.188 -11.9375 0 0 0 
1156.375 1996.562 82.4375 0 0 0 
1156.375 1996.562 82.4375 0 0 0 
1187.625 1985.312 82.4375 0 0 0 
1180.848 1932.768 -10.488 0 0 0 
1156.952 1962.944 -12.632 0 0 0 
1155.776 1996.696 62.144 0 0 0 
1156.952 1998.16 62.264 0 0 0 
1194.152 1984.768 62.264 0 0 0 
1174.259 1925.616 -8.6765 0 0 0 
1157.641 1973.285 -12.1785 0 0 0 
1155.583 1996.495 42.4245 0 0 0 
1157.641 1999.057 42.6345 0 0 0 
1199.991 1983.812 42.6345 0 0 0 
1168.296 1920.056 -6.896 0 0 0 
1158.304 1982.528 -10.184 0 0 0 
1155.952 1996.072 24.608 0 0 0 
1158.304 1999 24.848 0 0 0 
1204.704 1982.296 24.848 0 0 0 
1163.397 1916.66 -5.5395 0 0 0 
1158.803 1989.994 -6.2555 0 0 0 
1157.039 1995.536 10.0235 0 0 0 
1158.803 1997.733 10.2035 0 0 0 
1207.853 1980.074 10.2035 0 0 0 
1209 1978 0 0 0 0 
1160 1987 -5 0 0 0 
1160 1988 146 0 0 0 
1160 1988 146 0 0 0 
1160 1988 146 0 0 0 
1207.853 1978.135 -6.2555 0 0 0 
1157.947 1987.908 -5.5395 0 0 0 
1159.711 1988.565 142.7715 0 0 0 
1157.947 1988.889 142.5915 0 0 0 
1163.397 1987.036 142.5915 0 0 0 
1204.704 1978.6 -10.184 0 0 0 
1156.696 1988.904 -6.896 0 0 0 
1159.048 1989.4 133.472 0 0 0 
1156.696 1989.832 133.232 0 0 0 
1168.296 1985.888 133.232 0 0 0 
1199.991 1979.335 -12.1785 0 0 0 
1156.109 1989.946 -8.6765 0 0 0 
1158.167 1990.415 119.4305 0 0 0 
1156.109 1990.793 119.2205 0 0 0 
1174.259 1984.622 119.2205 0 0 0 
1194.152 1980.28 -12.632 0 0 0 
1156.048 1990.992 -10.488 0 0 0 
1157.224 1991.52 101.976 0 0 0 
1156.048 1991.736 101.856 0 0 0 
1180.848 1983.304 101.856 0 0 0 
1187.625 1981.375 -11.9375 0 0 0 
1156.375 1992 -11.9375 0 0 0 
1156.375 1992.625 82.4375 0 0 0 
1156.375 1992.625 82.4375 0 0 0 
1187.625 1982 82.4375 0 0 0 
1180.848 1982.56 -10.488 0 0 0 
1156.952 1992.928 -12.632 0 0 0 
1155.776 1993.64 62.144 0 0 0 
1156.952 1993.424 62.264 0 0 0 
1194.152 1980.776 62.264 0 0 0 
1174.259 1983.775 -8.6765 0 0 0 
1157.641 1993.734 -12.1785 0 0 0 
1155.583 1994.475 42.4245 0 0 0 
1157.641 1994.097 42.6345 0 0 0 
1199.991 1979.698 42.6345 0 0 0 
1168.296 1984.96 -6.896 0 0 0 
1158.304 1994.376 -10.184 0 0 0 
1155.952 1995.04 24.608 0 0 0 
1158.304 1994.608 24.848 0 0 0 
1204.704 1978.832 24.848 0 0 0 
1163.397 1986.055 -5.5395 0 0 0 
1158.803 1994.812 -6.2555 0 0 0 
1157.039 1995.245 10.0235 0 0 0 
1158.803 1994.921 10.2035 0 0 0 
1207.853 1978.244 10.2035 0 0 0 
1209 1978 0 0 0 0 
1160 1987 -5 0 0 0 
1160 1989 146 0 0 0 
1160 1989 146 0 0 0 
1160 1989 146 0 0 0 
1207.853 1978.09 -6.2555 0 0 0 
1157.947 1987.972 -5.5395 0 0 0 
1159.711 1989.61 142.7715 0 0 0 
1157.947 1989.934 142.5915 0 0 0 
1163.397 1987.972 142.5915 0 0 0 
1204.704 1978.52 -10.184 0 0 0 
1156.696 1989.056 -6.896 0 0 0 
1159.048 1990.48 133.472 0 0 0 
1156.696 1990.912 133.232 0 0 0 
1168.296 1986.736 133.232 0 0 0 
1199.991 1979.23 -12.1785 0 0 0 
1156.109 1990.204 -8.6765 0 0 0 
1158.167 1991.52 119.4305 0 0 0 
1156.109 1991.898 119.2205 0 0 0 
1174.259 1985.364 119.2205 0 0 0 
1194.152 1980.16 -12.632 0 0 0 
1156.048 1991.368 -10.488 0 0 0 
1157.224 1992.64 101.976 0 0 0 
1156.048 1992.856 101.856 0 0 0 
1180.848 1983.928 101.856 0 0 0 
1187.625 1981.25 -11.9375 0 0 0 
1156.375 1992.5 -11.9375 0 0 0 
1156.375 1993.75 82.4375 0 0 0 
1156.375 1993.75 82.4375 0 0 0 
1187.625 1982.5 82.4375 0 0 0 
1180.848 1982.44 -10.488 0 0 0 
1156.952 1993.552 -12.632 0 0 0 
1155.776 1994.76 62.144 0 0 0 
1156.952 1994.544 62.264 0 0 0 
1194.152 1981.152 62.264 0 0 0 
1174.259 1983.67 -8.6765 0 0 0 
1157.641 1994.476 -12.1785 0 0 0 
1155.583 1995.58 42.4245 0 0 0 
1157.641 1995.202 42.6345 0 0 0 
1199.991 1979.956 42.6345 0 0 0 
1168.296 1984.88 -6.896 0 0 0 
1158.304 1995.224 -10.184 0 0 0 
1155.952 1996.12 24.608 0 0 0 
1158.304 1995.688 24.848 0 0 0 
1204.704 1978.984 24.848 0 0 0 
1163.397 1986.01 -5.5395 0 0 0 
1158.803 1995.748 -6.2555 0 0 0 
1157.039 1996.29 10.0235 0 0 0 
1158.803 1995.966 10.2035 0 0 0 
1207.853 1978.308 10.2035 0 0 0 
1209 1978 0 0 0 0 
1160 1988 -5 0 0 0 
1160 1967 147 0 0 0 
1160 1967 147 0 0 0 
1160 1967 147 0 0 0 
1207.853 1979.045 -6.296 0 0 0 
1157.947 1989.116 -5.544 0 0 0 
1159.711 1968.155 143.748 0 0 0 
1157.947 1968.515 143.568 0 0 0 
1163.397 1966.444 143.568 0 0 0 
1204.704 1980.08 -10.248 0 0 0 
1156.696 1990.488 -6.912 0 0 0 
1159.048 1970.52 134.384 0 0 0 
1156.696 1971 134.144 0 0 0 
1168.296 1966.592 134.144 0 0 0 
1199.991 1981.105 -12.252 0 0 0 
1156.109 1992.002 -8.708 0 0 0 
1158.167 1973.795 120.246 0 0 0 
1156.109 1974.215 120.036 0 0 0 
1174.259 1967.318 120.036 0 0 0 
1194.152 1982.12 -12.704 0 0 0 
1156.048 1993.544 -10.536 0 0 0 
1157.224 1977.68 102.672 0 0 0 
1156.048 1977.92 102.552 0 0 0 
1180.848 1968.496 102.552 0 0 0 
1187.625 1983.125 -12 0 0 0 
1156.375 1995 -12 0 0 0 
1156.375 1981.875 83 0 0 0 
1156.375 1981.875 83 0 0 0 
1187.625 1970 83 0 0 0 
1180.848 1984.12 -10.536 0 0 0 
1156.952 1996.256 -12.704 0 0 0 
1155.776 1986.08 62.568 0 0 0 
1156.952 1985.84 62.688 0 0 0 
1194.152 1971.704 62.688 0 0 0 
1174.259 1985.105 -8.708 0 0 0 
1157.641 1997.198 -12.252 0 0 0 
1155.583 1989.995 42.714 0 0 0 
1157.641 1989.575 42.924 0 0 0 
1199.991 1973.482 42.924 0 0 0 
1168.296 1986.08 -6.912 0 0 0 
1158.304 1997.712 -10.248 0 0 0 
1155.952 1993.32 24.776 0 0 0 
1158.304 1992.84 25.016 0 0 0 
1204.704 1975.208 25.016 0 0 0 
1163.397 1987.045 -5.544 0 0 0 
1158.803 1997.684 -6.296 0 0 0 
1157.039 1995.755 10.092 0 0 0 
1158.803 1995.395 10.272 0 0 0 
1207.853 1976.756 10.272 0 0 0 
1209 1978 0 0 0 0 
1160 1988 -5 0 0 0 
1160 1968 147 0 0 0 
1160 1968 147 0 0 0 
1160 1968 147 0 0 0 
1207.853 1979.005 -6.296 0 0 0 
1157.947 1989.111 -5.544 0 0 0 
1159.711 1969.131 143.748 0 0 0 
1157.947 1969.491 143.568 0 0 0 
1163.397 1967.421 143.568 0 0 0 
1204.704 1980.016 -10.248 0 0 0 
1156.696 1990.472 -6.912 0 0 0 
1159.048 1971.432 134.384 0 0 0 
1156.696 1971.912 134.144 0 0 0 
1168.296 1967.504 134.144 0 0 0 
1199.991 1981.031 -12.252 0 0 0 
1156.109 1991.97 -8.708 0 0 0 
1158.167 1974.61 120.246 0 0 0 
1156.109 1975.031 120.036 0 0 0 
1174.259 1968.134 120.036 0 0 0 
1194.152 1982.048 -12.704 0 0 0 
1156.048 1993.496 -10.536 0 0 0 
1157.224 1978.376 102.672 0 0 0 
1156.048 1978.616 102.552 0 0 0 
1180.848 1969.192 102.552 0 0 0 
1187.625 1983.062 -12 0 0 0 
1156.375 1994.938 -12 0 0 0 
1156.375 1982.438 83 0 0 0 
1156.375 1982.438 83 0 0 0 
1187.625 1970.562 83 0 0 0 
1180.848 1984.072 -10.536 0 0 0 
1156.952 1996.184 -12.704 0 0 0 
1155.776 1986.504 62.568 0 0 0 
1156.952 1986.264 62.688 0 0 0 
1194.152 1972.128 62.688 0 0 0 
1174.259 1985.073 -8.708 0 0 0 
1157.641 1997.125 -12.252 0 0 0 
1155.583 1990.285 42.714 0 0 0 
1157.641 1989.865 42.924 0 0 0 
1199.991 1973.771 42.924 0 0 0 
1168.296 1986.064 -6.912 0 0 0 
1158.304 1997.648 -10.248 0 0 0 
1155.952 1993.488 24.776 0 0 0 
1158.304 1993.008 25.016 0 0 0 
1204.704 1975.376 25.016 0 0 0 
1163.397 1987.041 -5.544 0 0 0 
1158.803 1997.644 -6.296 0 0 0 
1157.039 1995.823 10.092 0 0 0 
1158.803 1995.464 10.272 0 0 0 
1207.853 1976.824 10.272 0 0 0 
1209 1979 0 0 0 0 
1160 1988 -5 0 0 0 
1160 1969 147 0 0 0 
1160 1969 147 0 0 0 
1160 1969 147 0 0 0 
1207.849 1980.048 -6.296 0 0 0 
1158.016 1987.422 -5.544 0 0 0 
1159.78 1968.459 143.748 0 0 0 
1158.016 1968.783 143.568 0 0 0 
1163.356 1969.438 143.568 0 0 0 
1204.688 1981.248 -10.248 0 0 0 
1156.864 1986.36 -6.912 0 0 0 
1159.216 1968.296 134.384 0 0 0 
1156.864 1968.728 134.144 0 0 0 
1168.232 1970.12 134.144 0 0 0 
1199.959 1982.53 -12.252 0 0 0 
1156.398 1984.917 -8.708 0 0 0 
1158.457 1968.447 120.246 0 0 0 
1156.398 1968.824 120.036 0 0 0 
1174.186 1971.002 120.036 0 0 0 
1194.104 1983.824 -12.704 0 0 0 
1156.472 1983.2 -10.536 0 0 0 
1157.648 1968.848 102.672 0 0 0 
1156.472 1969.064 102.552 0 0 0 
1180.776 1972.04 102.552 0 0 0 
1187.562 1985.062 -12 0 0 0 
1156.938 1981.312 -12 0 0 0 
1156.938 1969.438 83 0 0 0 
1156.938 1969.438 83 0 0 0 
1187.562 1973.188 83 0 0 0 
1180.776 1986.176 -10.536 0 0 0 
1157.648 1979.36 -12.704 0 0 0 
1156.472 1970.152 62.568 0 0 0 
1157.648 1969.936 62.688 0 0 0 
1194.104 1974.4 62.688 0 0 0 
1174.186 1987.095 -8.708 0 0 0 
1158.457 1977.448 -12.252 0 0 0 
1156.398 1970.928 42.714 0 0 0 
1158.457 1970.551 42.924 0 0 0 
1199.959 1975.632 42.924 0 0 0 
1168.232 1987.752 -6.912 0 0 0 
1159.216 1975.68 -10.248 0 0 0 
1156.864 1971.704 24.776 0 0 0 
1159.216 1971.272 25.016 0 0 0 
1204.688 1976.84 25.016 0 0 0 
1163.356 1988.077 -5.544 0 0 0 
1159.78 1974.162 -6.296 0 0 0 
1158.016 1972.416 10.092 0 0 0 
1159.78 1972.092 10.272 0 0 0 
1207.849 1977.978 10.272 0 0 0 
1209 1979 0 0 0 0 
1160 1989 -5 0 0 0 
1160 1970 147 0 0 0 
1160 1970 147 0 0 0 
1160 1970 147 0 0 0 
1207.849 1980.077 -6.296 0 0 0 
1158.016 1988.395 -5.544 0 0 0 
1159.78 1969.396 143.748 0 0 0 
1158.016 1969.755 143.568 0 0 0 
1163.356 1970.41 143.568 0 0 0 
1204.688 1981.352 -10.248 0 0 0 
1156.864 1987.256 -6.912 0 0 0 
1159.216 1969.144 134.384 0 0 0 
1156.864 1969.624 134.144 0 0 0 
1168.232 1971.016 134.144 0 0 0 
1199.959 1982.745 -12.252 0 0 0 
1156.398 1985.702 -8.708 0 0 0 
1158.457 1969.188 120.246 0 0 0 
1156.398 1969.609 120.036 0 0 0 
1174.186 1971.786 120.036 0 0 0 
1194.104 1984.176 -12.704 0 0 0 
1156.472 1983.848 -10.536 0 0 0 
1157.648 1969.472 102.672 0 0 0 
1156.472 1969.712 102.552 0 0 0 
1180.776 1972.688 102.552 0 0 0 
1187.562 1985.562 -12 0 0 0 
1156.938 1981.812 -12 0 0 0 
1156.938 1969.938 83 0 0 0 
1156.938 1969.938 83 0 0 0 
1187.562 1973.688 83 0 0 0 
1180.776 1986.824 -10.536 0 0 0 
1157.648 1979.712 -12.704 0 0 0 
1156.472 1970.528 62.568 0 0 0 
1157.648 1970.288 62.688 0 0 0 
1194.104 1974.752 62.688 0 0 0 
1174.186 1987.88 -8.708 0 0 0 
1158.457 1977.663 -12.252 0 0 0 
1156.398 1971.187 42.714 0 0 0 
1158.457 1970.766 42.924 0 0 0 
1199.959 1975.849 42.924 0 0 0 
1168.232 1988.648 -6.912 0 0 0 
1159.216 1975.784 -10.248 0 0 0 
1156.864 1971.856 24.776 0 0 0 
1159.216 1971.376 25.016 0 0 0 
1204.688 1976.944 25.016 0 0 0 
1163.356 1989.048 -5.544 0 0 0 
1159.78 1974.191 -6.296 0 0 0 
1158.016 1972.479 10.092 0 0 0 
1159.78 1972.12 10.272 0 0 0 
1207.849 1978.005 10.272 0 0 0 
1209 1979 0 0 0 0 
1160 1989 -5 0 0 0 
1160 1985 147 0 0 0 
1160 1985 147 0 0 0 
1160 1985 147 0 0 0 
1207.849 1979.464 -6.296 0 0 0 
1158.016 1988.396 -5.544 0 0 0 
1159.78 1984.111 143.748 0 0 0 
1158.016 1984.472 143.568 0 0 0 
1163.356 1985.016 143.568 0 0 0 
1204.688 1980.376 -10.248 0 0 0 
1156.864 1987.184 -6.912 0 0 0 
1159.216 1982.992 134.384 0 0 0 
1156.864 1983.472 134.144 0 0 0 
1168.232 1984.632 134.144 0 0 0 
1199.959 1981.611 -12.252 0 0 0 
1156.398 1985.519 -8.708 0 0 0 
1158.457 1981.71 120.246 0 0 0 
1156.398 1982.13 120.036 0 0 0 
1174.186 1983.946 120.036 0 0 0 
1194.104 1983.048 -12.704 0 0 0 
1156.472 1983.552 -10.536 0 0 0 
1157.648 1980.336 102.672 0 0 0 
1156.472 1980.576 102.552 0 0 0 
1180.776 1983.056 102.552 0 0 0 
1187.562 1984.562 -12 0 0 0 
1156.938 1981.438 -12 0 0 0 
1156.938 1978.938 83 0 0 0 
1156.938 1978.938 83 0 0 0 
1187.562 1982.062 83 0 0 0 
1180.776 1986.032 -10.536 0 0 0 
1157.648 1979.328 -12.704 0 0 0 
1156.472 1977.584 62.568 0 0 0 
1157.648 1977.344 62.688 0 0 0 
1194.104 1981.064 62.688 0 0 0 
1174.186 1987.333 -8.708 0 0 0 
1158.457 1977.376 -12.252 0 0 0 
1156.398 1976.344 42.714 0 0 0 
1158.457 1975.925 42.924 0 0 0 
1199.959 1980.16 42.924 0 0 0 
1168.232 1988.344 -6.912 0 0 0 
1159.216 1975.736 -10.248 0 0 0 
1156.864 1975.288 24.776 0 0 0 
1159.216 1974.808 25.016 0 0 0 
1204.688 1979.448 25.016 0 0 0 
1163.356 1988.941 -5.544 0 0 0 
1159.78 1974.559 -6.296 0 0 0 
1158.016 1974.484 10.092 0 0 0 
1159.78 1974.124 10.272 0 0 0 
1207.849 1979.028 10.272 0 0 0 
1209 1979 0 0 0 0 
1160 1989 -5 0 0 0 
1160 1986 147 0 0 0 
1160 1986 147 0 0 0 
1160 1986 147 0 0 0 
1207.849 1979.42 -6.296 0 0 0 
1158.016 1988.459 -5.544 0 0 0 
1159.78 1985.156 143.748 0 0 0 
1158.016 1985.516 143.568 0 0 0 
1163.356 1985.953 143.568 0 0 0 
1204.688 1980.296 -10.248 0 0 0 
1156.864 1987.336 -6.912 0 0 0 
1159.216 1984.072 134.384 0 0 0 
1156.864 1984.552 134.144 0 0 0 
1168.232 1985.48 134.144 0 0 0 
1199.959 1981.506 -12.252 0 0 0 
1156.398 1985.776 -8.708 0 0 0 
1158.457 1982.816 120.246 0 0 0 
1156.398 1983.235 120.036 0 0 0 
1174.186 1984.688 120.036 0 0 0 
1194.104 1982.928 -12.704 0 0 0 
1156.472 1983.928 -10.536 0 0 0 
1157.648 1981.456 102.672 0 0 0 
1156.472 1981.696 102.552 0 0 0 
1180.776 1983.68 102.552 0 0 0 
1187.562 1984.438 -12 0 0 0 
1156.938 1981.938 -12 0 0 0 
1156.938 1980.062 83 0 0 0 
1156.938 1980.062 83 0 0 0 
1187.562 1982.562 83 0 0 0 
1180.776 1985.912 -10.536 0 0 0 
1157.648 1979.952 -12.704 0 0 0 
1156.472 1978.704 62.568 0 0 0 
1157.648 1978.464 62.688 0 0 0 
1194.104 1981.44 62.688 0 0 0 
1174.186 1987.229 -8.708 0 0 0 
1158.457 1978.119 -12.252 0 0 0 
1156.398 1977.449 42.714 0 0 0 
1158.457 1977.03 42.924 0 0 0 
1199.959 1980.417 42.924 0 0 0 
1168.232 1988.264 -6.912 0 0 0 
1159.216 1976.584 -10.248 0 0 0 
1156.864 1976.368 24.776 0 0 0 
1159.216 1975.888 25.016 0 0 0 
1204.688 1979.6 25.016 0 0 0 
1163.356 1988.896 -5.544 0 0 0 
1159.78 1975.495 -6.296 0 0 0 
1158.016 1975.528 10.092 0 0 0 
1159.78 1975.168 10.272 0 0 0 
1207.849 1979.093 10.272 0 0 0 
1209 1980 0 0 0 0 
1160 1915 -4 0 0 0 
1160 1987 147 0 0 0 
1160 1987 147 0 0 0 
1160 1987 147 0 0 0 
1207.849 1975.286 -6.2275 0 0 0 
1158.016 1916.153 -4.5675 0 0 0 
1159.78 1989.125 143.7075 0 0 0 
1158.016 1986.786 143.5635 0 0 0 
1163.356 1987.33 143.5635 0 0 0 
1204.688 1968.712 -10.08 0 0 0 
1156.864 1919.768 -6 0 0 0 
1159.216 1989.704 134.32 0 0 0 
1156.864 1986.584 134.128 0 0 0 
1168.232 1987.744 134.128 0 0 0 
1199.959 1960.825 -11.9625 0 0 0 
1156.398 1925.324 -7.8925 0 0 0 
1158.457 1989.038 120.1725 0 0 0 
1156.398 1986.308 120.0045 0 0 0 
1174.186 1988.124 120.0045 0 0 0 
1194.104 1952.176 -12.28 0 0 0 
1156.472 1932.304 -9.84 0 0 0 
1157.648 1987.432 102.6 0 0 0 
1156.472 1985.872 102.504 0 0 0 
1180.776 1988.352 102.504 0 0 0 
1187.562 1943.312 -11.4375 0 0 0 
1156.938 1940.188 -11.4375 0 0 0 
1156.938 1985.188 82.9375 0 0 0 
1156.938 1985.188 82.9375 0 0 0 
1187.562 1988.312 82.9375 0 0 0 
1180.776 1934.784 -9.84 0 0 0 
1157.648 1948.456 -12.28 0 0 0 
1156.472 1982.608 62.52 0 0 0 
1157.648 1984.168 62.616 0 0 0 
1194.104 1987.888 62.616 0 0 0 
1174.186 1927.14 -7.8925 0 0 0 
1158.457 1956.59 -11.9625 0 0 0 
1156.398 1979.996 42.6825 0 0 0 
1158.457 1982.726 42.8505 0 0 0 
1199.959 1986.962 42.8505 0 0 0 
1168.232 1920.928 -6 0 0 0 
1159.216 1964.072 -10.08 0 0 0 
1156.864 1977.656 24.76 0 0 0 
1159.216 1980.776 24.952 0 0 0 
1204.688 1985.416 24.952 0 0 0 
1163.356 1916.698 -4.5675 0 0 0 
1159.78 1970.381 -6.2275 0 0 0 
1158.016 1975.89 10.0875 0 0 0 
1159.78 1978.229 10.2315 0 0 0 
1207.849 1983.135 10.2315 0 0 0 
1209 1980 0 0 0 0 
1160 1915 -4 0 0 0 
1160 1988 147 0 0 0 
1160 1988 147 0 0 0 
1160 1988 147 0 0 0 
1207.849 1975.228 -6.2275 0 0 0 
1158.016 1916.423 -4.5675 0 0 0 
1159.78 1990.376 143.7075 0 0 0 
1158.016 1988.036 143.5635 0 0 0 
1163.356 1988.145 143.5635 0 0 0 
1204.688 1968.584 -10.08 0 0 0 
1156.864 1920.424 -6 0 0 0 
1159.216 1991.288 134.32 0 0 0 
1156.864 1988.168 134.128 0 0 0 
1168.232 1988.4 134.128 0 0 0 
1199.959 1960.626 -11.9625 0 0 0 
1156.398 1926.451 -7.8925 0 0 0 
1158.457 1991.012 120.1725 0 0 0 
1156.398 1988.282 120.0045 0 0 0 
1174.186 1988.645 120.0045 0 0 0 
1194.104 1951.912 -12.28 0 0 0 
1156.472 1933.952 -9.84 0 0 0 
1157.648 1989.824 102.6 0 0 0 
1156.472 1988.264 102.504 0 0 0 
1180.776 1988.76 102.504 0 0 0 
1187.562 1943 -11.4375 0 0 0 
1156.938 1942.375 -11.4375 0 0 0 
1156.938 1988 82.9375 0 0 0 
1156.938 1988 82.9375 0 0 0 
1187.562 1988.625 82.9375 0 0 0 
1180.776 1934.448 -9.84 0 0 0 
1157.648 1951.168 -12.28 0 0 0 
1156.472 1985.816 62.52 0 0 0 
1157.648 1987.376 62.616 0 0 0 
1194.104 1988.12 62.616 0 0 0 
1174.186 1926.814 -7.8925 0 0 0 
1158.457 1959.779 -11.9625 0 0 0 
1156.398 1983.548 42.6825 0 0 0 
1158.457 1986.278 42.8505 0 0 0 
1199.959 1987.125 42.8505 0 0 0 
1168.232 1920.656 -6 0 0 0 
1159.216 1967.656 -10.08 0 0 0 
1156.864 1981.472 24.76 0 0 0 
1159.216 1984.592 24.952 0 0 0 
1204.688 1985.52 24.952 0 0 0 
1163.356 1916.532 -4.5675 0 0 0 
1159.78 1974.247 -6.2275 0 0 0 
1158.016 1979.864 10.0875 0 0 0 
1159.78 1982.204 10.2315 0 0 0 
1207.849 1983.185 10.2315 0 0 0 
1209 1980 0 0 0 0 
1160 1916 -4 0 0 0 
1160 1967 148 0 0 0 
1160 1967 148 0 0 0 
1160 1967 148 0 0 0 
1207.849 1976.147 -6.268 0 0 0 
1158.016 1917.494 -4.572 0 0 0 
1159.78 1969.829 144.684 0 0 0 
1158.016 1967.525 144.54 0 0 0 
1163.356 1967.634 144.54 0 0 0 
1204.688 1970.096 -10.144 0 0 0 
1156.864 1921.672 -6.016 0 0 0 
1159.216 1972.072 135.232 0 0 0 
1156.864 1969 135.04 0 0 0 
1168.232 1969.232 135.04 0 0 0 
1199.959 1962.459 -12.036 0 0 0 
1156.398 1927.928 -7.924 0 0 0 
1158.457 1973.813 120.988 0 0 0 
1156.398 1971.125 120.82 0 0 0 
1174.186 1971.488 120.82 0 0 0 
1194.104 1953.848 -12.352 0 0 0 
1156.472 1935.656 -9.888 0 0 0 
1157.648 1975.136 103.296 0 0 0 
1156.472 1973.6 103.2 0 0 0 
1180.776 1974.096 103.2 0 0 0 
1187.562 1944.875 -11.5 0 0 0 
1156.938 1944.25 -11.5 0 0 0 
1156.938 1976.125 83.5 0 0 0 
1156.938 1976.125 83.5 0 0 0 
1187.562 1976.75 83.5 0 0 0 
1180.776 1936.152 -9.888 0 0 0 
1157.648 1953.104 -12.352 0 0 0 
1156.472 1976.864 62.944 0 0 0 
1157.648 1978.4 63.04 0 0 0 
1194.104 1979.144 63.04 0 0 0 
1174.186 1928.291 -7.924 0 0 0 
1158.457 1961.612 -12.036 0 0 0 
1156.398 1977.437 42.972 0 0 0 
1158.457 1980.125 43.14 0 0 0 
1199.959 1980.972 43.14 0 0 0 
1168.232 1921.904 -6.016 0 0 0 
1159.216 1969.168 -10.144 0 0 0 
1156.864 1977.928 24.928 0 0 0 
1159.216 1981 25.12 0 0 0 
1204.688 1981.928 25.12 0 0 0 
1163.356 1917.603 -4.572 0 0 0 
1159.78 1975.166 -6.268 0 0 0 
1158.016 1978.421 10.156 0 0 0 
1159.78 1980.725 10.3 0 0 0 
1207.849 1981.706 10.3 0 0 0 
1209 1980 0 0 0 0 
1160 1916 -4 0 0 0 
1160 1968 148 0 0 0 
1160 1968 148 0 0 0 
1160 1968 148 0 0 0 
1207.849 1976.102 -6.268 0 0 0 
1158.016 1917.558 -4.572 0 0 0 
1159.78 1970.874 144.684 0 0 0 
1158.016 1968.57 144.54 0 0 0 
1163.356 1968.57 144.54 0 0 0 
1204.688 1970.016 -10.144 0 0 0 
1156.864 1921.824 -6.016 0 0 0 
1159.216 1973.152 135.232 0 0 0 
1156.864 1970.08 135.04 0 0 0 
1168.232 1970.08 135.04 0 0 0 
1199.959 1962.354 -12.036 0 0 0 
1156.398 1928.186 -7.924 0 0 0 
1158.457 1974.918 120.988 0 0 0 
1156.398 1972.23 120.82 0 0 0 
1174.186 1972.23 120.82 0 0 0 
1194.104 1953.728 -12.352 0 0 0 
1156.472 1936.032 -9.888 0 0 0 
1157.648 1976.256 103.296 0 0 0 
1156.472 1974.72 103.2 0 0 0 
1180.776 1974.72 103.2 0 0 0 
1187.562 1944.75 -11.5 0 0 0 
1156.938 1944.75 -11.5 0 0 0 
1156.938 1977.25 83.5 0 0 0 
1156.938 1977.25 83.5 0 0 0 
1187.562 1977.25 83.5 0 0 0 
1180.776 1936.032 -9.888 0 0 0 
1157.648 1953.728 -12.352 0 0 0 
1156.472 1977.984 62.944 0 0 0 
1157.648 1979.52 63.04 0 0 0 
1194.104 1979.52 63.04 0 0 0 
1174.186 1928.186 -7.924 0 0 0 
1158.457 1962.354 -12.036 0 0 0 
1156.398 1978.542 42.972 0 0 0 
1158.457 1981.23 43.14 0 0 0 
1199.959 1981.23 43.14 0 0 0 
1168.232 1921.824 -6.016 0 0 0 
1159.216 1970.016 -10.144 0 0 0 
1156.864 1979.008 24.928 0 0 0 
1159.216 1982.08 25.12 0 0 0 
1204.688 1982.08 25.12 0 0 0 
1163.356 1917.558 -4.572 0 0 0 
1159.78 1976.102 -6.268 0 0 0 
1158.016 1979.466 10.156 0 0 0 
1159.78 1981.77 10.3 0 0 0 
1207.849 1981.77 10.3 0 0 0 
1209 1981 0 0 0 0 
1160 1916 -4 0 0 0 
1160 1969 148 0 0 0 
1160 1969 148 0 0 0 
1160 1969 148 0 0 0 
1207.849 1976.97 -6.268 0 0 0 
1158.016 1918.541 -4.572 0 0 0 
1159.78 1972.874 144.684 0 0 0 
1158.016 1970.533 144.54 0 0 0 
1163.356 1969.007 144.54 0 0 0 
1204.688 1970.624 -10.144 0 0 0 
1156.864 1924.264 -6.016 0 0 0 
1159.216 1976.568 135.232 0 0 0 
1156.864 1973.448 135.04 0 0 0 
1168.232 1970.2 135.04 0 0 0 
1199.959 1962.624 -12.036 0 0 0 
1156.398 1932.423 -7.924 0 0 0 
1158.457 1980.045 120.988 0 0 0 
1156.398 1977.314 120.82 0 0 0 
1174.186 1972.233 120.82 0 0 0 
1194.104 1953.632 -12.352 0 0 0 
1156.472 1942.272 -9.888 0 0 0 
1157.648 1983.264 103.296 0 0 0 
1156.472 1981.704 103.2 0 0 0 
1180.776 1974.76 103.2 0 0 0 
1187.562 1944.312 -11.5 0 0 0 
1156.938 1953.062 -11.5 0 0 0 
1156.938 1986.188 83.5 0 0 0 
1156.938 1986.188 83.5 0 0 0 
1187.562 1977.438 83.5 0 0 0 
1180.776 1935.328 -9.888 0 0 0 
1157.648 1964.048 -12.352 0 0 0 
1156.472 1988.776 62.944 0 0 0 
1157.648 1990.336 63.04 0 0 0 
1194.104 1979.92 63.04 0 0 0 
1174.186 1927.342 -7.924 0 0 0 
1158.457 1974.481 -12.036 0 0 0 
1156.398 1990.99 42.972 0 0 0 
1158.457 1993.72 43.14 0 0 0 
1199.959 1981.863 43.14 0 0 0 
1168.232 1921.016 -6.016 0 0 0 
1159.216 1983.616 -10.144 0 0 0 
1156.864 1992.792 24.928 0 0 0 
1159.216 1995.912 25.12 0 0 0 
1204.688 1982.92 25.12 0 0 0 
1163.356 1917.015 -4.572 0 0 0 
1159.78 1990.704 -6.268 0 0 0 
1158.016 1994.141 10.156 0 0 0 
1159.78 1996.481 10.3 0 0 0 
1207.849 1982.748 10.3 0 0 0 
1209 1981 0 0 0 0 
1160 1917 -4 0 0 0 
1160 1970 148 0 0 0 
1160 1970 148 0 0 0 
1160 1970 148 0 0 0 
1207.849 1976.999 -6.268 0 0 0 
1158.016 1919.512 -4.572 0 0 0 
1159.78 1973.809 144.684 0 0 0 
1158.016 1971.505 144.54 0 0 0 
1163.356 1969.979 144.54 0 0 0 
1204.688 1970.728 -10.144 0 0 0 
1156.864 1925.16 -6.016 0 0 0 
1159.216 1977.416 135.232 0 0 0 
1156.864 1974.344 135.04 0 0 0 
1168.232 1971.096 135.04 0 0 0 
1199.959 1962.839 -12.036 0 0 0 
1156.398 1933.208 -7.924 0 0 0 
1158.457 1980.786 120.988 0 0 0 
1156.398 1978.099 120.82 0 0 0 
1174.186 1973.016 120.82 0 0 0 
1194.104 1953.984 -12.352 0 0 0 
1156.472 1942.92 -9.888 0 0 0 
1157.648 1983.888 103.296 0 0 0 
1156.472 1982.352 103.2 0 0 0 
1180.776 1975.408 103.2 0 0 0 
1187.562 1944.812 -11.5 0 0 0 
1156.938 1953.562 -11.5 0 0 0 
1156.938 1986.688 83.5 0 0 0 
1156.938 1986.688 83.5 0 0 0 
1187.562 1977.938 83.5 0 0 0 
1180.776 1935.976 -9.888 0 0 0 
1157.648 1964.4 -12.352 0 0 0 
1156.472 1989.152 62.944 0 0 0 
1157.648 1990.688 63.04 0 0 0 
1194.104 1980.272 63.04 0 0 0 
1174.186 1928.125 -7.924 0 0 0 
1158.457 1974.698 -12.036 0 0 0 
1156.398 1991.249 42.972 0 0 0 
1158.457 1993.937 43.14 0 0 0 
1199.959 1982.078 43.14 0 0 0 
1168.232 1921.912 -6.016 0 0 0 
1159.216 1983.72 -10.144 0 0 0 
1156.864 1992.944 24.928 0 0 0 
1159.216 1996.016 25.12 0 0 0 
1204.688 1983.024 25.12 0 0 0 
1163.356 1917.986 -4.572 0 0 0 
1159.78 1990.733 -6.268 0 0 0 
1158.016 1994.205 10.156 0 0 0 
1159.78 1996.51 10.3 0 0 0 
1207.849 1982.776 10.3 0 0 0 
1209 1981 0 0 0 0 
1160 1917 -4 0 0 0 
1160 1971 148 0 0 0 
1160 1971 148 0 0 0 
1160 1971 148 0 0 0 
1207.849 1976.953 -6.268 0 0 0 
1158.016 1919.577 -4.572 0 0 0 
1159.78 1974.854 144.684 0 0 0 
1158.016 1972.551 144.54 0 0 0 
1163.356 1970.916 144.54 0 0 0 
1204.688 1970.648 -10.144 0 0 0 
1156.864 1925.312 -6.016 0 0 0 
1159.216 1978.496 135.232 0 0 0 
1156.864 1975.424 135.04 0 0 0 
1168.232 1971.944 135.04 0 0 0 
1199.959 1962.734 -12.036 0 0 0 
1156.398 1933.465 -7.924 0 0 0 
1158.457 1981.891 120.988 0 0 0 
1156.398 1979.203 120.82 0 0 0 
1174.186 1973.759 120.82 0 0 0 
1194.104 1953.864 -12.352 0 0 0 
1156.472 1943.296 -9.888 0 0 0 
1157.648 1985.008 103.296 0 0 0 
1156.472 1983.472 103.2 0 0 0 
1180.776 1976.032 103.2 0 0 0 
1187.562 1944.688 -11.5 0 0 0 
1156.938 1954.062 -11.5 0 0 0 
1156.938 1987.812 83.5 0 0 0 
1156.938 1987.812 83.5 0 0 0 
1187.562 1978.438 83.5 0 0 0 
1180.776 1935.856 -9.888 0 0 0 
1157.648 1965.024 -12.352 0 0 0 
1156.472 1990.272 62.944 0 0 0 
1157.648 1991.808 63.04 0 0 0 
1194.104 1980.648 63.04 0 0 0 
1174.186 1928.021 -7.924 0 0 0 
1158.457 1975.439 -12.036 0 0 0 
1156.398 1992.354 42.972 0 0 0 
1158.457 1995.042 43.14 0 0 0 
1199.959 1982.337 43.14 0 0 0 
1168.232 1921.832 -6.016 0 0 0 
1159.216 1984.568 -10.144 0 0 0 
1156.864 1994.024 24.928 0 0 0 
1159.216 1997.096 25.12 0 0 0 
1204.688 1983.176 25.12 0 0 0 
1163.356 1917.942 -4.572 0 0 0 
1159.78 1991.668 -6.268 0 0 0 
1158.016 1995.25 10.156 0 0 0 
1159.78 1997.554 10.3 0 0 0 
1207.849 1982.839 10.3 0 0 0 
1209 1981 0 0 0 0 
1160 1917 -4 0 0 0 
1160 1982 148 0 0 0 
1160 1982 148 0 0 0 
1160 1982 148 0 0 0 
1207.849 1976.508 -6.268 0 0 0 
1158.016 1919.527 -4.572 0 0 0 
1159.78 1985.596 144.684 0 0 0 
1158.016 1983.292 144.54 0 0 0 
1163.356 1981.657 144.54 0 0 0 
1204.688 1969.944 -10.144 0 0 0 
1156.864 1925.136 -6.016 0 0 0 
1159.216 1988.528 135.232 0 0 0 
1156.864 1985.456 135.04 0 0 0 
1168.232 1981.976 135.04 0 0 0 
1199.959 1961.926 -12.036 0 0 0 
1156.398 1933.119 -7.924 0 0 0 
1158.457 1990.862 120.988 0 0 0 
1156.398 1988.174 120.82 0 0 0 
1174.186 1982.729 120.82 0 0 0 
1194.104 1953.072 -12.352 0 0 0 
1156.472 1942.768 -9.888 0 0 0 
1157.648 1992.664 103.296 0 0 0 
1156.472 1991.128 103.2 0 0 0 
1180.776 1983.688 103.2 0 0 0 
1187.562 1944 -11.5 0 0 0 
1156.938 1953.375 -11.5 0 0 0 
1156.938 1994 83.5 0 0 0 
1156.938 1994 83.5 0 0 0 
1187.562 1984.625 83.5 0 0 0 
1180.776 1935.328 -9.888 0 0 0 
1157.648 1964.232 -12.352 0 0 0 
1156.472 1994.936 62.944 0 0 0 
1157.648 1996.472 63.04 0 0 0 
1194.104 1985.312 63.04 0 0 0 
1174.186 1927.674 -7.924 0 0 0 
1158.457 1974.631 -12.036 0 0 0 
1156.398 1995.538 42.972 0 0 0 
1158.457 1998.226 43.14 0 0 0 
1199.959 1985.521 43.14 0 0 0 
1168.232 1921.656 -6.016 0 0 0 
1159.216 1983.864 -10.144 0 0 0 
1156.864 1995.872 24.928 0 0 0 
1159.216 1998.944 25.12 0 0 0 
1204.688 1985.024 25.12 0 0 0 
1163.356 1917.892 -4.572 0 0 0 
1159.78 1991.223 -6.268 0 0 0 
1158.016 1996.004 10.156 0 0 0 
1159.78 1998.308 10.3 0 0 0 
1207.849 1983.593 10.3 0 0 0 
1209 1982 0 0 0 0 
1160 1987 -4 0 0 0 
1160 1983 148 0 0 0 
1160 1983 148 0 0 0 
1160 1983 148 0 0 0 
1207.849 1982.234 -6.268 0 0 0 
1158.016 1987.906 -4.572 0 0 0 
1159.78 1983.802 144.684 0 0 0 
1158.016 1983.981 144.54 0 0 0 
1163.356 1982.347 144.54 0 0 0 
1204.688 1982.536 -10.144 0 0 0 
1156.864 1989.064 -6.016 0 0 0 
1159.216 1985.112 135.232 0 0 0 
1156.864 1985.352 135.04 0 0 0 
1168.232 1981.872 135.04 0 0 0 
1199.959 1982.901 -12.036 0 0 0 
1156.398 1990.389 -7.924 0 0 0 
1158.457 1986.791 120.988 0 0 0 
1156.398 1987 120.82 0 0 0 
1174.186 1981.556 120.82 0 0 0 
1194.104 1983.328 -12.352 0 0 0 
1156.472 1991.792 -9.888 0 0 0 
1157.648 1988.696 103.296 0 0 0 
1156.472 1988.816 103.2 0 0 0 
1180.776 1981.376 103.2 0 0 0 
1187.562 1983.812 -11.5 0 0 0 
1156.938 1993.188 -11.5 0 0 0 
1156.938 1990.688 83.5 0 0 0 
1156.938 1990.688 83.5 0 0 0 
1187.562 1981.312 83.5 0 0 0 
1180.776 1984.352 -9.888 0 0 0 
1157.648 1994.488 -12.352 0 0 0 
1156.472 1992.624 62.944 0 0 0 
1157.648 1992.504 63.04 0 0 0 
1194.104 1981.344 63.04 0 0 0 
1174.186 1984.943 -7.924 0 0 0 
1158.457 1995.606 -12.036 0 0 0 
1156.398 1994.365 42.972 0 0 0 
1158.457 1994.155 43.14 0 0 0 
1199.959 1981.449 43.14 0 0 0 
1168.232 1985.584 -6.016 0 0 0 
1159.216 1996.456 -10.144 0 0 0 
1156.864 1995.768 24.928 0 0 0 
1159.216 1995.528 25.12 0 0 0 
1204.688 1981.608 25.12 0 0 0 
1163.356 1986.271 -4.572 0 0 0 
1159.78 1996.949 -6.268 0 0 0 
1158.016 1996.693 10.156 0 0 0 
1159.78 1996.514 10.3 0 0 0 
1207.849 1981.798 10.3 0 0 0 
1209 1982 0 0 0 0 
1160 1987 -4 0 0 0 
1160 1984 148 0 0 0 
1160 1984 148 0 0 0 
1160 1984 148 0 0 0 
1207.844 1982.302 -6.268 0 0 0 
1158.084 1986.257 -4.572 0 0 0 
1159.848 1983.134 144.684 0 0 0 
1158.084 1983.314 144.54 0 0 0 
1163.316 1984.295 144.54 0 0 0 
1204.672 1982.856 -10.144 0 0 0 
1157.032 1985.016 -6.016 0 0 0 
1159.384 1981.992 135.232 0 0 0 
1157.032 1982.232 135.04 0 0 0 
1168.168 1984.32 135.04 0 0 0 
1199.928 1983.584 -12.036 0 0 0 
1156.688 1983.409 -7.924 0 0 0 
1158.746 1980.658 120.988 0 0 0 
1156.688 1980.868 120.82 0 0 0 
1174.112 1984.135 120.82 0 0 0 
1194.056 1984.408 -12.352 0 0 0 
1156.896 1981.568 -9.888 0 0 0 
1158.072 1979.216 103.296 0 0 0 
1156.896 1979.336 103.2 0 0 0 
1180.704 1983.8 103.2 0 0 0 
1187.5 1985.25 -11.5 0 0 0 
1157.5 1979.625 -11.5 0 0 0 
1157.5 1977.75 83.5 0 0 0 
1157.5 1977.75 83.5 0 0 0 
1187.5 1983.375 83.5 0 0 0 
1180.704 1986.032 -9.888 0 0 0 
1158.344 1977.712 -12.352 0 0 0 
1157.168 1976.344 62.944 0 0 0 
1158.344 1976.224 63.04 0 0 0 
1194.056 1982.92 63.04 0 0 0 
1174.112 1986.676 -7.924 0 0 0 
1159.272 1975.961 -12.036 0 0 0 
1157.214 1975.082 42.972 0 0 0 
1159.272 1974.872 43.14 0 0 0 
1199.928 1982.495 43.14 0 0 0 
1168.168 1987.104 -6.016 0 0 0 
1160.128 1974.504 -10.144 0 0 0 
1157.776 1974.048 24.928 0 0 0 
1160.128 1973.808 25.12 0 0 0 
1204.672 1982.16 25.12 0 0 0 
1163.316 1987.238 -4.572 0 0 0 
1160.756 1973.473 -6.268 0 0 0 
1158.992 1973.326 10.156 0 0 0 
1160.756 1973.146 10.3 0 0 0 
1207.844 1981.975 10.3 0 0 0 
1209 1982 0 0 0 0 
1160 1988 -4 0 0 0 
1160 1985 148 0 0 0 
1160 1985 148 0 0 0 
1160 1985 148 0 0 0 
1207.844 1982.33 -6.268 0 0 0 
1158.084 1987.229 -4.572 0 0 0 
1159.848 1984.07 144.684 0 0 0 
1158.084 1984.286 144.54 0 0 0 
1163.316 1985.267 144.54 0 0 0 
1204.672 1982.96 -10.144 0 0 0 
1157.032 1985.912 -6.016 0 0 0 
1159.384 1982.84 135.232 0 0 0 
1157.032 1983.128 135.04 0 0 0 
1168.168 1985.216 135.04 0 0 0 
1199.928 1983.8 -12.036 0 0 0 
1156.688 1984.193 -7.924 0 0 0 
1158.746 1981.4 120.988 0 0 0 
1156.688 1981.652 120.82 0 0 0 
1174.112 1984.919 120.82 0 0 0 
1194.056 1984.76 -12.352 0 0 0 
1156.896 1982.216 -9.888 0 0 0 
1158.072 1979.84 103.296 0 0 0 
1156.896 1979.984 103.2 0 0 0 
1180.704 1984.448 103.2 0 0 0 
1187.5 1985.75 -11.5 0 0 0 
1157.5 1980.125 -11.5 0 0 0 
1157.5 1978.25 83.5 0 0 0 
1157.5 1978.25 83.5 0 0 0 
1187.5 1983.875 83.5 0 0 0 
1180.704 1986.68 -9.888 0 0 0 
1158.344 1978.064 -12.352 0 0 0 
1157.168 1976.72 62.944 0 0 0 
1158.344 1976.576 63.04 0 0 0 
1194.056 1983.272 63.04 0 0 0 
1174.112 1987.46 -7.924 0 0 0 
1159.272 1976.177 -12.036 0 0 0 
1157.214 1975.34 42.972 0 0 0 
1159.272 1975.088 43.14 0 0 0 
1199.928 1982.711 43.14 0 0 0 
1168.168 1988 -6.016 0 0 0 
1160.128 1974.608 -10.144 0 0 0 
1157.776 1974.2 24.928 0 0 0 
1160.128 1973.912 25.12 0 0 0 
1204.672 1982.264 25.12 0 0 0 
1163.316 1988.21 -4.572 0 0 0 
1160.756 1973.501 -6.268 0 0 0 
1158.992 1973.39 10.156 0 0 0 
1160.756 1973.174 10.3 0 0 0 
1207.844 1982.003 10.3 0 0 0 
1209 1982 0 0 0 0 
1160 1988 -4 0 0 0 
1160 1986 148 0 0 0 
1160 1986 148 0 0 0 
1160 1986 148 0 0 0 
1207.844 1982.285 -6.268 0 0 0 
1158.084 1987.293 -4.572 0 0 0 
1159.848 1985.115 144.684 0 0 0 
1158.084 1985.331 144.54 0 0 0 
1163.316 1986.203 144.54 0 0 0 
1204.672 1982.88 -10.144 0 0 0 
1157.032 1986.064 -6.016 0 0 0 
1159.384 1983.92 135.232 0 0 0 
1157.032 1984.208 135.04 0 0 0 
1168.168 1986.064 135.04 0 0 0 
1199.928 1983.695 -12.036 0 0 0 
1156.688 1984.451 -7.924 0 0 0 
1158.746 1982.505 120.988 0 0 0 
1156.688 1982.757 120.82 0 0 0 
1174.112 1985.661 120.82 0 0 0 
1194.056 1984.64 -12.352 0 0 0 
1156.896 1982.592 -9.888 0 0 0 
1158.072 1980.96 103.296 0 0 0 
1156.896 1981.104 103.2 0 0 0 
1180.704 1985.072 103.2 0 0 0 
1187.5 1985.625 -11.5 0 0 0 
1157.5 1980.625 -11.5 0 0 0 
1157.5 1979.375 83.5 0 0 0 
1157.5 1979.375 83.5 0 0 0 
1187.5 1984.375 83.5 0 0 0 
1180.704 1986.56 -9.888 0 0 0 
1158.344 1978.688 -12.352 0 0 0 
1157.168 1977.84 62.944 0 0 0 
1158.344 1977.696 63.04 0 0 0 
1194.056 1983.648 63.04 0 0 0 
1174.112 1987.355 -7.924 0 0 0 
1159.272 1976.919 -12.036 0 0 0 
1157.214 1976.445 42.972 0 0 0 
1159.272 1976.193 43.14 0 0 0 
1199.928 1982.969 43.14 0 0 0 
1168.168 1987.92 -6.016 0 0 0 
1160.128 1975.456 -10.144 0 0 0 
1157.776 1975.28 24.928 0 0 0 
1160.128 1974.992 25.12 0 0 0 
1204.672 1982.416 25.12 0 0 0 
1163.316 1988.165 -4.572 0 0 0 
1160.756 1974.437 -6.268 0 0 0 
1158.992 1974.435 10.156 0 0 0 
1160.756 1974.219 10.3 0 0 0 
1207.844 1982.067 10.3 0 0 0 
1209 1983 0 0 0 0 
1160 1988 -4 0 0 0 
1160 1987 148 0 0 0 
1160 1987 148 0 0 0 
1160 1987 148 0 0 0 
1207.844 1983.221 -6.268 0 0 0 
1158.084 1987.248 -4.572 0 0 0 
1159.848 1986.087 144.684 0 0 0 
1158.084 1986.267 144.54 0 0 0 
1163.316 1987.248 144.54 0 0 0 
1204.672 1983.728 -10.144 0 0 0 
1157.032 1985.984 -6.016 0 0 0 
1159.384 1984.816 135.232 0 0 0 
1157.032 1985.056 135.04 0 0 0 
1168.168 1987.144 135.04 0 0 0 
1199.928 1984.437 -12.036 0 0 0 
1156.688 1984.346 -7.924 0 0 0 
1158.746 1983.289 120.988 0 0 0 
1156.688 1983.499 120.82 0 0 0 
