ply
format ascii 1.0
comment VCGLIB generated
element vertex 1475
property float x
property float y
property float z
property float nx
property float ny
property float nz
element face 0
property list uchar int vertex_indices
end_header
1203.303 1411.106 5.9324 0 0 0 
1203 1402 0 0 0 0 
1173.184 1601 -61.4604 0 0 0 
1180.997 1667 50.2668 0 0 0 
1180.997 1667 50.2668 0 0 0 
1180.997 1667 50.2668 0 0 0 
1202.452 1404.912 -6.2458 0 0 0 
1164.805 1594.926 -60.2423 0 0 0 
1173.543 1652.507 51.5747 0 0 0 
1172.469 1659.672 49.3621 0 0 0 
1187.075 1659.999 49.3621 0 0 0 
1201.543 1418.52 -13.5424 0 0 0 
1153.648 1578.744 -56.8561 0 0 0 
1162.33 1630.44 49.7768 0 0 0 
1160.898 1639.992 46.8267 0 0 0 
1191.986 1640.688 46.8267 0 0 0 
1200.207 1440.228 -21.4874 0 0 0 
1140.585 1555.068 -51.7044 0 0 0 
1148.455 1602.613 45.5099 0 0 0 
1147.203 1610.97 42.9286 0 0 0 
1195.845 1612.059 42.9286 0 0 0 
1198.374 1467.44 -29.6784 0 0 0 
1126.488 1526.512 -45.1892 0 0 0 
1133.017 1570.84 39.4108 0 0 0 
1132.301 1575.616 37.9358 0 0 0 
1198.765 1577.104 37.9358 0 0 0 
1195.979 1497.562 -37.7131 0 0 0 
1112.229 1495.688 -37.7131 0 0 0 
1117.112 1536.938 32.1163 0 0 0 
1117.112 1536.938 32.1163 0 0 0 
1200.862 1538.812 32.1163 0 0 0 
1192.952 1528 -45.1892 0 0 0 
1098.678 1465.208 -29.6784 0 0 0 
1101.838 1502.72 24.2632 0 0 0 
1102.553 1497.944 25.7383 0 0 0 
1202.25 1500.176 25.7383 0 0 0 
1189.227 1556.157 -51.7044 0 0 0 
1086.708 1437.687 -21.4874 0 0 0 
1088.292 1470.002 16.4882 0 0 0 
1089.545 1461.645 19.0696 0 0 0 
1203.043 1464.186 19.0696 0 0 0 
1184.736 1579.44 -56.8561 0 0 0 
1077.191 1415.736 -13.5424 0 0 0 
1077.573 1440.6 9.4282 0 0 0 
1079.004 1431.048 12.3783 0 0 0 
1203.356 1433.832 12.3783 0 0 0 
1179.411 1595.252 -60.2423 0 0 0 
1070.998 1401.969 -6.2458 0 0 0 
1070.776 1416.328 3.7198 0 0 0 
1071.849 1409.163 5.9324 0 0 0 
1203.303 1412.106 5.9324 0 0 0 
1203 1403 0 0 0 0 
1173.184 1602 -61.4604 0 0 0 
1180.997 1668 50.2668 0 0 0 
1180.997 1668 50.2668 0 0 0 
1180.997 1668 50.2668 0 0 0 
1202.452 1405.912 -6.2458 0 0 0 
1164.805 1595.926 -60.2423 0 0 0 
1173.543 1653.507 51.5747 0 0 0 
1172.469 1660.672 49.3621 0 0 0 
1187.075 1660.999 49.3621 0 0 0 
1201.543 1419.52 -13.5424 0 0 0 
1153.648 1579.744 -56.8561 0 0 0 
1162.33 1631.44 49.7768 0 0 0 
1160.898 1640.992 46.8267 0 0 0 
1191.986 1641.688 46.8267 0 0 0 
1200.207 1441.228 -21.4874 0 0 0 
1140.585 1556.068 -51.7044 0 0 0 
1148.455 1603.613 45.5099 0 0 0 
1147.203 1611.97 42.9286 0 0 0 
1195.845 1613.059 42.9286 0 0 0 
1198.374 1468.44 -29.6784 0 0 0 
1126.488 1527.512 -45.1892 0 0 0 
1133.017 1571.84 39.4108 0 0 0 
1132.301 1576.616 37.9358 0 0 0 
1198.765 1578.104 37.9358 0 0 0 
1195.979 1498.562 -37.7131 0 0 0 
1112.229 1496.688 -37.7131 0 0 0 
1117.112 1537.938 32.1163 0 0 0 
1117.112 1537.938 32.1163 0 0 0 
1200.862 1539.812 32.1163 0 0 0 
1192.952 1529 -45.1892 0 0 0 
1098.678 1466.208 -29.6784 0 0 0 
1101.838 1503.72 24.2632 0 0 0 
1102.553 1498.944 25.7383 0 0 0 
1202.25 1501.176 25.7383 0 0 0 
1189.227 1557.157 -51.7044 0 0 0 
1086.708 1438.687 -21.4874 0 0 0 
1088.292 1471.002 16.4882 0 0 0 
1089.545 1462.645 19.0696 0 0 0 
1203.043 1465.186 19.0696 0 0 0 
1184.736 1580.44 -56.8561 0 0 0 
1077.191 1416.736 -13.5424 0 0 0 
1077.573 1441.6 9.4282 0 0 0 
1079.004 1432.048 12.3783 0 0 0 
1203.356 1434.832 12.3783 0 0 0 
1179.411 1596.252 -60.2423 0 0 0 
1070.998 1402.969 -6.2458 0 0 0 
1070.776 1417.328 3.7198 0 0 0 
1071.849 1410.163 5.9324 0 0 0 
1203.303 1413.106 5.9324 0 0 0 
1203 1404 0 0 0 0 
1173.184 1603 -61.4604 0 0 0 
1180.997 1669 50.2668 0 0 0 
1180.997 1669 50.2668 0 0 0 
1180.997 1669 50.2668 0 0 0 
1202.452 1406.912 -6.2458 0 0 0 
1164.805 1596.926 -60.2423 0 0 0 
1173.543 1654.507 51.5747 0 0 0 
1172.469 1661.672 49.3621 0 0 0 
1187.075 1661.999 49.3621 0 0 0 
1201.543 1420.52 -13.5424 0 0 0 
1153.648 1580.744 -56.8561 0 0 0 
1162.33 1632.44 49.7768 0 0 0 
1160.898 1641.992 46.8267 0 0 0 
1191.986 1642.688 46.8267 0 0 0 
1200.207 1442.228 -21.4874 0 0 0 
1140.585 1557.068 -51.7044 0 0 0 
1148.455 1604.613 45.5099 0 0 0 
1147.203 1612.97 42.9286 0 0 0 
1195.845 1614.059 42.9286 0 0 0 
1198.374 1469.44 -29.6784 0 0 0 
1126.488 1528.512 -45.1892 0 0 0 
1133.017 1572.84 39.4108 0 0 0 
1132.301 1577.616 37.9358 0 0 0 
1198.765 1579.104 37.9358 0 0 0 
1195.979 1499.562 -37.7131 0 0 0 
1112.229 1497.688 -37.7131 0 0 0 
1117.112 1538.938 32.1163 0 0 0 
1117.112 1538.938 32.1163 0 0 0 
1200.862 1540.812 32.1163 0 0 0 
1192.952 1530 -45.1892 0 0 0 
1098.678 1467.208 -29.6784 0 0 0 
1101.838 1504.72 24.2632 0 0 0 
1102.553 1499.944 25.7383 0 0 0 
1202.25 1502.176 25.7383 0 0 0 
1189.227 1558.157 -51.7044 0 0 0 
1086.708 1439.687 -21.4874 0 0 0 
1088.292 1472.002 16.4882 0 0 0 
1089.545 1463.645 19.0696 0 0 0 
1203.043 1466.186 19.0696 0 0 0 
1184.736 1581.44 -56.8561 0 0 0 
1077.191 1417.736 -13.5424 0 0 0 
1077.573 1442.6 9.4282 0 0 0 
1079.004 1433.048 12.3783 0 0 0 
1203.356 1435.832 12.3783 0 0 0 
1179.411 1597.252 -60.2423 0 0 0 
1070.998 1403.969 -6.2458 0 0 0 
1070.776 1418.328 3.7198 0 0 0 
1071.849 1411.163 5.9324 0 0 0 
1203.303 1414.106 5.9324 0 0 0 
1203 1404 0 0 0 0 
1173.184 1604 -61.4604 0 0 0 
1180.997 1670 50.2668 0 0 0 
1180.997 1670 50.2668 0 0 0 
1180.997 1670 50.2668 0 0 0 
1202.447 1406.972 -6.2458 0 0 0 
1164.873 1597.418 -60.2423 0 0 0 
1173.611 1654.964 51.5747 0 0 0 
1172.538 1662.164 49.3621 0 0 0 
1187.035 1663.254 49.3621 0 0 0 
1201.527 1420.736 -13.5424 0 0 0 
1153.816 1580.464 -56.8561 0 0 0 
1162.498 1632.112 49.7768 0 0 0 
1161.066 1641.712 46.8267 0 0 0 
1191.922 1644.032 46.8267 0 0 0 
1200.175 1442.664 -21.4874 0 0 0 
1140.875 1555.826 -51.7044 0 0 0 
1148.745 1603.328 45.5099 0 0 0 
1147.492 1611.728 42.9286 0 0 0 
1195.771 1615.358 42.9286 0 0 0 
1198.326 1470.128 -29.6784 0 0 0 
1126.912 1526.192 -45.1892 0 0 0 
1133.441 1570.496 39.4108 0 0 0 
1132.725 1575.296 37.9358 0 0 0 
1198.693 1580.256 37.9358 0 0 0 
1195.916 1500.5 -37.7131 0 0 0 
1112.791 1494.25 -37.7131 0 0 0 
1117.674 1535.5 32.1163 0 0 0 
1117.674 1535.5 32.1163 0 0 0 
1200.799 1541.75 32.1163 0 0 0 
1192.88 1531.152 -45.1892 0 0 0 
1099.374 1462.688 -29.6784 0 0 0 
1102.534 1500.224 24.2632 0 0 0 
1103.25 1495.424 25.7383 0 0 0 
1202.202 1502.864 25.7383 0 0 0 
1189.154 1559.456 -51.7044 0 0 0 
1087.524 1434.194 -21.4874 0 0 0 
1089.108 1466.552 16.4882 0 0 0 
1090.36 1458.152 19.0696 0 0 0 
1203.011 1466.622 19.0696 0 0 0 
1184.672 1582.784 -56.8561 0 0 0 
1078.103 1411.456 -13.5424 0 0 0 
1078.485 1436.368 9.4282 0 0 0 
1079.916 1426.768 12.3783 0 0 0 
1203.34 1436.048 12.3783 0 0 0 
1179.37 1598.508 -60.2423 0 0 0 
1071.974 1397.162 -6.2458 0 0 0 
1071.752 1411.556 3.7198 0 0 0 
1072.826 1404.356 5.9324 0 0 0 
1203.299 1414.166 5.9324 0 0 0 
1203 1405 0 0 0 0 
1173.184 1604 -61.4604 0 0 0 
1180.997 1671 50.2668 0 0 0 
1180.997 1671 50.2668 0 0 0 
1180.997 1671 50.2668 0 0 0 
1202.447 1407.908 -6.2458 0 0 0 
1164.873 1597.373 -60.2423 0 0 0 
1173.611 1655.936 51.5747 0 0 0 
1172.538 1663.1 49.3621 0 0 0 
1187.035 1664.299 49.3621 0 0 0 
1201.527 1421.584 -13.5424 0 0 0 
1153.816 1580.384 -56.8561 0 0 0 
1162.498 1633.008 49.7768 0 0 0 
1161.066 1642.56 46.8267 0 0 0 
1191.922 1645.112 46.8267 0 0 0 
1200.175 1443.406 -21.4874 0 0 0 
1140.875 1555.721 -51.7044 0 0 0 
1148.745 1604.112 45.5099 0 0 0 
1147.492 1612.47 42.9286 0 0 0 
1195.771 1616.463 42.9286 0 0 0 
1198.326 1470.752 -29.6784 0 0 0 
1126.912 1526.072 -45.1892 0 0 0 
1133.441 1571.144 39.4108 0 0 0 
1132.725 1575.92 37.9358 0 0 0 
1198.693 1581.376 37.9358 0 0 0 
1195.916 1501 -37.7131 0 0 0 
1112.791 1494.125 -37.7131 0 0 0 
1117.674 1536 32.1163 0 0 0 
1117.674 1536 32.1163 0 0 0 
1200.799 1542.875 32.1163 0 0 0 
1192.88 1531.528 -45.1892 0 0 0 
1099.374 1462.568 -29.6784 0 0 0 
1102.534 1500.576 24.2632 0 0 0 
1103.25 1495.8 25.7383 0 0 0 
1202.202 1503.984 25.7383 0 0 0 
1189.154 1559.714 -51.7044 0 0 0 
1087.524 1434.089 -21.4874 0 0 0 
1089.108 1466.768 16.4882 0 0 0 
1090.36 1458.41 19.0696 0 0 0 
1203.011 1467.727 19.0696 0 0 0 
1184.672 1582.936 -56.8561 0 0 0 
1078.103 1411.376 -13.5424 0 0 0 
1078.485 1436.472 9.4282 0 0 0 
1079.916 1426.92 12.3783 0 0 0 
1203.34 1437.128 12.3783 0 0 0 
1179.37 1598.572 -60.2423 0 0 0 
1071.974 1397.117 -6.2458 0 0 0 
1071.752 1411.584 3.7198 0 0 0 
1072.826 1404.42 5.9324 0 0 0 
1203.299 1415.211 5.9324 0 0 0 
1203 1406 0 0 0 0 
1173.184 1605 -61.4604 0 0 0 
1180.997 1672 50.2668 0 0 0 
1180.997 1672 50.2668 0 0 0 
1180.997 1672 50.2668 0 0 0 
1202.447 1408.908 -6.2458 0 0 0 
1164.873 1598.373 -60.2423 0 0 0 
1173.611 1656.936 51.5747 0 0 0 
1172.538 1664.1 49.3621 0 0 0 
1187.035 1665.299 49.3621 0 0 0 
1201.527 1422.584 -13.5424 0 0 0 
1153.816 1581.384 -56.8561 0 0 0 
1162.498 1634.008 49.7768 0 0 0 
1161.066 1643.56 46.8267 0 0 0 
1191.922 1646.112 46.8267 0 0 0 
1200.175 1444.406 -21.4874 0 0 0 
1140.875 1556.721 -51.7044 0 0 0 
1148.745 1605.112 45.5099 0 0 0 
1147.492 1613.47 42.9286 0 0 0 
1195.771 1617.463 42.9286 0 0 0 
1198.326 1471.752 -29.6784 0 0 0 
1126.912 1527.072 -45.1892 0 0 0 
1133.441 1572.144 39.4108 0 0 0 
1132.725 1576.92 37.9358 0 0 0 
1198.693 1582.376 37.9358 0 0 0 
1195.916 1502 -37.7131 0 0 0 
1112.791 1495.125 -37.7131 0 0 0 
1117.674 1537 32.1163 0 0 0 
1117.674 1537 32.1163 0 0 0 
1200.799 1543.875 32.1163 0 0 0 
1192.88 1532.528 -45.1892 0 0 0 
1099.374 1463.568 -29.6784 0 0 0 
1102.534 1501.576 24.2632 0 0 0 
1103.25 1496.8 25.7383 0 0 0 
1202.202 1504.984 25.7383 0 0 0 
1189.154 1560.714 -51.7044 0 0 0 
1087.524 1435.089 -21.4874 0 0 0 
1089.108 1467.768 16.4882 0 0 0 
1090.36 1459.41 19.0696 0 0 0 
1203.011 1468.727 19.0696 0 0 0 
1184.672 1583.936 -56.8561 0 0 0 
1078.103 1412.376 -13.5424 0 0 0 
1078.485 1437.472 9.4282 0 0 0 
1079.916 1427.92 12.3783 0 0 0 
1203.34 1438.128 12.3783 0 0 0 
1179.37 1599.572 -60.2423 0 0 0 
1071.974 1398.117 -6.2458 0 0 0 
1071.752 1412.584 3.7198 0 0 0 
1072.826 1405.42 5.9324 0 0 0 
1203.299 1416.211 5.9324 0 0 0 
1203 1407 0 0 0 0 
1173.184 1606 -61.4604 0 0 0 
1180.997 1673 50.2668 0 0 0 
1180.997 1673 50.2668 0 0 0 
1180.997 1673 50.2668 0 0 0 
1202.447 1409.908 -6.2458 0 0 0 
1164.873 1599.373 -60.2423 0 0 0 
1173.611 1657.936 51.5747 0 0 0 
1172.538 1665.1 49.3621 0 0 0 
1187.035 1666.299 49.3621 0 0 0 
1201.527 1423.584 -13.5424 0 0 0 
1153.816 1582.384 -56.8561 0 0 0 
1162.498 1635.008 49.7768 0 0 0 
1161.066 1644.56 46.8267 0 0 0 
1191.922 1647.112 46.8267 0 0 0 
1200.175 1445.406 -21.4874 0 0 0 
1140.875 1557.721 -51.7044 0 0 0 
1148.745 1606.112 45.5099 0 0 0 
1147.492 1614.47 42.9286 0 0 0 
1195.771 1618.463 42.9286 0 0 0 
1198.326 1472.752 -29.6784 0 0 0 
1126.912 1528.072 -45.1892 0 0 0 
1133.441 1573.144 39.4108 0 0 0 
1132.725 1577.92 37.9358 0 0 0 
1198.693 1583.376 37.9358 0 0 0 
1195.916 1503 -37.7131 0 0 0 
1112.791 1496.125 -37.7131 0 0 0 
1117.674 1538 32.1163 0 0 0 
1117.674 1538 32.1163 0 0 0 
1200.799 1544.875 32.1163 0 0 0 
1192.88 1533.528 -45.1892 0 0 0 
1099.374 1464.568 -29.6784 0 0 0 
1102.534 1502.576 24.2632 0 0 0 
1103.25 1497.8 25.7383 0 0 0 
1202.202 1505.984 25.7383 0 0 0 
1189.154 1561.714 -51.7044 0 0 0 
1087.524 1436.089 -21.4874 0 0 0 
1089.108 1468.768 16.4882 0 0 0 
1090.36 1460.41 19.0696 0 0 0 
1203.011 1469.727 19.0696 0 0 0 
1184.672 1584.936 -56.8561 0 0 0 
1078.103 1413.376 -13.5424 0 0 0 
1078.485 1438.472 9.4282 0 0 0 
1079.916 1428.92 12.3783 0 0 0 
1203.34 1439.128 12.3783 0 0 0 
1179.37 1600.572 -60.2423 0 0 0 
1071.974 1399.117 -6.2458 0 0 0 
1071.752 1413.584 3.7198 0 0 0 
1072.826 1406.42 5.9324 0 0 0 
1203.299 1417.211 5.9324 0 0 0 
1203 1408 0 0 0 0 
1173.184 1686 -61.4604 0 0 0 
1180.997 1674 50.2668 0 0 0 
1180.997 1674 50.2668 0 0 0 
1180.997 1674 50.2668 0 0 0 
1202.447 1416.319 -6.2458 0 0 0 
1164.873 1677.516 -60.2423 0 0 0 
1173.611 1655.736 51.5747 0 0 0 
1172.538 1665.745 49.3621 0 0 0 
1187.035 1666.943 49.3621 0 0 0 
1201.527 1437.856 -13.5424 0 0 0 
1153.816 1655.432 -56.8561 0 0 0 
1162.498 1630.952 49.7768 0 0 0 
1161.066 1644.296 46.8267 0 0 0 
1191.922 1646.848 46.8267 0 0 0 
1200.175 1469.276 -21.4874 0 0 0 
1140.875 1623.146 -51.7044 0 0 0 
1148.745 1601.306 45.5099 0 0 0 
1147.492 1612.981 42.9286 0 0 0 
1195.771 1616.974 42.9286 0 0 0 
1198.326 1507.248 -29.6784 0 0 0 
1126.912 1584.056 -45.1892 0 0 0 
1133.441 1568.456 39.4108 0 0 0 
1132.725 1575.128 37.9358 0 0 0 
1198.693 1580.584 37.9358 0 0 0 
1195.916 1548.438 -37.7131 0 0 0 
1112.791 1541.562 -37.7131 0 0 0 
1117.674 1534.062 32.1163 0 0 0 
1117.674 1534.062 32.1163 0 0 0 
1200.799 1540.938 32.1163 0 0 0 
1192.88 1589.512 -45.1892 0 0 0 
1099.374 1499.064 -29.6784 0 0 0 
1102.534 1499.784 24.2632 0 0 0 
1103.25 1493.112 25.7383 0 0 0 
1202.202 1501.296 25.7383 0 0 0 
1189.154 1627.139 -51.7044 0 0 0 
1087.524 1459.959 -21.4874 0 0 0 
1089.108 1467.28 16.4882 0 0 0 
1090.36 1455.604 19.0696 0 0 0 
1203.011 1464.921 19.0696 0 0 0 
1184.672 1657.984 -56.8561 0 0 0 
1078.103 1427.648 -13.5424 0 0 0 
1078.485 1438.208 9.4282 0 0 0 
1079.916 1424.864 12.3783 0 0 0 
1203.34 1435.072 12.3783 0 0 0 
1179.37 1678.715 -60.2423 0 0 0 
1071.974 1405.528 -6.2458 0 0 0 
1071.752 1414.229 3.7198 0 0 0 
1072.826 1404.22 5.9324 0 0 0 
1203.299 1415.011 5.9324 0 0 0 
1203 1409 0 0 0 0 
1173.184 1687 -61.4604 0 0 0 
1180.997 1675 50.2668 0 0 0 
1180.997 1675 50.2668 0 0 0 
1180.997 1675 50.2668 0 0 0 
1202.447 1417.319 -6.2458 0 0 0 
1164.873 1678.516 -60.2423 0 0 0 
1173.611 1656.736 51.5747 0 0 0 
1172.538 1666.745 49.3621 0 0 0 
1187.035 1667.943 49.3621 0 0 0 
1201.527 1438.856 -13.5424 0 0 0 
1153.816 1656.432 -56.8561 0 0 0 
1162.498 1631.952 49.7768 0 0 0 
1161.066 1645.296 46.8267 0 0 0 
1191.922 1647.848 46.8267 0 0 0 
1200.175 1470.276 -21.4874 0 0 0 
1140.875 1624.146 -51.7044 0 0 0 
1148.745 1602.306 45.5099 0 0 0 
1147.492 1613.981 42.9286 0 0 0 
1195.771 1617.974 42.9286 0 0 0 
1198.326 1508.248 -29.6784 0 0 0 
1126.912 1585.056 -45.1892 0 0 0 
1133.441 1569.456 39.4108 0 0 0 
1132.725 1576.128 37.9358 0 0 0 
1198.693 1581.584 37.9358 0 0 0 
1195.916 1549.438 -37.7131 0 0 0 
1112.791 1542.562 -37.7131 0 0 0 
1117.674 1535.062 32.1163 0 0 0 
1117.674 1535.062 32.1163 0 0 0 
1200.799 1541.938 32.1163 0 0 0 
1192.88 1590.512 -45.1892 0 0 0 
1099.374 1500.064 -29.6784 0 0 0 
1102.534 1500.784 24.2632 0 0 0 
1103.25 1494.112 25.7383 0 0 0 
1202.202 1502.296 25.7383 0 0 0 
1189.154 1628.139 -51.7044 0 0 0 
1087.524 1460.959 -21.4874 0 0 0 
1089.108 1468.28 16.4882 0 0 0 
1090.36 1456.604 19.0696 0 0 0 
1203.011 1465.921 19.0696 0 0 0 
1184.672 1658.984 -56.8561 0 0 0 
1078.103 1428.648 -13.5424 0 0 0 
1078.485 1439.208 9.4282 0 0 0 
1079.916 1425.864 12.3783 0 0 0 
1203.34 1436.072 12.3783 0 0 0 
1179.37 1679.715 -60.2423 0 0 0 
1071.974 1406.528 -6.2458 0 0 0 
1071.752 1415.229 3.7198 0 0 0 
1072.826 1405.22 5.9324 0 0 0 
1203.299 1416.011 5.9324 0 0 0 
1203 1410 0 0 0 0 
1173.184 1688 -61.4604 0 0 0 
1180.997 1676 50.2668 0 0 0 
1180.997 1676 50.2668 0 0 0 
1180.997 1676 50.2668 0 0 0 
1202.447 1418.319 -6.2458 0 0 0 
1164.873 1679.516 -60.2423 0 0 0 
1173.611 1657.736 51.5747 0 0 0 
1172.538 1667.745 49.3621 0 0 0 
1187.035 1668.943 49.3621 0 0 0 
1201.527 1439.856 -13.5424 0 0 0 
1153.816 1657.432 -56.8561 0 0 0 
1162.498 1632.952 49.7768 0 0 0 
1161.066 1646.296 46.8267 0 0 0 
1191.922 1648.848 46.8267 0 0 0 
1200.175 1471.276 -21.4874 0 0 0 
1140.875 1625.146 -51.7044 0 0 0 
1148.745 1603.306 45.5099 0 0 0 
1147.492 1614.981 42.9286 0 0 0 
1195.771 1618.974 42.9286 0 0 0 
1198.326 1509.248 -29.6784 0 0 0 
1126.912 1586.056 -45.1892 0 0 0 
1133.441 1570.456 39.4108 0 0 0 
1132.725 1577.128 37.9358 0 0 0 
1198.693 1582.584 37.9358 0 0 0 
1195.916 1550.438 -37.7131 0 0 0 
1112.791 1543.562 -37.7131 0 0 0 
1117.674 1536.062 32.1163 0 0 0 
1117.674 1536.062 32.1163 0 0 0 
1200.799 1542.938 32.1163 0 0 0 
1192.88 1591.512 -45.1892 0 0 0 
1099.374 1501.064 -29.6784 0 0 0 
1102.534 1501.784 24.2632 0 0 0 
1103.25 1495.112 25.7383 0 0 0 
1202.202 1503.296 25.7383 0 0 0 
1189.154 1629.139 -51.7044 0 0 0 
1087.524 1461.959 -21.4874 0 0 0 
1089.108 1469.28 16.4882 0 0 0 
1090.36 1457.604 19.0696 0 0 0 
1203.011 1466.921 19.0696 0 0 0 
1184.672 1659.984 -56.8561 0 0 0 
1078.103 1429.648 -13.5424 0 0 0 
1078.485 1440.208 9.4282 0 0 0 
1079.916 1426.864 12.3783 0 0 0 
1203.34 1437.072 12.3783 0 0 0 
1179.37 1680.715 -60.2423 0 0 0 
1071.974 1407.528 -6.2458 0 0 0 
1071.752 1416.229 3.7198 0 0 0 
1072.826 1406.22 5.9324 0 0 0 
1203.299 1417.011 5.9324 0 0 0 
1203 1411 0 0 0 0 
1173.184 1689 -61.4604 0 0 0 
1180.997 1677 50.2668 0 0 0 
1180.997 1677 50.2668 0 0 0 
1180.997 1677 50.2668 0 0 0 
1202.447 1419.319 -6.2458 0 0 0 
1164.873 1680.516 -60.2423 0 0 0 
1173.611 1658.736 51.5747 0 0 0 
1172.538 1668.745 49.3621 0 0 0 
1187.035 1669.943 49.3621 0 0 0 
1201.527 1440.856 -13.5424 0 0 0 
1153.816 1658.432 -56.8561 0 0 0 
1162.498 1633.952 49.7768 0 0 0 
1161.066 1647.296 46.8267 0 0 0 
1191.922 1649.848 46.8267 0 0 0 
1200.175 1472.276 -21.4874 0 0 0 
1140.875 1626.146 -51.7044 0 0 0 
1148.745 1604.306 45.5099 0 0 0 
1147.492 1615.981 42.9286 0 0 0 
1195.771 1619.974 42.9286 0 0 0 
1198.326 1510.248 -29.6784 0 0 0 
1126.912 1587.056 -45.1892 0 0 0 
1133.441 1571.456 39.4108 0 0 0 
1132.725 1578.128 37.9358 0 0 0 
1198.693 1583.584 37.9358 0 0 0 
1195.916 1551.438 -37.7131 0 0 0 
1112.791 1544.562 -37.7131 0 0 0 
1117.674 1537.062 32.1163 0 0 0 
1117.674 1537.062 32.1163 0 0 0 
1200.799 1543.938 32.1163 0 0 0 
1192.88 1592.512 -45.1892 0 0 0 
1099.374 1502.064 -29.6784 0 0 0 
1102.534 1502.784 24.2632 0 0 0 
1103.25 1496.112 25.7383 0 0 0 
1202.202 1504.296 25.7383 0 0 0 
1189.154 1630.139 -51.7044 0 0 0 
1087.524 1462.959 -21.4874 0 0 0 
1089.108 1470.28 16.4882 0 0 0 
1090.36 1458.604 19.0696 0 0 0 
1203.011 1467.921 19.0696 0 0 0 
1184.672 1660.984 -56.8561 0 0 0 
1078.103 1430.648 -13.5424 0 0 0 
1078.485 1441.208 9.4282 0 0 0 
1079.916 1427.864 12.3783 0 0 0 
1203.34 1438.072 12.3783 0 0 0 
1179.37 1681.715 -60.2423 0 0 0 
1071.974 1408.528 -6.2458 0 0 0 
1071.752 1417.229 3.7198 0 0 0 
1072.826 1407.22 5.9324 0 0 0 
1203.299 1418.011 5.9324 0 0 0 
1203 1412 0 0 0 0 
1173.184 1689 -61.4604 0 0 0 
1180.997 1678 50.2668 0 0 0 
1180.997 1678 50.2668 0 0 0 
1180.997 1678 50.2668 0 0 0 
1202.447 1420.251 -6.2458 0 0 0 
1164.873 1680.54 -60.2423 0 0 0 
1173.611 1659.777 51.5747 0 0 0 
1172.538 1669.749 49.3621 0 0 0 
1187.035 1670.948 49.3621 0 0 0 
1201.527 1441.688 -13.5424 0 0 0 
1153.816 1658.52 -56.8561 0 0 0 
1162.498 1635.016 49.7768 0 0 0 
1161.066 1648.312 46.8267 0 0 0 
1191.922 1650.864 46.8267 0 0 0 
1200.175 1472.987 -21.4874 0 0 0 
1140.875 1626.33 -51.7044 0 0 0 
1148.745 1605.379 45.5099 0 0 0 
1147.492 1617.013 42.9286 0 0 0 
1195.771 1621.006 42.9286 0 0 0 
1198.326 1510.824 -29.6784 0 0 0 
1126.912 1587.36 -45.1892 0 0 0 
1133.441 1572.528 39.4108 0 0 0 
1132.725 1579.176 37.9358 0 0 0 
1198.693 1584.632 37.9358 0 0 0 
1195.916 1551.875 -37.7131 0 0 0 
1112.791 1545 -37.7131 0 0 0 
1117.674 1538.125 32.1163 0 0 0 
1117.674 1538.125 32.1163 0 0 0 
1200.799 1545 32.1163 0 0 0 
1192.88 1592.816 -45.1892 0 0 0 
1099.374 1502.64 -29.6784 0 0 0 
1102.534 1503.832 24.2632 0 0 0 
1103.25 1497.184 25.7383 0 0 0 
1202.202 1505.368 25.7383 0 0 0 
1189.154 1630.323 -51.7044 0 0 0 
1087.524 1463.67 -21.4874 0 0 0 
1089.108 1471.311 16.4882 0 0 0 
1090.36 1459.677 19.0696 0 0 0 
1203.011 1468.994 19.0696 0 0 0 
1184.672 1661.072 -56.8561 0 0 0 
1078.103 1431.48 -13.5424 0 0 0 
1078.485 1442.224 9.4282 0 0 0 
1079.916 1428.928 12.3783 0 0 0 
1203.34 1439.136 12.3783 0 0 0 
1179.37 1681.739 -60.2423 0 0 0 
1071.974 1409.46 -6.2458 0 0 0 
1071.752 1418.233 3.7198 0 0 0 
1072.826 1408.261 5.9324 0 0 0 
1203.299 1419.052 5.9324 0 0 0 
1203 1413 0 0 0 0 
1173.184 1690 -61.4604 0 0 0 
1180.997 1679 50.2668 0 0 0 
1180.997 1679 50.2668 0 0 0 
1180.997 1679 50.2668 0 0 0 
1202.447 1421.251 -6.2458 0 0 0 
1164.873 1681.54 -60.2423 0 0 0 
1173.611 1660.777 51.5747 0 0 0 
1172.538 1670.749 49.3621 0 0 0 
1187.035 1671.948 49.3621 0 0 0 
1201.527 1442.688 -13.5424 0 0 0 
1153.816 1659.52 -56.8561 0 0 0 
1162.498 1636.016 49.7768 0 0 0 
1161.066 1649.312 46.8267 0 0 0 
1191.922 1651.864 46.8267 0 0 0 
1200.175 1473.987 -21.4874 0 0 0 
1140.875 1627.33 -51.7044 0 0 0 
1148.745 1606.379 45.5099 0 0 0 
1147.492 1618.013 42.9286 0 0 0 
1195.771 1622.006 42.9286 0 0 0 
1198.326 1511.824 -29.6784 0 0 0 
1126.912 1588.36 -45.1892 0 0 0 
1133.441 1573.528 39.4108 0 0 0 
1132.725 1580.176 37.9358 0 0 0 
1198.693 1585.632 37.9358 0 0 0 
1195.916 1552.875 -37.7131 0 0 0 
1112.791 1546 -37.7131 0 0 0 
1117.674 1539.125 32.1163 0 0 0 
1117.674 1539.125 32.1163 0 0 0 
1200.799 1546 32.1163 0 0 0 
1192.88 1593.816 -45.1892 0 0 0 
1099.374 1503.64 -29.6784 0 0 0 
1102.534 1504.832 24.2632 0 0 0 
1103.25 1498.184 25.7383 0 0 0 
1202.202 1506.368 25.7383 0 0 0 
1189.154 1631.323 -51.7044 0 0 0 
1087.524 1464.67 -21.4874 0 0 0 
1089.108 1472.311 16.4882 0 0 0 
1090.36 1460.677 19.0696 0 0 0 
1203.011 1469.994 19.0696 0 0 0 
1184.672 1662.072 -56.8561 0 0 0 
1078.103 1432.48 -13.5424 0 0 0 
1078.485 1443.224 9.4282 0 0 0 
1079.916 1429.928 12.3783 0 0 0 
1203.34 1440.136 12.3783 0 0 0 
1179.37 1682.739 -60.2423 0 0 0 
1071.974 1410.46 -6.2458 0 0 0 
1071.752 1419.233 3.7198 0 0 0 
1072.826 1409.261 5.9324 0 0 0 
1203.299 1420.052 5.9324 0 0 0 
1203 1414 0 0 0 0 
1173.184 1691 -61.4604 0 0 0 
1180.997 1680 50.2668 0 0 0 
1180.997 1680 50.2668 0 0 0 
1180.997 1680 50.2668 0 0 0 
1202.447 1422.251 -6.2458 0 0 0 
1164.873 1682.54 -60.2423 0 0 0 
1173.611 1661.777 51.5747 0 0 0 
1172.538 1671.749 49.3621 0 0 0 
1187.035 1672.948 49.3621 0 0 0 
1201.527 1443.688 -13.5424 0 0 0 
1153.816 1660.52 -56.8561 0 0 0 
1162.498 1637.016 49.7768 0 0 0 
1161.066 1650.312 46.8267 0 0 0 
1191.922 1652.864 46.8267 0 0 0 
1200.175 1474.987 -21.4874 0 0 0 
1140.875 1628.33 -51.7044 0 0 0 
1148.745 1607.379 45.5099 0 0 0 
1147.492 1619.013 42.9286 0 0 0 
1195.771 1623.006 42.9286 0 0 0 
1198.326 1512.824 -29.6784 0 0 0 
1126.912 1589.36 -45.1892 0 0 0 
1133.441 1574.528 39.4108 0 0 0 
1132.725 1581.176 37.9358 0 0 0 
1198.693 1586.632 37.9358 0 0 0 
1195.916 1553.875 -37.7131 0 0 0 
1112.791 1547 -37.7131 0 0 0 
1117.674 1540.125 32.1163 0 0 0 
1117.674 1540.125 32.1163 0 0 0 
1200.799 1547 32.1163 0 0 0 
1192.88 1594.816 -45.1892 0 0 0 
1099.374 1504.64 -29.6784 0 0 0 
1102.534 1505.832 24.2632 0 0 0 
1103.25 1499.184 25.7383 0 0 0 
1202.202 1507.368 25.7383 0 0 0 
1189.154 1632.323 -51.7044 0 0 0 
1087.524 1465.67 -21.4874 0 0 0 
1089.108 1473.311 16.4882 0 0 0 
1090.36 1461.677 19.0696 0 0 0 
1203.011 1470.994 19.0696 0 0 0 
1184.672 1663.072 -56.8561 0 0 0 
1078.103 1433.48 -13.5424 0 0 0 
1078.485 1444.224 9.4282 0 0 0 
1079.916 1430.928 12.3783 0 0 0 
1203.34 1441.136 12.3783 0 0 0 
1179.37 1683.739 -60.2423 0 0 0 
1071.974 1411.46 -6.2458 0 0 0 
1071.752 1420.233 3.7198 0 0 0 
1072.826 1410.261 5.9324 0 0 0 
1203.299 1421.052 5.9324 0 0 0 
1203 1415 0 0 0 0 
1173.184 1692 -61.4604 0 0 0 
1180.997 1681 50.2668 0 0 0 
1180.997 1681 50.2668 0 0 0 
1180.997 1681 50.2668 0 0 0 
1202.447 1423.251 -6.2458 0 0 0 
1164.873 1683.54 -60.2423 0 0 0 
1173.611 1662.777 51.5747 0 0 0 
1172.538 1672.749 49.3621 0 0 0 
1187.035 1673.948 49.3621 0 0 0 
1201.527 1444.688 -13.5424 0 0 0 
1153.816 1661.52 -56.8561 0 0 0 
1162.498 1638.016 49.7768 0 0 0 
1161.066 1651.312 46.8267 0 0 0 
1191.922 1653.864 46.8267 0 0 0 
1200.175 1475.987 -21.4874 0 0 0 
1140.875 1629.33 -51.7044 0 0 0 
1148.745 1608.379 45.5099 0 0 0 
1147.492 1620.013 42.9286 0 0 0 
1195.771 1624.006 42.9286 0 0 0 
1198.326 1513.824 -29.6784 0 0 0 
1126.912 1590.36 -45.1892 0 0 0 
1133.441 1575.528 39.4108 0 0 0 
1132.725 1582.176 37.9358 0 0 0 
1198.693 1587.632 37.9358 0 0 0 
1195.916 1554.875 -37.7131 0 0 0 
1112.791 1548 -37.7131 0 0 0 
1117.674 1541.125 32.1163 0 0 0 
1117.674 1541.125 32.1163 0 0 0 
1200.799 1548 32.1163 0 0 0 
1192.88 1595.816 -45.1892 0 0 0 
1099.374 1505.64 -29.6784 0 0 0 
1102.534 1506.832 24.2632 0 0 0 
1103.25 1500.184 25.7383 0 0 0 
1202.202 1508.368 25.7383 0 0 0 
1189.154 1633.323 -51.7044 0 0 0 
1087.524 1466.67 -21.4874 0 0 0 
1089.108 1474.311 16.4882 0 0 0 
1090.36 1462.677 19.0696 0 0 0 
1203.011 1471.994 19.0696 0 0 0 
1184.672 1664.072 -56.8561 0 0 0 
1078.103 1434.48 -13.5424 0 0 0 
1078.485 1445.224 9.4282 0 0 0 
1079.916 1431.928 12.3783 0 0 0 
1203.34 1442.136 12.3783 0 0 0 
1179.37 1684.739 -60.2423 0 0 0 
1071.974 1412.46 -6.2458 0 0 0 
1071.752 1421.233 3.7198 0 0 0 
1072.826 1411.261 5.9324 0 0 0 
1203.299 1422.052 5.9324 0 0 0 
1203 1416 0 0 0 0 
1173.184 1693 -61.4604 0 0 0 
1180.997 1682 50.2668 0 0 0 
1180.997 1682 50.2668 0 0 0 
1180.997 1682 50.2668 0 0 0 
1202.447 1424.251 -6.2458 0 0 0 
1164.873 1684.54 -60.2423 0 0 0 
1173.611 1663.777 51.5747 0 0 0 
1172.538 1673.749 49.3621 0 0 0 
1187.035 1674.948 49.3621 0 0 0 
1201.527 1445.688 -13.5424 0 0 0 
1153.816 1662.52 -56.8561 0 0 0 
1162.498 1639.016 49.7768 0 0 0 
1161.066 1652.312 46.8267 0 0 0 
1191.922 1654.864 46.8267 0 0 0 
1200.175 1476.987 -21.4874 0 0 0 
1140.875 1630.33 -51.7044 0 0 0 
1148.745 1609.379 45.5099 0 0 0 
1147.492 1621.013 42.9286 0 0 0 
1195.771 1625.006 42.9286 0 0 0 
1198.326 1514.824 -29.6784 0 0 0 
1126.912 1591.36 -45.1892 0 0 0 
1133.441 1576.528 39.4108 0 0 0 
1132.725 1583.176 37.9358 0 0 0 
1198.693 1588.632 37.9358 0 0 0 
1195.916 1555.875 -37.7131 0 0 0 
1112.791 1549 -37.7131 0 0 0 
1117.674 1542.125 32.1163 0 0 0 
1117.674 1542.125 32.1163 0 0 0 
1200.799 1549 32.1163 0 0 0 
1192.88 1596.816 -45.1892 0 0 0 
1099.374 1506.64 -29.6784 0 0 0 
1102.534 1507.832 24.2632 0 0 0 
1103.25 1501.184 25.7383 0 0 0 
1202.202 1509.368 25.7383 0 0 0 
1189.154 1634.323 -51.7044 0 0 0 
1087.524 1467.67 -21.4874 0 0 0 
1089.108 1475.311 16.4882 0 0 0 
1090.36 1463.677 19.0696 0 0 0 
1203.011 1472.994 19.0696 0 0 0 
1184.672 1665.072 -56.8561 0 0 0 
1078.103 1435.48 -13.5424 0 0 0 
1078.485 1446.224 9.4282 0 0 0 
1079.916 1432.928 12.3783 0 0 0 
1203.34 1443.136 12.3783 0 0 0 
1179.37 1685.739 -60.2423 0 0 0 
1071.974 1413.46 -6.2458 0 0 0 
1071.752 1422.233 3.7198 0 0 0 
1072.826 1412.261 5.9324 0 0 0 
1203.299 1423.052 5.9324 0 0 0 
1203 1417 0 0 0 0 
1173.184 1694 -61.4604 0 0 0 
1180.997 1683 50.2668 0 0 0 
1180.997 1683 50.2668 0 0 0 
1180.997 1683 50.2668 0 0 0 
1202.447 1425.251 -6.2458 0 0 0 
1164.873 1685.54 -60.2423 0 0 0 
1173.611 1664.777 51.5747 0 0 0 
1172.538 1674.749 49.3621 0 0 0 
1187.035 1675.948 49.3621 0 0 0 
1201.527 1446.688 -13.5424 0 0 0 
1153.816 1663.52 -56.8561 0 0 0 
1162.498 1640.016 49.7768 0 0 0 
1161.066 1653.312 46.8267 0 0 0 
1191.922 1655.864 46.8267 0 0 0 
1200.175 1477.987 -21.4874 0 0 0 
1140.875 1631.33 -51.7044 0 0 0 
1148.745 1610.379 45.5099 0 0 0 
1147.492 1622.013 42.9286 0 0 0 
1195.771 1626.006 42.9286 0 0 0 
1198.326 1515.824 -29.6784 0 0 0 
1126.912 1592.36 -45.1892 0 0 0 
1133.441 1577.528 39.4108 0 0 0 
1132.725 1584.176 37.9358 0 0 0 
1198.693 1589.632 37.9358 0 0 0 
1195.916 1556.875 -37.7131 0 0 0 
1112.791 1550 -37.7131 0 0 0 
1117.674 1543.125 32.1163 0 0 0 
1117.674 1543.125 32.1163 0 0 0 
1200.799 1550 32.1163 0 0 0 
1192.88 1597.816 -45.1892 0 0 0 
1099.374 1507.64 -29.6784 0 0 0 
1102.534 1508.832 24.2632 0 0 0 
1103.25 1502.184 25.7383 0 0 0 
1202.202 1510.368 25.7383 0 0 0 
1189.154 1635.323 -51.7044 0 0 0 
1087.524 1468.67 -21.4874 0 0 0 
1089.108 1476.311 16.4882 0 0 0 
1090.36 1464.677 19.0696 0 0 0 
1203.011 1473.994 19.0696 0 0 0 
1184.672 1666.072 -56.8561 0 0 0 
1078.103 1436.48 -13.5424 0 0 0 
1078.485 1447.224 9.4282 0 0 0 
1079.916 1433.928 12.3783 0 0 0 
1203.34 1444.136 12.3783 0 0 0 
1179.37 1686.739 -60.2423 0 0 0 
1071.974 1414.46 -6.2458 0 0 0 
1071.752 1423.233 3.7198 0 0 0 
1072.826 1413.261 5.9324 0 0 0 
1203.299 1424.052 5.9324 0 0 0 
1203 1418 0 0 0 0 
1173.184 1695 -61.4604 0 0 0 
1180.997 1684 50.2668 0 0 0 
1180.997 1684 50.2668 0 0 0 
1180.997 1684 50.2668 0 0 0 
1202.443 1426.292 -6.2458 0 0 0 
1164.942 1685.923 -60.2423 0 0 0 
1173.68 1665.161 51.5747 0 0 0 
1172.606 1675.132 49.3621 0 0 0 
1186.994 1677.312 49.3621 0 0 0 
1201.511 1447.832 -13.5424 0 0 0 
1153.984 1663.008 -56.8561 0 0 0 
1162.666 1639.504 49.7768 0 0 0 
1161.234 1652.8 46.8267 0 0 0 
1191.858 1657.44 46.8267 0 0 0 
1200.144 1479.271 -21.4874 0 0 0 
1141.164 1629.724 -51.7044 0 0 0 
1149.034 1608.774 45.5099 0 0 0 
1147.782 1620.407 42.9286 0 0 0 
1195.698 1627.667 42.9286 0 0 0 
1198.278 1517.256 -29.6784 0 0 0 
1127.336 1589.544 -45.1892 0 0 0 
1133.865 1574.712 39.4108 0 0 0 
1133.149 1581.36 37.9358 0 0 0 
1198.621 1591.28 37.9358 0 0 0 
1195.854 1558.438 -37.7131 0 0 0 
1113.354 1545.938 -37.7131 0 0 0 
1118.237 1539.062 32.1163 0 0 0 
1118.237 1539.062 32.1163 0 0 0 
1200.737 1551.562 32.1163 0 0 0 
1192.808 1599.464 -45.1892 0 0 0 
1100.07 1502.376 -29.6784 0 0 0 
1103.23 1503.568 24.2632 0 0 0 
1103.946 1496.92 25.7383 0 0 0 
1202.153 1511.8 25.7383 0 0 0 
1189.08 1636.984 -51.7044 0 0 0 
1088.339 1462.33 -21.4874 0 0 0 
1089.923 1469.972 16.4882 0 0 0 
1091.176 1458.338 19.0696 0 0 0 
1202.98 1475.277 19.0696 0 0 0 
1184.608 1667.648 -56.8561 0 0 0 
1079.015 1429.272 -13.5424 0 0 0 
1079.397 1440.016 9.4282 0 0 0 
1080.828 1426.72 12.3783 0 0 0 
1203.324 1445.28 12.3783 0 0 0 
1179.33 1688.104 -60.2423 0 0 0 
1072.951 1406.672 -6.2458 0 0 0 
1072.729 1415.444 3.7198 0 0 0 
1073.802 1405.473 5.9324 0 0 0 
1203.294 1425.093 5.9324 0 0 0 
1203 1419 0 0 0 0 
1173.184 1696 -61.4604 0 0 0 
1180.997 1685 50.2668 0 0 0 
1180.997 1685 50.2668 0 0 0 
1180.997 1685 50.2668 0 0 0 
1202.443 1427.292 -6.2458 0 0 0 
1164.942 1686.923 -60.2423 0 0 0 
1173.68 1666.161 51.5747 0 0 0 
1172.606 1676.132 49.3621 0 0 0 
1186.994 1678.312 49.3621 0 0 0 
1201.511 1448.832 -13.5424 0 0 0 
1153.984 1664.008 -56.8561 0 0 0 
1162.666 1640.504 49.7768 0 0 0 
1161.234 1653.8 46.8267 0 0 0 
1191.858 1658.44 46.8267 0 0 0 
1200.144 1480.271 -21.4874 0 0 0 
1141.164 1630.724 -51.7044 0 0 0 
1149.034 1609.774 45.5099 0 0 0 
1147.782 1621.407 42.9286 0 0 0 
1195.698 1628.667 42.9286 0 0 0 
1198.278 1518.256 -29.6784 0 0 0 
1127.336 1590.544 -45.1892 0 0 0 
1133.865 1575.712 39.4108 0 0 0 
1133.149 1582.36 37.9358 0 0 0 
1198.621 1592.28 37.9358 0 0 0 
1195.854 1559.438 -37.7131 0 0 0 
1113.354 1546.938 -37.7131 0 0 0 
1118.237 1540.062 32.1163 0 0 0 
1118.237 1540.062 32.1163 0 0 0 
1200.737 1552.562 32.1163 0 0 0 
1192.808 1600.464 -45.1892 0 0 0 
1100.07 1503.376 -29.6784 0 0 0 
1103.23 1504.568 24.2632 0 0 0 
1103.946 1497.92 25.7383 0 0 0 
1202.153 1512.8 25.7383 0 0 0 
1189.08 1637.984 -51.7044 0 0 0 
1088.339 1463.33 -21.4874 0 0 0 
1089.923 1470.972 16.4882 0 0 0 
1091.176 1459.338 19.0696 0 0 0 
1202.98 1476.277 19.0696 0 0 0 
1184.608 1668.648 -56.8561 0 0 0 
1079.015 1430.272 -13.5424 0 0 0 
1079.397 1441.016 9.4282 0 0 0 
1080.828 1427.72 12.3783 0 0 0 
1203.324 1446.28 12.3783 0 0 0 
1179.33 1689.104 -60.2423 0 0 0 
1072.951 1407.672 -6.2458 0 0 0 
1072.729 1416.444 3.7198 0 0 0 
1073.802 1406.473 5.9324 0 0 0 
1203.294 1426.093 5.9324 0 0 0 
1203 1419 0 0 0 0 
1173.184 1696 -61.4604 0 0 0 
1180.997 1686 50.2668 0 0 0 
1180.997 1686 50.2668 0 0 0 
1180.997 1686 50.2668 0 0 0 
1202.443 1427.251 -6.2458 0 0 0 
1164.942 1686.919 -60.2423 0 0 0 
1173.68 1667.137 51.5747 0 0 0 
1172.606 1677.109 49.3621 0 0 0 
1186.994 1679.289 49.3621 0 0 0 
1201.511 1448.768 -13.5424 0 0 0 
1153.984 1663.992 -56.8561 0 0 0 
1162.666 1641.416 49.7768 0 0 0 
1161.234 1654.712 46.8267 0 0 0 
1191.858 1659.352 46.8267 0 0 0 
1200.144 1480.197 -21.4874 0 0 0 
1141.164 1630.693 -51.7044 0 0 0 
1149.034 1610.589 45.5099 0 0 0 
1147.782 1622.223 42.9286 0 0 0 
1195.698 1629.483 42.9286 0 0 0 
1198.278 1518.184 -29.6784 0 0 0 
1127.336 1590.496 -45.1892 0 0 0 
1133.865 1576.408 39.4108 0 0 0 
1133.149 1583.056 37.9358 0 0 0 
1198.621 1592.976 37.9358 0 0 0 
1195.854 1559.375 -37.7131 0 0 0 
1113.354 1546.875 -37.7131 0 0 0 
1118.237 1540.625 32.1163 0 0 0 
1118.237 1540.625 32.1163 0 0 0 
1200.737 1553.125 32.1163 0 0 0 
1192.808 1600.416 -45.1892 0 0 0 
1100.07 1503.304 -29.6784 0 0 0 
1103.23 1504.992 24.2632 0 0 0 
1103.946 1498.344 25.7383 0 0 0 
1202.153 1513.224 25.7383 0 0 0 
1189.08 1637.953 -51.7044 0 0 0 
1088.339 1463.257 -21.4874 0 0 0 
1089.923 1471.261 16.4882 0 0 0 
1091.176 1459.627 19.0696 0 0 0 
1202.98 1476.567 19.0696 0 0 0 
1184.608 1668.632 -56.8561 0 0 0 
1079.015 1430.208 -13.5424 0 0 0 
1079.397 1441.184 9.4282 0 0 0 
1080.828 1427.888 12.3783 0 0 0 
1203.324 1446.448 12.3783 0 0 0 
1179.33 1689.099 -60.2423 0 0 0 
1072.951 1407.631 -6.2458 0 0 0 
1072.729 1416.513 3.7198 0 0 0 
1073.802 1406.541 5.9324 0 0 0 
1203.294 1426.161 5.9324 0 0 0 
1203 1420 0 0 0 0 
1173.184 1697 -61.4604 0 0 0 
1180.997 1687 50.2668 0 0 0 
1180.997 1687 50.2668 0 0 0 
1180.997 1687 50.2668 0 0 0 
1202.443 1428.251 -6.2458 0 0 0 
1164.942 1687.919 -60.2423 0 0 0 
1173.68 1668.137 51.5747 0 0 0 
1172.606 1678.109 49.3621 0 0 0 
1186.994 1680.289 49.3621 0 0 0 
1201.511 1449.768 -13.5424 0 0 0 
1153.984 1664.992 -56.8561 0 0 0 
1162.666 1642.416 49.7768 0 0 0 
1161.234 1655.712 46.8267 0 0 0 
1191.858 1660.352 46.8267 0 0 0 
1200.144 1481.197 -21.4874 0 0 0 
1141.164 1631.693 -51.7044 0 0 0 
1149.034 1611.589 45.5099 0 0 0 
1147.782 1623.223 42.9286 0 0 0 
1195.698 1630.483 42.9286 0 0 0 
1198.278 1519.184 -29.6784 0 0 0 
1127.336 1591.496 -45.1892 0 0 0 
1133.865 1577.408 39.4108 0 0 0 
1133.149 1584.056 37.9358 0 0 0 
1198.621 1593.976 37.9358 0 0 0 
1195.854 1560.375 -37.7131 0 0 0 
1113.354 1547.875 -37.7131 0 0 0 
1118.237 1541.625 32.1163 0 0 0 
1118.237 1541.625 32.1163 0 0 0 
1200.737 1554.125 32.1163 0 0 0 
1192.808 1601.416 -45.1892 0 0 0 
1100.07 1504.304 -29.6784 0 0 0 
1103.23 1505.992 24.2632 0 0 0 
1103.946 1499.344 25.7383 0 0 0 
1202.153 1514.224 25.7383 0 0 0 
1189.08 1638.953 -51.7044 0 0 0 
1088.339 1464.257 -21.4874 0 0 0 
1089.923 1472.261 16.4882 0 0 0 
1091.176 1460.627 19.0696 0 0 0 
1202.98 1477.567 19.0696 0 0 0 
1184.608 1669.632 -56.8561 0 0 0 
1079.015 1431.208 -13.5424 0 0 0 
1079.397 1442.184 9.4282 0 0 0 
1080.828 1428.888 12.3783 0 0 0 
1203.324 1447.448 12.3783 0 0 0 
1179.33 1690.099 -60.2423 0 0 0 
1072.951 1408.631 -6.2458 0 0 0 
1072.729 1417.513 3.7198 0 0 0 
1073.802 1407.541 5.9324 0 0 0 
1203.294 1427.161 5.9324 0 0 0 
1203 1421 0 0 0 0 
1173.184 1698 -61.4604 0 0 0 
1180.997 1688 50.2668 0 0 0 
1180.997 1688 50.2668 0 0 0 
1180.997 1688 50.2668 0 0 0 
1202.443 1429.251 -6.2458 0 0 0 
1164.942 1688.919 -60.2423 0 0 0 
1173.68 1669.137 51.5747 0 0 0 
1172.606 1679.109 49.3621 0 0 0 
1186.994 1681.289 49.3621 0 0 0 
1201.511 1450.768 -13.5424 0 0 0 
1153.984 1665.992 -56.8561 0 0 0 
1162.666 1643.416 49.7768 0 0 0 
1161.234 1656.712 46.8267 0 0 0 
1191.858 1661.352 46.8267 0 0 0 
1200.144 1482.197 -21.4874 0 0 0 
1141.164 1632.693 -51.7044 0 0 0 
1149.034 1612.589 45.5099 0 0 0 
1147.782 1624.223 42.9286 0 0 0 
1195.698 1631.483 42.9286 0 0 0 
1198.278 1520.184 -29.6784 0 0 0 
1127.336 1592.496 -45.1892 0 0 0 
1133.865 1578.408 39.4108 0 0 0 
1133.149 1585.056 37.9358 0 0 0 
1198.621 1594.976 37.9358 0 0 0 
1195.854 1561.375 -37.7131 0 0 0 
1113.354 1548.875 -37.7131 0 0 0 
1118.237 1542.625 32.1163 0 0 0 
1118.237 1542.625 32.1163 0 0 0 
1200.737 1555.125 32.1163 0 0 0 
1192.808 1602.416 -45.1892 0 0 0 
1100.07 1505.304 -29.6784 0 0 0 
1103.23 1506.992 24.2632 0 0 0 
1103.946 1500.344 25.7383 0 0 0 
1202.153 1515.224 25.7383 0 0 0 
1189.08 1639.953 -51.7044 0 0 0 
1088.339 1465.257 -21.4874 0 0 0 
1089.923 1473.261 16.4882 0 0 0 
1091.176 1461.627 19.0696 0 0 0 
1202.98 1478.567 19.0696 0 0 0 
1184.608 1670.632 -56.8561 0 0 0 
1079.015 1432.208 -13.5424 0 0 0 
1079.397 1443.184 9.4282 0 0 0 
1080.828 1429.888 12.3783 0 0 0 
1203.324 1448.448 12.3783 0 0 0 
1179.33 1691.099 -60.2423 0 0 0 
1072.951 1409.631 -6.2458 0 0 0 
1072.729 1418.513 3.7198 0 0 0 
1073.802 1408.541 5.9324 0 0 0 
1203.294 1428.161 5.9324 0 0 0 
1203 1422 0 0 0 0 
1173.184 1699 -61.4604 0 0 0 
1180.997 1689 50.2668 0 0 0 
1180.997 1689 50.2668 0 0 0 
1180.997 1689 50.2668 0 0 0 
1202.443 1430.251 -6.2458 0 0 0 
1164.942 1689.919 -60.2423 0 0 0 
1173.68 1670.137 51.5747 0 0 0 
1172.606 1680.109 49.3621 0 0 0 
1186.994 1682.289 49.3621 0 0 0 
1201.511 1451.768 -13.5424 0 0 0 
1153.984 1666.992 -56.8561 0 0 0 
1162.666 1644.416 49.7768 0 0 0 
1161.234 1657.712 46.8267 0 0 0 
1191.858 1662.352 46.8267 0 0 0 
1200.144 1483.197 -21.4874 0 0 0 
1141.164 1633.693 -51.7044 0 0 0 
1149.034 1613.589 45.5099 0 0 0 
1147.782 1625.223 42.9286 0 0 0 
1195.698 1632.483 42.9286 0 0 0 
1198.278 1521.184 -29.6784 0 0 0 
1127.336 1593.496 -45.1892 0 0 0 
1133.865 1579.408 39.4108 0 0 0 
1133.149 1586.056 37.9358 0 0 0 
1198.621 1595.976 37.9358 0 0 0 
1195.854 1562.375 -37.7131 0 0 0 
1113.354 1549.875 -37.7131 0 0 0 
1118.237 1543.625 32.1163 0 0 0 
1118.237 1543.625 32.1163 0 0 0 
1200.737 1556.125 32.1163 0 0 0 
1192.808 1603.416 -45.1892 0 0 0 
1100.07 1506.304 -29.6784 0 0 0 
1103.23 1507.992 24.2632 0 0 0 
1103.946 1501.344 25.7383 0 0 0 
1202.153 1516.224 25.7383 0 0 0 
1189.08 1640.953 -51.7044 0 0 0 
1088.339 1466.257 -21.4874 0 0 0 
1089.923 1474.261 16.4882 0 0 0 
1091.176 1462.627 19.0696 0 0 0 
1202.98 1479.567 19.0696 0 0 0 
1184.608 1671.632 -56.8561 0 0 0 
1079.015 1433.208 -13.5424 0 0 0 
1079.397 1444.184 9.4282 0 0 0 
1080.828 1430.888 12.3783 0 0 0 
1203.324 1449.448 12.3783 0 0 0 
1179.33 1692.099 -60.2423 0 0 0 
1072.951 1410.631 -6.2458 0 0 0 
1072.729 1419.513 3.7198 0 0 0 
1073.802 1409.541 5.9324 0 0 0 
1203.294 1429.161 5.9324 0 0 0 
1203 1423 0 0 0 0 
1173.184 1700 -61.4604 0 0 0 
1180.997 1690 50.2668 0 0 0 
1180.997 1690 50.2668 0 0 0 
1180.997 1690 50.2668 0 0 0 
1202.443 1431.251 -6.2458 0 0 0 
1164.942 1690.919 -60.2423 0 0 0 
1173.68 1671.137 51.5747 0 0 0 
1172.606 1681.109 49.3621 0 0 0 
1186.994 1683.289 49.3621 0 0 0 
1201.511 1452.768 -13.5424 0 0 0 
1153.984 1667.992 -56.8561 0 0 0 
1162.666 1645.416 49.7768 0 0 0 
1161.234 1658.712 46.8267 0 0 0 
1191.858 1663.352 46.8267 0 0 0 
1200.144 1484.197 -21.4874 0 0 0 
1141.164 1634.693 -51.7044 0 0 0 
1149.034 1614.589 45.5099 0 0 0 
1147.782 1626.223 42.9286 0 0 0 
1195.698 1633.483 42.9286 0 0 0 
1198.278 1522.184 -29.6784 0 0 0 
1127.336 1594.496 -45.1892 0 0 0 
1133.865 1580.408 39.4108 0 0 0 
1133.149 1587.056 37.9358 0 0 0 
1198.621 1596.976 37.9358 0 0 0 
1195.854 1563.375 -37.7131 0 0 0 
1113.354 1550.875 -37.7131 0 0 0 
1118.237 1544.625 32.1163 0 0 0 
1118.237 1544.625 32.1163 0 0 0 
1200.737 1557.125 32.1163 0 0 0 
1192.808 1604.416 -45.1892 0 0 0 
1100.07 1507.304 -29.6784 0 0 0 
1103.23 1508.992 24.2632 0 0 0 
1103.946 1502.344 25.7383 0 0 0 
1202.153 1517.224 25.7383 0 0 0 
1189.08 1641.953 -51.7044 0 0 0 
1088.339 1467.257 -21.4874 0 0 0 
1089.923 1475.261 16.4882 0 0 0 
1091.176 1463.627 19.0696 0 0 0 
1202.98 1480.567 19.0696 0 0 0 
1184.608 1672.632 -56.8561 0 0 0 
1079.015 1434.208 -13.5424 0 0 0 
1079.397 1445.184 9.4282 0 0 0 
1080.828 1431.888 12.3783 0 0 0 
1203.324 1450.448 12.3783 0 0 0 
1179.33 1693.099 -60.2423 0 0 0 
1072.951 1411.631 -6.2458 0 0 0 
1072.729 1420.513 3.7198 0 0 0 
1073.802 1410.541 5.9324 0 0 0 
1203.294 1430.161 5.9324 0 0 0 
1203 1424 0 0 0 0 
1173.184 1701 -61.4604 0 0 0 
1180.997 1691 50.2668 0 0 0 
1180.997 1691 50.2668 0 0 0 
1180.997 1691 50.2668 0 0 0 
1202.443 1432.251 -6.2458 0 0 0 
1164.942 1691.919 -60.2423 0 0 0 
1173.68 1672.137 51.5747 0 0 0 
1172.606 1682.109 49.3621 0 0 0 
1186.994 1684.289 49.3621 0 0 0 
1201.511 1453.768 -13.5424 0 0 0 
1153.984 1668.992 -56.8561 0 0 0 
1162.666 1646.416 49.7768 0 0 0 
1161.234 1659.712 46.8267 0 0 0 
1191.858 1664.352 46.8267 0 0 0 
1200.144 1485.197 -21.4874 0 0 0 
1141.164 1635.693 -51.7044 0 0 0 
1149.034 1615.589 45.5099 0 0 0 
1147.782 1627.223 42.9286 0 0 0 
1195.698 1634.483 42.9286 0 0 0 
1198.278 1523.184 -29.6784 0 0 0 
1127.336 1595.496 -45.1892 0 0 0 
1133.865 1581.408 39.4108 0 0 0 
1133.149 1588.056 37.9358 0 0 0 
1198.621 1597.976 37.9358 0 0 0 
1195.854 1564.375 -37.7131 0 0 0 
1113.354 1551.875 -37.7131 0 0 0 
1118.237 1545.625 32.1163 0 0 0 
1118.237 1545.625 32.1163 0 0 0 
1200.737 1558.125 32.1163 0 0 0 
1192.808 1605.416 -45.1892 0 0 0 
1100.07 1508.304 -29.6784 0 0 0 
1103.23 1509.992 24.2632 0 0 0 
1103.946 1503.344 25.7383 0 0 0 
1202.153 1518.224 25.7383 0 0 0 
1189.08 1642.953 -51.7044 0 0 0 
1088.339 1468.257 -21.4874 0 0 0 
1089.923 1476.261 16.4882 0 0 0 
1091.176 1464.627 19.0696 0 0 0 
1202.98 1481.567 19.0696 0 0 0 
1184.608 1673.632 -56.8561 0 0 0 
1079.015 1435.208 -13.5424 0 0 0 
1079.397 1446.184 9.4282 0 0 0 
1080.828 1432.888 12.3783 0 0 0 
1203.324 1451.448 12.3783 0 0 0 
1179.33 1694.099 -60.2423 0 0 0 
1072.951 1412.631 -6.2458 0 0 0 
1072.729 1421.513 3.7198 0 0 0 
1073.802 1411.541 5.9324 0 0 0 
1203.294 1431.161 5.9324 0 0 0 
1203 1425 0 0 0 0 
1173.184 1702 -61.4604 0 0 0 
1180.997 1692 50.2668 0 0 0 
1180.997 1692 50.2668 0 0 0 
1180.997 1692 50.2668 0 0 0 
1202.443 1433.251 -6.2458 0 0 0 
1164.942 1692.919 -60.2423 0 0 0 
1173.68 1673.137 51.5747 0 0 0 
1172.606 1683.109 49.3621 0 0 0 
1186.994 1685.289 49.3621 0 0 0 
1201.511 1454.768 -13.5424 0 0 0 
1153.984 1669.992 -56.8561 0 0 0 
1162.666 1647.416 49.7768 0 0 0 
1161.234 1660.712 46.8267 0 0 0 
1191.858 1665.352 46.8267 0 0 0 
1200.144 1486.197 -21.4874 0 0 0 
1141.164 1636.693 -51.7044 0 0 0 
1149.034 1616.589 45.5099 0 0 0 
1147.782 1628.223 42.9286 0 0 0 
1195.698 1635.483 42.9286 0 0 0 
1198.278 1524.184 -29.6784 0 0 0 
1127.336 1596.496 -45.1892 0 0 0 
1133.865 1582.408 39.4108 0 0 0 
1133.149 1589.056 37.9358 0 0 0 
1198.621 1598.976 37.9358 0 0 0 
1195.854 1565.375 -37.7131 0 0 0 
1113.354 1552.875 -37.7131 0 0 0 
1118.237 1546.625 32.1163 0 0 0 
1118.237 1546.625 32.1163 0 0 0 
1200.737 1559.125 32.1163 0 0 0 
1192.808 1606.416 -45.1892 0 0 0 
1100.07 1509.304 -29.6784 0 0 0 
1103.23 1510.992 24.2632 0 0 0 
1103.946 1504.344 25.7383 0 0 0 
1202.153 1519.224 25.7383 0 0 0 
1189.08 1643.953 -51.7044 0 0 0 
1088.339 1469.257 -21.4874 0 0 0 
1089.923 1477.261 16.4882 0 0 0 
1091.176 1465.627 19.0696 0 0 0 
1202.98 1482.567 19.0696 0 0 0 
1184.608 1674.632 -56.8561 0 0 0 
1079.015 1436.208 -13.5424 0 0 0 
1079.397 1447.184 9.4282 0 0 0 
1080.828 1433.888 12.3783 0 0 0 
1203.324 1452.448 12.3783 0 0 0 
1179.33 1695.099 -60.2423 0 0 0 
1072.951 1413.631 -6.2458 0 0 0 
1072.729 1422.513 3.7198 0 0 0 
1073.802 1412.541 5.9324 0 0 0 
1203.294 1432.161 5.9324 0 0 0 
1203 1426 0 0 0 0 
1173.184 1703 -61.4604 0 0 0 
1180.997 1906 50.2668 0 0 0 
1180.997 1906 50.2668 0 0 0 
1180.997 1906 50.2668 0 0 0 
1202.443 1425.625 -6.2458 0 0 0 
1164.942 1692.96 -60.2423 0 0 0 
1173.68 1882.131 51.5747 0 0 0 
1172.606 1892.104 49.3621 0 0 0 
1186.994 1894.283 49.3621 0 0 0 
1201.511 1442.136 -13.5424 0 0 0 
1153.984 1667.584 -56.8561 0 0 0 
1162.666 1842.672 49.7768 0 0 0 
1161.234 1855.968 46.8267 0 0 0 
1191.858 1860.608 46.8267 0 0 0 
1200.144 1471.542 -21.4874 0 0 0 
1141.164 1630.984 -51.7044 0 0 0 
1149.034 1791.291 45.5099 0 0 0 
1147.782 1802.925 42.9286 0 0 0 
1195.698 1810.184 42.9286 0 0 0 
1198.278 1509.848 -29.6784 0 0 0 
1127.336 1587.272 -45.1892 0 0 0 
1133.865 1731.656 39.4108 0 0 0 
1133.149 1738.304 37.9358 0 0 0 
1198.621 1748.224 37.9358 0 0 0 
1195.854 1553.062 -37.7131 0 0 0 
1113.354 1540.562 -37.7131 0 0 0 
1118.237 1667.438 32.1163 0 0 0 
1118.237 1667.438 32.1163 0 0 0 
1200.737 1679.938 32.1163 0 0 0 
1192.808 1597.192 -45.1892 0 0 0 
1100.07 1494.968 -29.6784 0 0 0 
1103.23 1602.304 24.2632 0 0 0 
1103.946 1595.656 25.7383 0 0 0 
1202.153 1610.536 25.7383 0 0 0 
1189.08 1638.244 -51.7044 0 0 0 
1088.339 1454.601 -21.4874 0 0 0 
1089.923 1539.925 16.4882 0 0 0 
1091.176 1528.291 19.0696 0 0 0 
1202.98 1545.23 19.0696 0 0 0 
1184.608 1672.224 -56.8561 0 0 0 
1079.015 1423.576 -13.5424 0 0 0 
1079.397 1483.968 9.4282 0 0 0 
1080.828 1470.672 12.3783 0 0 0 
1203.324 1489.232 12.3783 0 0 0 
1179.33 1695.141 -60.2423 0 0 0 
1072.951 1406.005 -6.2458 0 0 0 
1072.729 1438.104 3.7198 0 0 0 
1073.802 1428.131 5.9324 0 0 0 
1203.294 1447.751 5.9324 0 0 0 
1203 1432 0 0 0 0 
1173.184 1703 -61.4604 0 0 0 
1180.997 1907 50.2668 0 0 0 
1180.997 1907 50.2668 0 0 0 
1180.997 1907 50.2668 0 0 0 
1202.443 1431.438 -6.2458 0 0 0 
1164.942 1692.781 -60.2423 0 0 0 
1173.68 1883.15 51.5747 0 0 0 
1172.606 1892.906 49.3621 0 0 0 
1186.994 1895.63 49.3621 0 0 0 
1201.511 1447.528 -13.5424 0 0 0 
1153.984 1667.352 -56.8561 0 0 0 
1162.666 1843.656 49.7768 0 0 0 
1161.234 1856.664 46.8267 0 0 0 
1191.858 1862.464 46.8267 0 0 0 
1200.144 1476.329 -21.4874 0 0 0 
1141.164 1630.801 -51.7044 0 0 0 
1149.034 1792.207 45.5099 0 0 0 
1147.782 1803.589 42.9286 0 0 0 
1195.698 1812.663 42.9286 0 0 0 
1198.278 1513.904 -29.6784 0 0 0 
1127.336 1587.216 -45.1892 0 0 0 
1133.865 1732.488 39.4108 0 0 0 
1133.149 1738.992 37.9358 0 0 0 
1198.621 1751.392 37.9358 0 0 0 
1195.854 1556.312 -37.7131 0 0 0 
1113.354 1540.688 -37.7131 0 0 0 
1118.237 1668.188 32.1163 0 0 0 
1118.237 1668.188 32.1163 0 0 0 
1200.737 1683.812 32.1163 0 0 0 
1192.808 1599.616 -45.1892 0 0 0 
1100.07 1495.304 -29.6784 0 0 0 
1103.23 1602.992 24.2632 0 0 0 
1103.946 1596.488 25.7383 0 0 0 
1202.153 1615.088 25.7383 0 0 0 
1189.08 1639.875 -51.7044 0 0 0 
1088.339 1455.155 -21.4874 0 0 0 
1089.923 1540.589 16.4882 0 0 0 
1091.176 1529.207 19.0696 0 0 0 
1202.98 1550.381 19.0696 0 0 0 
1184.608 1673.152 -56.8561 0 0 0 
1079.015 1424.328 -13.5424 0 0 0 
1079.397 1484.664 9.4282 0 0 0 
1080.828 1471.656 12.3783 0 0 0 
1203.324 1494.856 12.3783 0 0 0 
1179.33 1695.506 -60.2423 0 0 0 
1072.951 1406.913 -6.2458 0 0 0 
1072.729 1438.906 3.7198 0 0 0 
1073.802 1429.15 5.9324 0 0 0 
1203.294 1453.675 5.9324 0 0 0 
1203 1433 0 0 0 0 
1173.254 1216 -60.4628 0 0 0 
1180.997 1908 50.2668 0 0 0 
1180.997 1908 50.2668 0 0 0 
1180.997 1908 50.2668 0 0 0 
1202.448 1399.01 -6.1775 0 0 0 
1165.01 1217.25 -59.2682 0 0 0 
1173.677 1903.913 51.5343 0 0 0 
1172.606 1896.101 49.3576 0 0 0 
1186.994 1898.827 49.3576 0 0 0 
1201.523 1366.544 -13.3748 0 0 0 
1154.048 1223.296 -55.9464 0 0 0 
1162.661 1875.888 49.7129 0 0 0 
1161.233 1865.472 46.8107 0 0 0 
1191.857 1871.272 46.8107 0 0 0 
1200.164 1336.053 -21.1986 0 0 0 
1141.221 1233.837 -50.8908 0 0 0 
1149.029 1829.074 45.4366 0 0 0 
1147.78 1819.96 42.8971 0 0 0 
1195.696 1829.036 42.8971 0 0 0 
1198.308 1307.992 -29.2554 0 0 0 
1127.385 1248.568 -44.4949 0 0 0 
1133.86 1768.624 39.339 0 0 0 
1133.146 1763.416 37.8879 0 0 0 
1198.618 1775.816 37.8879 0 0 0 
1195.893 1282.812 -37.152 0 0 0 
1113.393 1267.188 -37.152 0 0 0 
1118.232 1699.688 32.054 0 0 0 
1118.232 1699.688 32.054 0 0 0 
1200.732 1715.312 32.054 0 0 0 
1192.857 1260.968 -44.4949 0 0 0 
1100.1 1289.392 -29.2554 0 0 0 
1103.227 1627.416 24.2153 0 0 0 
1103.94 1632.624 25.6664 0 0 0 
1202.148 1651.224 25.6664 0 0 0 
1189.137 1242.911 -50.8908 0 0 0 
1088.36 1314.879 -21.1986 0 0 0 
1089.921 1556.96 16.4568 0 0 0 
1091.17 1566.074 18.9963 0 0 0 
1202.974 1587.25 18.9963 0 0 0 
1184.672 1229.096 -55.9464 0 0 0 
1079.027 1343.344 -13.3748 0 0 0 
1079.395 1493.472 9.4122 0 0 0 
1080.823 1503.888 12.3144 0 0 0 
1203.319 1527.088 12.3144 0 0 0 
1179.398 1219.974 -59.2682 0 0 0 
1072.956 1374.485 -6.1775 0 0 0 
1072.729 1442.101 3.7154 0 0 0 
1073.8 1449.913 5.892 0 0 0 
1203.292 1474.438 5.892 0 0 0 
1203 1434 0 0 0 0 
1173.254 1217 -60.4628 0 0 0 
1180.997 1909 50.2668 0 0 0 
1180.997 1909 50.2668 0 0 0 
1180.997 1909 50.2668 0 0 0 
1202.448 1400.01 -6.1775 0 0 0 
1165.01 1218.25 -59.2682 0 0 0 
1173.677 1904.913 51.5343 0 0 0 
1172.606 1897.101 49.3576 0 0 0 
1186.994 1899.827 49.3576 0 0 0 
1201.523 1367.544 -13.3748 0 0 0 
1154.048 1224.296 -55.9464 0 0 0 
1162.661 1876.888 49.7129 0 0 0 
1161.233 1866.472 46.8107 0 0 0 
1191.857 1872.272 46.8107 0 0 0 
1200.164 1337.053 -21.1986 0 0 0 
1141.221 1234.837 -50.8908 0 0 0 
1149.029 1830.074 45.4366 0 0 0 
1147.78 1820.96 42.8971 0 0 0 
1195.696 1830.036 42.8971 0 0 0 
1198.308 1308.992 -29.2554 0 0 0 
1127.385 1249.568 -44.4949 0 0 0 
1133.86 1769.624 39.339 0 0 0 
1133.146 1764.416 37.8879 0 0 0 
