ply
format ascii 1.0
element vertex 400
property float x
property float y
property float z
element face 0
property list uchar int vertex_index
end_header
411.0000 116.0000 0.0000
408.0000 117.0000 -24.0000
408.0000 117.0000 20.0000
408.0000 117.0000 20.0000
408.0000 117.0000 20.0000
411.0510 116.2305 -1.8465
406.4340 117.1340 -23.5260
406.1370 117.0980 19.9350
406.4340 117.1340 19.6380
408.8940 117.1340 19.6380
411.1680 116.4240 -4.3520
403.9120 117.1520 -22.2080
403.4160 117.1040 18.8800
403.9120 117.1520 18.6240
409.5920 117.1520 18.6240
411.2970 116.5835 -7.3155
400.6980 117.0780 -20.2020
400.0890 117.0360 17.0450
400.6980 117.0780 17.0660
410.1180 117.0780 17.0660
411.3840 116.7120 -10.5360
397.0560 116.9360 -17.6640
396.4080 116.9120 14.6400
397.0560 116.9360 15.0720
410.4960 116.9360 15.0720
411.3750 116.8125 -13.8125
393.2500 116.7500 -14.7500
392.6250 116.7500 11.8750
393.2500 116.7500 12.7500
410.7500 116.7500 12.7500
411.2160 116.8880 -16.9440
389.5440 116.5440 -11.6160
388.9920 116.5680 8.9600
389.5440 116.5440 10.2080
410.9040 116.5440 10.2080
410.8530 116.9415 -19.7295
386.2020 116.3420 -8.4180
385.7610 116.3840 6.1050
386.2020 116.3420 7.5540
410.9820 116.3420 7.5540
410.2320 116.9760 -21.9680
383.4880 116.1680 -5.3120
383.1840 116.2160 3.5200
383.4880 116.1680 4.8960
411.0080 116.1680 4.8960
409.2990 116.9945 -23.4585
381.6660 116.0460 -2.4540
381.5130 116.0820 1.4150
381.6660 116.0460 2.3420
411.0060 116.0460 2.3420
422.0000 124.0000 0.0000
408.0000 127.0000 -34.0000
408.0000 126.0000 31.0000
408.0000 126.0000 31.0000
408.0000 126.0000 31.0000
421.8465 124.4980 -3.1390
405.2070 127.1075 -33.3405
405.2655 126.0995 31.2435
405.2070 126.1265 30.4245
410.0525 126.2635 30.4245
421.3920 124.9840 -6.9920
401.2560 126.8800 -31.5040
401.2240 125.9360 29.8080
401.2560 125.9520 28.8160
412.0800 126.2880 28.8160
420.6455 125.4460 -11.3130
396.4890 126.3925 -28.7035
396.2685 125.5665 27.0445
396.4890 125.5455 26.3515
414.0375 126.1245 26.3515
419.6160 125.8720 -15.8560
391.2480 125.7200 -25.1520
390.7920 125.0480 23.3040
391.2480 124.9760 23.2080
415.8800 125.8240 23.2080
418.3125 126.2500 -20.3750
385.8750 124.9375 -21.0625
385.1875 124.4375 18.9375
385.8750 124.3125 19.5625
417.5625 125.4375 19.5625
416.7440 126.5680 -24.6240
380.7120 124.1200 -16.6480
379.8480 123.7920 14.2960
380.7120 123.6240 15.5920
419.0400 125.0160 15.5920
414.9195 126.8140 -28.3570
376.1010 123.3425 -12.1215
375.1665 123.1685 9.7305
376.1010 122.9795 11.4735
420.2675 124.6105 11.4735
412.8480 126.9760 -31.3280
372.3840 122.6800 -7.6960
371.5360 122.6240 5.5920
372.3840 122.4480 7.3840
421.2000 124.2720 7.3840
410.5385 127.0420 -33.2910
369.9030 122.2075 -3.5845
369.3495 122.2155 2.2315
369.9030 122.0985 3.5005
421.7925 124.0515 3.5005
430.0000 136.0000 0.0000
408.0000 141.0000 -38.0000
408.0000 142.0000 37.0000
408.0000 142.0000 37.0000
408.0000 142.0000 37.0000
429.6855 136.7475 -3.8585
404.3505 141.3415 -37.2735
404.8185 142.2235 37.5075
404.3505 142.3225 36.3015
411.0865 142.4035 36.3015
428.7840 137.4800 -8.3680
399.5440 141.2320 -35.2480
400.0880 142.0480 35.9200
399.5440 142.1600 34.3520
414.1920 142.2880 34.3520
427.3585 138.1825 -13.2795
393.9435 140.7705 -32.1545
394.2795 141.5545 32.6725
393.9435 141.6175 31.3705
417.2355 141.7645 31.3705
425.4720 138.8400 -18.3440
387.9120 140.0560 -28.2240
387.8640 140.8240 28.2000
387.9120 140.8000 27.5760
420.1360 140.9440 27.5760
423.1875 139.4375 -23.3125
381.8125 139.1875 -23.6875
381.3125 139.9375 22.9375
381.8125 139.8125 23.1875
422.8125 139.9375 23.1875
420.5680 139.9600 -27.9360
376.0080 138.2640 -18.7760
375.0960 138.9760 17.3200
376.0080 138.7600 18.4240
425.1840 138.8560 18.4240
417.6765 140.3925 -31.9655
370.8615 137.3845 -13.7205
369.6855 138.0205 11.7825
370.8615 137.7475 13.5045
427.1695 137.8105 13.5045
414.5760 140.7200 -35.1520
366.7360 136.6480 -8.7520
365.5520 137.1520 6.7600
366.7360 136.8800 8.6480
428.6880 136.9120 8.6480
411.3295 140.9275 -37.2465
363.9945 136.1535 -4.1015
363.1665 136.4515 2.6875
363.9945 136.2625 4.0735
429.6585 136.2715 4.0735
430.0000 149.0000 0.0000
408.0000 153.0000 -39.0000
408.0000 158.0000 40.0000
408.0000 158.0000 40.0000
408.0000 158.0000 40.0000
429.6945 149.5215 -4.1700
403.8895 153.9400 -38.2635
404.6815 158.6605 40.5990
403.8895 158.8450 39.2355
411.3295 158.2970 39.2355
428.8160 149.9920 -8.9200
398.6960 154.6800 -36.2080
399.7520 159.0640 38.9120
398.6960 159.3200 37.1040
414.5760 157.9760 37.1040
427.4215 150.4205 -14.0100
392.7765 155.2500 -33.0645
393.7005 159.2435 35.4130
392.7765 159.4850 33.8485
417.6765 157.1690 33.8485
425.5680 150.8160 -19.2000
386.4880 155.6800 -29.0640
387.0160 159.2320 30.5760
386.4880 159.4000 29.7120
420.5680 156.0080 29.7120
423.3125 151.1875 -24.2500
380.1875 156.0000 -24.4375
380.1875 159.0625 24.8750
380.1875 159.1250 24.9375
423.1875 154.6250 24.9375
420.7120 151.5440 -28.9200
374.2320 156.2400 -19.4160
373.7040 158.7680 18.7840
374.2320 158.7200 19.7680
425.4720 153.1520 19.7680
417.8235 151.8945 -32.9700
368.9785 156.4300 -14.2305
368.0545 158.3815 12.7770
368.9785 158.2450 14.4465
427.3585 151.7210 14.4465
414.7040 152.2480 -36.1600
364.7840 156.6000 -9.1120
363.7280 157.9360 7.3280
364.7840 157.7600 9.2160
428.7840 150.4640 9.2160
411.4105 152.6135 -38.2500
362.0055 156.7800 -4.2915
361.2135 157.4645 2.9110
362.0055 157.3250 4.3195
429.6855 149.5130 4.3195
431.0000 162.0000 0.0000
408.0000 166.0000 -32.0000
408.0000 176.0000 40.0000
408.0000 176.0000 40.0000
408.0000 176.0000 40.0000
430.6485 162.3865 -3.8120
404.2320 167.1230 -31.4280
405.0195 176.7890 40.6395
404.2320 176.9330 39.2040
411.4790 175.8555 39.2040
429.6480 162.7520 -7.9360
399.5360 168.1040 -29.8240
400.5760 177.1920 38.9760
399.5360 177.3840 36.9920
414.8720 175.0240 36.9920
428.0795 163.1055 -12.2040
394.2240 168.9610 -27.3560
395.1165 177.2630 35.4865
394.2240 177.4310 33.6280
418.1130 173.6585 33.6280
426.0240 163.4560 -16.4480
388.6080 169.7120 -24.1920
389.0880 177.0560 30.6480
388.6080 177.1520 29.3760
421.1360 171.9120 29.3760
423.5625 163.8125 -20.5000
383.0000 170.3750 -20.5000
382.9375 176.6250 24.9375
383.0000 176.6250 24.5000
423.8750 169.9375 24.5000
420.7760 164.1840 -24.1920
377.7120 170.9680 -16.4480
377.1120 176.0240 18.8320
377.7120 175.9280 19.2640
426.2640 167.8880 19.2640
417.7455 164.5795 -27.3560
373.0560 171.5090 -12.2040
372.0585 175.3070 12.8085
373.0560 175.1390 13.9320
428.2370 165.9165 13.9320
414.5520 165.0080 -29.8240
369.3440 172.0160 -7.9360
368.2240 174.5280 7.3440
369.3440 174.3360 8.7680
429.7280 164.1760 8.7680
411.2765 165.4785 -31.4280
366.8880 172.5070 -3.8120
366.0555 173.7410 2.9155
366.8880 173.5970 4.0360
430.6710 162.8195 4.0360
425.0000 177.0000 0.0000
408.0000 175.0000 -24.0000
408.0000 189.0000 38.0000
408.0000 189.0000 38.0000
408.0000 189.0000 38.0000
424.7625 176.8765 -3.2640
404.6025 176.0115 -23.6070
405.4575 189.5745 38.4030
404.6025 189.7455 37.2150
410.8655 188.8890 37.2150
424.0800 176.6320 -6.5920
400.4800 176.9520 -22.4960
401.6800 189.6560 36.7040
400.4800 189.9440 35.0400
413.5440 188.2320 35.0400
422.9975 176.3055 -9.8880
395.8875 177.8305 -20.7690
397.0425 189.3315 33.3410
395.8875 189.6885 31.7450
416.0085 187.1430 31.7450
421.5600 175.9360 -13.0560
391.0800 178.6560 -18.5280
391.9200 188.6880 28.7520
391.0800 189.0720 27.6000
418.2320 185.7360 27.6000
419.8125 175.5625 -16.0000
386.3125 179.4375 -15.8750
386.6875 187.8125 23.3750
386.3125 188.1875 22.8750
420.1875 184.1250 22.8750
417.8000 175.2240 -18.6240
381.8400 180.1840 -12.9120
381.7200 186.7920 17.6480
381.8400 187.1280 17.8400
421.8480 182.4240 17.8400
415.5675 174.9595 -20.8320
377.9175 180.9045 -9.7410
377.3925 185.7135 12.0090
377.9175 185.9865 12.7650
423.1865 180.7470 12.7650
413.1600 174.8080 -22.5280
374.8000 181.6080 -6.4640
374.0800 184.6640 6.8960
374.8000 184.8560 7.9200
424.1760 179.2080 7.9200
410.6225 174.8085 -23.6160
372.7425 182.3035 -3.1830
372.1575 183.7305 2.7470
372.7425 183.8295 3.5750
424.7895 177.9210 3.5750
418.0000 190.0000 0.0000
408.0000 188.0000 -19.0000
408.0000 196.0000 26.0000
408.0000 196.0000 26.0000
408.0000 196.0000 26.0000
417.9045 189.8945 -2.8405
405.1880 188.6835 -18.6705
405.8315 196.6035 26.3610
405.1880 196.5315 25.4745
410.1430 196.1515 25.4745
417.6160 189.6960 -5.6240
401.7040 189.2480 -17.7440
402.6320 196.7680 25.2480
401.7040 196.6720 24.0160
411.9840 195.9520 24.0160
417.1315 189.4315 -8.2935
397.7760 189.7145 -16.3135
398.7105 196.5745 22.9670
397.7760 196.4905 21.8015
413.5410 195.4705 21.8015
416.4480 189.1280 -10.7920
393.6320 190.1040 -14.4720
394.3760 196.1040 19.8240
393.6320 196.0560 19.0080
414.8320 194.7760 19.0080
415.5625 188.8125 -13.0625
389.5000 190.4375 -12.3125
389.9375 195.4375 16.1250
389.5000 195.4375 15.8125
415.8750 193.9375 15.8125
414.4720 188.5120 -15.0480
385.6080 190.7360 -9.9280
385.7040 194.6560 12.1760
385.6080 194.7040 12.3920
416.6880 193.0240 12.3920
413.1735 188.2535 -16.6915
382.1840 191.0205 -7.4115
381.9845 193.8405 8.2830
382.1840 193.9245 8.9235
417.2890 192.1045 8.9235
411.6640 188.0640 -17.9360
379.4560 191.3120 -4.8560
379.0880 193.0720 4.7520
379.4560 193.1680 5.5840
417.6960 191.2480 5.5840
409.9405 187.9705 -18.7245
377.6520 191.6315 -2.3545
377.3235 192.4315 1.8890
377.6520 192.5035 2.5505
417.9270 190.5235 2.5505
401.0000 112.0000 0.0000
408.0000 113.0000 -10.0000
408.0000 112.0000 5.0000
408.0000 112.0000 5.0000
408.0000 112.0000 5.0000
401.2410 108.6665 -1.7380
406.4305 109.8175 -9.7875
406.8670 108.9220 5.6520
406.4305 108.8365 4.9275
408.7760 108.7555 4.9275
401.8880 106.7920 -3.3440
404.5040 107.9200 -9.2000
405.2560 107.1360 5.7760
404.5040 106.9920 4.7200
408.8080 106.8640 4.7200
402.8270 106.1155 -4.8060
402.3435 107.0825 -8.3125
403.2990 106.4140 5.4740
402.3435 106.2355 4.3925
408.2520 106.0885 4.3925
403.9440 106.3760 -6.1120
400.0720 107.0800 -7.2000
401.1280 106.5280 4.8480
400.0720 106.3360 3.9600
407.2640 106.1920 3.9600
405.1250 107.3125 -7.2500
397.8125 107.6875 -5.9375
398.8750 107.2500 4.0000
397.8125 107.0625 3.4375
406.0000 106.9375 3.4375
406.2560 108.6640 -8.2080
395.6880 108.6800 -4.6000
396.6720 108.3520 3.0320
395.6880 108.1840 2.8400
404.6160 108.0880 2.8400
407.2230 110.1695 -8.9740
393.8215 109.8325 -3.2625
394.6510 109.6060 2.0460
393.8215 109.4695 2.1825
403.2680 109.4065 2.1825
407.9120 111.5680 -9.5360
392.3360 110.9200 -2.0000
392.9440 110.7840 1.1440
392.3360 110.6880 1.4800
402.1120 110.6560 1.4800
408.2090 112.5985 -9.8820
391.3545 111.7175 -0.8875
391.6830 111.6580 0.4280
391.3545 111.6085 0.7475
401.3040 111.5995 0.7475
