ply
format ascii 1.0
element vertex 1814
property float x
property float y
property float z
element face 0
property list uchar int vertex_index
end_header
5.2765 1076.9115 40.1850
-6.1405 1088.4055 41.3730
-7.0405 1089.7735 40.1850
-7.0405 1037.7805 -32.4090
0.0000 1032.0000 -35.0000
25.0000 993.0000 0.0000
-87.0000 1111.0000 0.0000
-87.0000 1111.0000 0.0000
-87.0000 1111.0000 0.0000
5.2360 1025.8950 -34.3665
24.8040 997.1230 4.2945
-85.9680 1114.2850 3.0345
-85.0680 1112.8810 4.2945
-85.0680 1107.2130 -4.0985
9.7680 1019.5600 -32.5920
24.1920 1003.9040 9.2960
-80.9440 1115.2800 7.6160
-79.7440 1113.4080 9.2960
-79.7440 1101.3440 -8.5680
13.6320 1013.2650 -29.8655
23.1280 1012.7610 14.7315
-72.7860 1114.3450 13.2615
-71.7360 1112.7070 14.7315
-71.7360 1093.8310 -13.2195
16.8640 1007.2800 -26.3760
21.5760 1023.1120 20.3280
-62.3520 1111.8400 19.4880
-61.7520 1110.9040 20.3280
-61.7520 1085.1120 -17.8640
19.5000 1001.8750 -22.3125
19.5000 1034.3750 25.8125
-50.5000 1108.1250 25.8125
-50.5000 1108.1250 25.8125
-50.5000 1075.6250 -22.3125
21.5760 997.3200 -17.8640
16.8640 1045.9680 30.9120
-38.0880 1103.5600 31.7520
-38.6880 1104.4960 30.9120
-38.6880 1065.8080 -26.3760
23.1280 993.8850 -13.2195
13.6320 1057.3090 35.3535
-25.9740 1098.5050 36.8235
-27.0240 1100.1430 35.3535
-27.0240 1056.0990 -29.8655
24.1920 991.8400 -8.5680
9.7680 1067.8160 38.8640
-15.0160 1093.3200 40.5440
-16.2160 1095.1920 38.8640
-16.2160 1046.9360 -32.5920
24.8040 991.4550 -4.0985
5.2360 1076.9070 41.1705
-6.0720 1088.3650 42.4305
-6.9720 1089.7690 41.1705
-6.9720 1038.7570 -34.3665
0.0000 1032.0000 -34.0000
26.0000 993.0000 0.0000
-28.0000 1111.0000 0.0000
-28.0000 1111.0000 0.0000
-28.0000 1111.0000 0.0000
2.9150 1025.8905 -33.3810
25.5150 997.1915 4.1170
-28.3950 1114.3535 2.8930
-27.4590 1112.9495 4.1170
-27.4590 1107.1725 -3.9490
6.1600 1019.5440 -31.6480
24.1600 1004.0720 8.8960
-27.2000 1115.4480 7.2640
-25.9520 1113.5760 8.8960
-25.9520 1101.2800 -8.2720
9.5850 1013.2335 -28.9870
22.0850 1013.0505 14.0790
-24.7450 1114.6345 12.6510
-23.6530 1112.9965 14.0790
-23.6530 1093.7575 -12.7830
13.0400 1007.2320 -25.5840
19.4400 1023.5360 19.4080
-21.3600 1112.2640 18.5920
-20.7360 1111.3280 19.4080
-20.7360 1085.0400 -17.2960
16.3750 1001.8125 -21.6250
16.3750 1034.9375 24.6250
-17.3750 1108.6875 24.6250
-17.3750 1108.6875 24.6250
-17.3750 1075.5625 -21.6250
19.4400 997.2480 -17.2960
13.0400 1046.6640 29.4720
-13.1200 1104.2560 30.2880
-13.7440 1105.1920 29.4720
-13.7440 1065.7600 -25.5840
22.0850 993.8115 -12.7830
9.5850 1058.1245 33.6910
-8.9250 1099.3205 35.1190
-10.0170 1100.9585 33.6910
-10.0170 1056.0675 -28.9870
24.1600 991.7760 -8.2720
6.1600 1068.7280 37.0240
-5.1200 1094.2320 38.6560
-6.3680 1096.1040 37.0240
-6.3680 1046.9200 -31.6480
25.5150 991.4145 -3.9490
2.9150 1077.8835 39.2130
-2.0350 1089.3415 40.4370
-2.9710 1090.7455 39.2130
-2.9710 1038.7525 -33.3810
0.0000 1032.0000 -33.0000
27.0000 993.0000 0.0000
-28.0000 1111.0000 0.0000
-28.0000 1111.0000 0.0000
-28.0000 1111.0000 0.0000
2.9835 1025.8905 -32.4090
26.4915 997.1915 4.1450
-28.4355 1114.3535 2.9570
-27.4635 1112.9495 4.1450
-27.4635 1107.1725 -3.9210
6.3280 1019.5440 -30.7520
25.0720 1004.0720 9.0000
-27.2640 1115.4480 7.4160
-25.9680 1113.5760 9.0000
-25.9680 1101.2800 -8.1680
9.8745 1013.2335 -28.2030
22.9005 1013.0505 14.2950
-24.8185 1114.6345 12.9090
-23.6845 1112.9965 14.2950
-23.6845 1093.7575 -12.5670
13.4640 1007.2320 -24.9360
20.1360 1023.5360 19.7600
-21.4320 1112.2640 18.9680
-20.7840 1111.3280 19.7600
-20.7840 1085.0400 -16.9440
16.9375 1001.8125 -21.1250
16.9375 1034.9375 25.1250
-17.4375 1108.6875 25.1250
-17.4375 1108.6875 25.1250
-17.4375 1075.5625 -21.1250
20.1360 997.2480 -16.9440
13.4640 1046.6640 30.1200
-13.1680 1104.2560 30.9120
-13.8160 1105.1920 30.1200
-13.8160 1065.7600 -24.9360
22.9005 993.8115 -12.5670
9.8745 1058.1245 34.4750
-8.9565 1099.3205 35.8610
-10.0905 1100.9585 34.4750
-10.0905 1056.0675 -28.2030
25.0720 991.7760 -8.1680
6.3280 1068.7280 37.9200
-5.1360 1094.2320 39.5040
-6.4320 1096.1040 37.9200
-6.4320 1046.9200 -30.7520
26.4915 991.4145 -3.9210
2.9835 1077.8835 40.1850
-2.0395 1089.3415 41.3730
-3.0115 1090.7455 40.1850
-3.0115 1038.7525 -32.4090
0.0000 1032.0000 -32.0000
27.0000 993.0000 0.0000
-27.0000 1111.0000 0.0000
-27.0000 1111.0000 0.0000
-27.0000 1111.0000 0.0000
2.9430 1025.8905 -31.4370
26.4870 997.1915 4.1730
-27.4590 1114.3535 3.0210
-26.4870 1112.9495 4.1730
-26.4870 1107.1725 -3.8930
6.2640 1019.5440 -29.8560
25.0560 1004.0720 9.1040
-26.3520 1115.4480 7.5680
-25.0560 1113.5760 9.1040
-25.0560 1101.2800 -8.0640
9.8010 1013.2335 -27.4190
22.8690 1013.0505 14.5110
-24.0030 1114.6345 13.1670
-22.8690 1112.9965 14.5110
-22.8690 1093.7575 -12.3510
13.3920 1007.2320 -24.2880
20.0880 1023.5360 20.1120
-20.7360 1112.2640 19.3440
-20.0880 1111.3280 20.1120
-20.0880 1085.0400 -16.5920
16.8750 1001.8125 -20.6250
16.8750 1034.9375 25.6250
-16.8750 1108.6875 25.6250
-16.8750 1108.6875 25.6250
-16.8750 1075.5625 -20.6250
20.0880 997.2480 -16.5920
13.3920 1046.6640 30.7680
-12.7440 1104.2560 31.5360
-13.3920 1105.1920 30.7680
-13.3920 1065.7600 -24.2880
22.8690 993.8115 -12.3510
9.8010 1058.1245 35.2590
-8.6670 1099.3205 36.6030
-9.8010 1100.9585 35.2590
-9.8010 1056.0675 -27.4190
25.0560 991.7760 -8.0640
6.2640 1068.7280 38.8160
-4.9680 1094.2320 40.3520
-6.2640 1096.1040 38.8160
-6.2640 1046.9200 -29.8560
26.4870 991.4145 -3.8930
2.9430 1077.8835 41.1570
-1.9710 1089.3415 42.3090
-2.9430 1090.7455 41.1570
-2.9430 1038.7525 -31.4370
0.0000 1033.0000 -35.0000
23.0000 994.0000 0.0000
-27.0000 1111.0000 0.0000
-27.0000 1111.0000 0.0000
-27.0000 1111.0000 0.0000
2.6690 1026.9310 -34.3575
22.5810 998.1960 4.1575
-27.2970 1114.3770 2.8975
-26.4690 1112.9730 4.1575
-26.4690 1107.1960 -4.0175
5.5920 1020.6080 -32.5600
21.4080 1005.0880 8.9600
-26.0960 1115.5360 7.2800
-24.9920 1113.6640 8.9600
-24.9920 1101.3680 -8.4400
8.6430 1014.3070 -29.8025
19.6070 1014.0820 14.1525
-23.7090 1114.8190 12.6825
-22.7430 1113.1810 14.1525
-22.7430 1093.9420 -13.0725
11.6960 1008.3040 -26.2800
17.3040 1024.5840 19.4800
-20.4480 1112.5680 18.6400
-19.8960 1111.6320 19.4800
-19.8960 1085.3440 -17.7200
14.6250 1002.8750 -22.1875
14.6250 1036.0000 24.6875
-16.6250 1109.1250 24.6875
-16.6250 1109.1250 24.6875
-16.6250 1076.0000 -22.1875
17.3040 998.2960 -17.7200
11.6960 1047.7360 29.5200
-12.5520 1104.8320 30.3600
-13.1040 1105.7680 29.5200
-13.1040 1066.3360 -26.2800
19.6070 994.8430 -13.0725
8.6430 1059.1980 33.7225
-8.5410 1100.0310 35.1925
-9.5070 1101.6690 33.7225
-9.5070 1056.7780 -29.8025
21.4080 992.7920 -8.4400
5.5920 1069.7920 37.0400
-4.9040 1095.0640 38.7200
-6.0080 1096.9360 37.0400
-6.0080 1047.7520 -32.5600
22.5810 992.4190 -4.0175
2.6690 1078.9240 39.2175
-1.9530 1090.2730 40.4775
-2.7810 1091.6770 39.2175
-2.7810 1039.6840 -34.3575
0.0000 1033.0000 -34.0000
24.0000 994.0000 0.0000
-26.0000 1111.0000 0.0000
-26.0000 1111.0000 0.0000
-26.0000 1111.0000 0.0000
2.6970 1026.9310 -33.3855
23.5530 998.1960 4.1855
-26.3610 1114.3770 2.9615
-25.4970 1112.9730 4.1855
-25.4970 1107.1960 -3.9895
5.6960 1020.6080 -31.6640
22.3040 1005.0880 9.0640
-25.2480 1115.5360 7.4320
-24.0960 1113.6640 9.0640
-24.0960 1101.3680 -8.3360
8.8590 1014.3070 -29.0185
20.3910 1014.0820 14.3685
-22.9670 1114.8190 12.9405
-21.9590 1113.1810 14.3685
-21.9590 1093.9420 -12.8565
12.0480 1008.3040 -25.6320
17.9520 1024.5840 19.8320
-19.8240 1112.5680 19.0160
-19.2480 1111.6320 19.8320
-19.2480 1085.3440 -17.3680
15.1250 1002.8750 -21.6875
15.1250 1036.0000 25.1875
-16.1250 1109.1250 25.1875
-16.1250 1109.1250 25.1875
-16.1250 1076.0000 -21.6875
17.9520 998.2960 -17.3680
12.0480 1047.7360 30.1680
-12.1760 1104.8320 30.9840
-12.7520 1105.7680 30.1680
-12.7520 1066.3360 -25.6320
20.3910 994.8430 -12.8565
8.8590 1059.1980 34.5065
-8.2830 1100.0310 35.9345
-9.2910 1101.6690 34.5065
-9.2910 1056.7780 -29.0185
22.3040 992.7920 -8.3360
5.6960 1069.7920 37.9360
-4.7520 1095.0640 39.5680
-5.9040 1096.9360 37.9360
-5.9040 1047.7520 -31.6640
23.5530 992.4190 -3.9895
2.6970 1078.9240 40.1895
-1.8890 1090.2730 41.4135
-2.7530 1091.6770 40.1895
-2.7530 1039.6840 -33.3855
0.0000 1033.0000 -34.0000
24.0000 994.0000 0.0000
-26.0000 1111.0000 0.0000
-26.0000 1111.0000 0.0000
-26.0000 1111.0000 0.0000
2.6970 1026.9310 -33.3900
23.5530 998.1960 4.2540
-26.3610 1114.3770 3.0300
-25.4970 1112.9730 4.2540
-25.4970 1107.1960 -4.0300
5.6960 1020.6080 -31.6800
22.3040 1005.0880 9.2320
-25.2480 1115.5360 7.6000
-24.0960 1113.6640 9.2320
-24.0960 1101.3680 -8.4000
8.8590 1014.3070 -29.0500
20.3910 1014.0820 14.6580
-22.9670 1114.8190 13.2300
-21.9590 1113.1810 14.6580
-21.9590 1093.9420 -12.9300
12.0480 1008.3040 -25.6800
17.9520 1024.5840 20.2560
-19.8240 1112.5680 19.4400
-19.2480 1111.6320 20.2560
-19.2480 1085.3440 -17.4400
15.1250 1002.8750 -21.7500
15.1250 1036.0000 25.7500
-16.1250 1109.1250 25.7500
-16.1250 1109.1250 25.7500
-16.1250 1076.0000 -21.7500
17.9520 998.2960 -17.4400
12.0480 1047.7360 30.8640
-12.1760 1104.8320 31.6800
-12.7520 1105.7680 30.8640
-12.7520 1066.3360 -25.6800
20.3910 994.8430 -12.9300
8.8590 1059.1980 35.3220
-8.2830 1100.0310 36.7500
-9.2910 1101.6690 35.3220
-9.2910 1056.7780 -29.0500
22.3040 992.7920 -8.4000
5.6960 1069.7920 38.8480
-4.7520 1095.0640 40.4800
-5.9040 1096.9360 38.8480
-5.9040 1047.7520 -31.6800
23.5530 992.4190 -4.0300
2.6970 1078.9240 41.1660
-1.8890 1090.2730 42.3900
-2.7530 1091.6770 41.1660
-2.7530 1039.6840 -33.3900
0.0000 1033.0000 -33.0000
25.0000 994.0000 0.0000
-89.0000 1112.0000 0.0000
-89.0000 1112.0000 0.0000
-89.0000 1112.0000 0.0000
5.3170 1026.8860 -32.4090
24.8130 998.2600 4.1450
-87.9210 1115.4220 2.9570
-87.0210 1114.0180 4.1450
-87.0210 1108.1320 -3.9210
9.8960 1020.5280 -30.7520
24.2240 1005.2400 9.0000
-82.7680 1116.6160 7.4160
-81.5680 1114.7440 9.0000
-81.5680 1102.2160 -8.1680
13.7790 1014.2020 -28.2030
23.1910 1014.3400 14.2950
-74.4170 1115.9240 12.9090
-73.3670 1114.2860 14.2950
-73.3670 1094.6840 -12.5670
17.0080 1008.1840 -24.9360
21.6720 1024.9600 19.7600
-63.7440 1113.6880 18.9680
-63.1440 1112.7520 19.7600
-63.1440 1085.9680 -16.9440
19.6250 1002.7500 -21.1250
19.6250 1036.5000 25.1250
-51.6250 1110.2500 25.1250
-51.6250 1110.2500 25.1250
-51.6250 1076.5000 -21.1250
21.6720 998.1760 -16.9440
17.0080 1048.3600 30.1200
-38.9360 1105.9520 30.9120
-39.5360 1106.8880 30.1200
-39.5360 1066.7120 -24.9360
23.1910 994.7380 -12.5670
13.7790 1059.9400 34.4750
-26.5530 1101.1360 35.8610
-27.6030 1102.7740 34.4750
-27.6030 1057.0360 -28.2030
24.2240 992.7120 -8.1680
9.8960 1070.6400 37.9200
-15.3520 1096.1440 39.5040
-16.5520 1098.0160 37.9200
-16.5520 1047.9040 -30.7520
24.8130 992.3740 -3.9210
5.3170 1079.8600 40.1850
-6.2090 1091.3180 41.3730
-7.1090 1092.7220 40.1850
-7.1090 1039.7480 -32.4090
0.0000 1033.0000 -32.0000
25.0000 994.0000 0.0000
-88.0000 1112.0000 0.0000
-88.0000 1112.0000 0.0000
-88.0000 1112.0000 0.0000
5.2765 1026.8860 -31.4370
24.8085 998.2600 4.1730
-86.9445 1115.4220 3.0210
-86.0445 1114.0180 4.1730
-86.0445 1108.1320 -3.8930
9.8320 1020.5280 -29.8560
24.2080 1005.2400 9.1040
-81.8560 1116.6160 7.5680
-80.6560 1114.7440 9.1040
-80.6560 1102.2160 -8.0640
13.7055 1014.2020 -27.4190
23.1595 1014.3400 14.5110
-73.6015 1115.9240 13.1670
-72.5515 1114.2860 14.5110
-72.5515 1094.6840 -12.3510
16.9360 1008.1840 -24.2880
21.6240 1024.9600 20.1120
-63.0480 1113.6880 19.3440
-62.4480 1112.7520 20.1120
-62.4480 1085.9680 -16.5920
19.5625 1002.7500 -20.6250
19.5625 1036.5000 25.6250
-51.0625 1110.2500 25.6250
-51.0625 1110.2500 25.6250
-51.0625 1076.5000 -20.6250
21.6240 998.1760 -16.5920
16.9360 1048.3600 30.7680
-38.5120 1105.9520 31.5360
-39.1120 1106.8880 30.7680
-39.1120 1066.7120 -24.2880
23.1595 994.7380 -12.3510
13.7055 1059.9400 35.2590
-26.2635 1101.1360 36.6030
-27.3135 1102.7740 35.2590
-27.3135 1057.0360 -27.4190
24.2080 992.7120 -8.0640
9.8320 1070.6400 38.8160
-15.1840 1096.1440 40.3520
-16.3840 1098.0160 38.8160
-16.3840 1047.9040 -29.8560
24.8085 992.3740 -3.8930
5.2765 1079.8600 41.1570
-6.1405 1091.3180 42.3090
-7.0405 1092.7220 41.1570
-7.0405 1039.7480 -31.4370
0.0000 1034.0000 -34.0000
26.0000 994.0000 0.0000
-88.0000 1112.0000 0.0000
-88.0000 1112.0000 0.0000
-88.0000 1112.0000 0.0000
5.3450 1027.8580 -33.3855
25.7850 998.2880 4.1855
-86.9850 1115.4860 2.9615
-86.0490 1114.0460 4.1855
-86.0490 1108.1600 -3.9895
10.0000 1021.4240 -31.6640
25.1200 1005.3440 9.0640
-81.9200 1116.7680 7.4320
-80.6720 1114.8480 9.0640
-80.6720 1102.3200 -8.3360
13.9950 1014.9860 -29.0185
23.9750 1014.5560 14.3685
-73.6750 1116.1820 12.9405
-72.5830 1114.5020 14.3685
-72.5830 1094.9000 -12.8565
17.3600 1008.8320 -25.6320
22.3200 1025.3120 19.8320
-63.1200 1114.0640 19.0160
-62.4960 1113.1040 19.8320
-62.4960 1086.3200 -17.3680
20.1250 1003.2500 -21.6875
20.1250 1037.0000 25.1875
-51.1250 1110.7500 25.1875
-51.1250 1110.7500 25.1875
-51.1250 1077.0000 -21.6875
22.3200 998.5280 -17.3680
17.3600 1049.0080 30.1680
-38.5600 1106.5760 30.9840
-39.1840 1107.5360 30.1680
-39.1840 1067.3600 -25.6320
23.9750 994.9540 -12.8565
13.9950 1060.7240 34.5065
-26.2950 1101.8780 35.9345
-27.3870 1103.5580 34.5065
-27.3870 1057.8200 -29.0185
25.1200 992.8160 -8.3360
10.0000 1071.5360 37.9360
-15.2000 1096.9920 39.5680
-16.4480 1098.9120 37.9360
-16.4480 1048.8000 -31.6640
25.7850 992.4020 -3.9895
5.3450 1080.8320 40.1895
-6.1450 1092.2540 41.4135
-7.0810 1093.6940 40.1895
-7.0810 1040.7200 -33.3855
0.0000 1034.0000 -33.0000
23.0000 995.0000 0.0000
-87.0000 1112.0000 0.0000
-87.0000 1112.0000 0.0000
-87.0000 1112.0000 0.0000
5.0990 1027.9265 -32.4135
22.8510 999.2645 4.2135
-85.8870 1115.4455 3.0255
-85.0590 1114.0415 4.2135
-85.0590 1108.1555 -3.9615
9.4320 1021.5920 -30.7680
22.3680 1006.2560 9.1680
-80.8160 1116.7040 7.5840
-79.7120 1114.8320 9.1680
-79.7120 1102.3040 -8.2320
13.0530 1015.2755 -28.2345
21.4970 1015.3715 14.5845
-72.6390 1116.1085 13.1985
-71.6730 1114.4705 14.5845
-71.6730 1094.8685 -12.6405
16.0160 1009.2560 -24.9840
20.1840 1026.0080 20.1840
-62.2080 1113.9920 19.3920
-61.6560 1113.0560 20.1840
-61.6560 1086.2720 -17.0160
18.3750 1003.8125 -21.1875
18.3750 1037.5625 25.6875
-50.3750 1110.6875 25.6875
-50.3750 1110.6875 25.6875
-50.3750 1076.9375 -21.1875
20.1840 999.2240 -17.0160
16.0160 1049.4320 30.8160
-37.9920 1106.5280 31.6080
-38.5440 1107.4640 30.8160
-38.5440 1067.2880 -24.9840
21.4970 995.7695 -12.6405
13.0530 1061.0135 35.2905
-25.9110 1101.8465 36.6765
-26.8770 1103.4845 35.2905
-26.8770 1057.7465 -28.2345
22.3680 993.7280 -8.2320
9.4320 1071.7040 38.8320
-14.9840 1096.9760 40.4160
-16.0880 1098.8480 38.8320
-16.0880 1048.7360 -30.7680
22.8510 993.3785 -3.9615
5.0990 1080.9005 41.1615
-6.0630 1092.2495 42.3495
-6.8910 1093.6535 41.1615
-6.8910 1040.6795 -32.4135
0.0000 1034.0000 -32.0000
23.0000 995.0000 0.0000
-87.0000 1112.0000 0.0000
-87.0000 1112.0000 0.0000
-87.0000 1112.0000 0.0000
5.0990 1027.9265 -31.4415
22.8510 999.2645 4.2415
-85.8870 1115.4455 3.0895
-85.0590 1114.0415 4.2415
-85.0590 1108.1555 -3.9335
9.4320 1021.5920 -29.8720
22.3680 1006.2560 9.2720
-80.8160 1116.7040 7.7360
-79.7120 1114.8320 9.2720
-79.7120 1102.3040 -8.1280
13.0530 1015.2755 -27.4505
21.4970 1015.3715 14.8005
-72.6390 1116.1085 13.4565
-71.6730 1114.4705 14.8005
-71.6730 1094.8685 -12.4245
16.0160 1009.2560 -24.3360
20.1840 1026.0080 20.5360
-62.2080 1113.9920 19.7680
-61.6560 1113.0560 20.5360
-61.6560 1086.2720 -16.6640
18.3750 1003.8125 -20.6875
18.3750 1037.5625 26.1875
-50.3750 1110.6875 26.1875
-50.3750 1110.6875 26.1875
-50.3750 1076.9375 -20.6875
20.1840 999.2240 -16.6640
16.0160 1049.4320 31.4640
-37.9920 1106.5280 32.2320
-38.5440 1107.4640 31.4640
-38.5440 1067.2880 -24.3360
21.4970 995.7695 -12.4245
13.0530 1061.0135 36.0745
-25.9110 1101.8465 37.4185
-26.8770 1103.4845 36.0745
-26.8770 1057.7465 -27.4505
22.3680 993.7280 -8.1280
9.4320 1071.7040 39.7280
-14.9840 1096.9760 41.2640
-16.0880 1098.8480 39.7280
-16.0880 1048.7360 -29.8720
22.8510 993.3785 -3.9335
5.0990 1080.9005 42.1335
-6.0630 1092.2495 43.2855
-6.8910 1093.6535 42.1335
-6.8910 1040.6795 -31.4415
0.0000 1035.0000 -34.0000
24.0000 995.0000 0.0000
-28.0000 1112.0000 0.0000
-28.0000 1112.0000 0.0000
-28.0000 1112.0000 0.0000
2.7780 1028.8985 -33.3855
23.5620 999.2925 4.1855
-28.3140 1115.5095 2.9615
-27.4500 1114.0695 4.1855
-27.4500 1108.1835 -3.9895
5.8240 1022.4880 -31.6640
22.3360 1006.3600 9.0640
-27.0720 1116.8560 7.4320
-25.9200 1114.9360 9.0640
-25.9200 1102.4080 -8.3360
9.0060 1016.0595 -29.0185
20.4540 1015.5875 14.3685
-24.5980 1116.3665 12.9405
-23.5900 1114.6865 14.3685
-23.5900 1095.0845 -12.8565
12.1920 1009.9040 -25.6320
18.0480 1026.3600 19.8320
-21.2160 1114.3680 19.0160
-20.6400 1113.4080 19.8320
-20.6400 1086.6240 -17.3680
15.2500 1004.3125 -21.6875
15.2500 1038.0625 25.1875
-17.2500 1111.1875 25.1875
-17.2500 1111.1875 25.1875
-17.2500 1077.4375 -21.6875
18.0480 999.5760 -17.3680
12.1920 1050.0800 30.1680
-13.0240 1107.1520 30.9840
-13.6000 1108.1120 30.1680
-13.6000 1067.9360 -25.6320
20.4540 995.9855 -12.8565
9.0060 1061.7975 34.5065
-8.8620 1102.5885 35.9345
-9.8700 1104.2685 34.5065
-9.8700 1058.5305 -29.0185
22.3360 993.8320 -8.3360
5.8240 1072.6000 37.9360
-5.0880 1097.8240 39.5680
-6.2400 1099.7440 37.9360
-6.2400 1049.6320 -31.6640
23.5620 993.4065 -3.9895
2.7780 1081.8725 40.1895
-2.0260 1093.1855 41.4135
-2.8900 1094.6255 40.1895
-2.8900 1041.6515 -33.3855
0.0000 1035.0000 -34.0000
25.0000 995.0000 0.0000
-28.0000 1112.0000 0.0000
-28.0000 1112.0000 0.0000
-28.0000 1112.0000 0.0000
2.8465 1028.8985 -33.3900
24.5385 999.2925 4.2540
-28.3545 1115.5095 3.0300
-27.4545 1114.0695 4.2540
-27.4545 1108.1835 -4.0300
5.9920 1022.4880 -31.6800
23.2480 1006.3600 9.2320
-27.1360 1116.8560 7.6000
-25.9360 1114.9360 9.2320
-25.9360 1102.4080 -8.4000
9.2955 1016.0595 -29.0500
21.2695 1015.5875 14.6580
-24.6715 1116.3665 13.2300
-23.6215 1114.6865 14.6580
-23.6215 1095.0845 -12.9300
12.6160 1009.9040 -25.6800
18.7440 1026.3600 20.2560
-21.2880 1114.3680 19.4400
-20.6880 1113.4080 20.2560
-20.6880 1086.6240 -17.4400
15.8125 1004.3125 -21.7500
15.8125 1038.0625 25.7500
-17.3125 1111.1875 25.7500
-17.3125 1111.1875 25.7500
-17.3125 1077.4375 -21.7500
18.7440 999.5760 -17.4400
12.6160 1050.0800 30.8640
-13.0720 1107.1520 31.6800
-13.6720 1108.1120 30.8640
-13.6720 1067.9360 -25.6800
21.2695 995.9855 -12.9300
9.2955 1061.7975 35.3220
-8.8935 1102.5885 36.7500
-9.9435 1104.2685 35.3220
-9.9435 1058.5305 -29.0500
23.2480 993.8320 -8.4000
5.9920 1072.6000 38.8480
-5.1040 1097.8240 40.4800
-6.3040 1099.7440 38.8480
-6.3040 1049.6320 -31.6800
24.5385 993.4065 -4.0300
2.8465 1081.8725 41.1660
-2.0305 1093.1855 42.3900
-2.9305 1094.6255 41.1660
-2.9305 1041.6515 -33.3900
0.0000 1035.0000 -33.0000
25.0000 995.0000 0.0000
-27.0000 1112.0000 0.0000
-27.0000 1112.0000 0.0000
-27.0000 1112.0000 0.0000
2.8060 1028.8985 -32.4180
24.5340 999.2925 4.2820
-27.3780 1115.5095 3.0940
-26.4780 1114.0695 4.2820
-26.4780 1108.1835 -4.0020
5.9280 1022.4880 -30.7840
23.2320 1006.3600 9.3360
-26.2240 1116.8560 7.7520
-25.0240 1114.9360 9.3360
-25.0240 1102.4080 -8.2960
9.2220 1016.0595 -28.2660
21.2380 1015.5875 14.8740
-23.8560 1116.3665 13.4880
-22.8060 1114.6865 14.8740
-22.8060 1095.0845 -12.7140
12.5440 1009.9040 -25.0320
18.6960 1026.3600 20.6080
-20.5920 1114.3680 19.8160
-19.9920 1113.4080 20.6080
-19.9920 1086.6240 -17.0880
15.7500 1004.3125 -21.2500
15.7500 1038.0625 26.2500
-16.7500 1111.1875 26.2500
-16.7500 1111.1875 26.2500
-16.7500 1077.4375 -21.2500
18.6960 999.5760 -17.0880
12.5440 1050.0800 31.5120
-12.6480 1107.1520 32.3040
-13.2480 1108.1120 31.5120
-13.2480 1067.9360 -25.0320
21.2380 995.9855 -12.7140
9.2220 1061.7975 36.1060
-8.6040 1102.5885 37.4920
-9.6540 1104.2685 36.1060
-9.6540 1058.5305 -28.2660
23.2320 993.8320 -8.2960
5.9280 1072.6000 39.7440
-4.9360 1097.8240 41.3280
-6.1360 1099.7440 39.7440
-6.1360 1049.6320 -30.7840
24.5340 993.4065 -4.0020
2.8060 1081.8725 42.1380
-1.9620 1093.1855 43.3260
-2.8620 1094.6255 42.1380
-2.8620 1041.6515 -32.4180
0.0000 1035.0000 -32.0000
26.0000 995.0000 0.0000
-89.0000 1113.0000 0.0000
-89.0000 1113.0000 0.0000
-89.0000 1113.0000 0.0000
5.3855 1028.8535 -31.4325
25.7895 999.3565 4.1045
-87.9615 1116.5545 2.9525
-87.0255 1115.1145 4.1045
-87.0255 1109.1195 -3.8525
10.0640 1022.4080 -29.8400
25.1360 1006.5120 8.9360
-82.8320 1117.9360 7.4000
-81.5840 1116.0160 8.9360
-81.5840 1103.2560 -8.0000
14.0685 1015.9545 -27.3875
24.0065 1015.8455 14.2215
-74.4905 1117.4715 12.8775
-73.3985 1115.7915 14.2215
-73.3985 1095.8265 -12.2775
17.4320 1009.7840 -24.2400
22.3680 1026.7360 19.6880
-63.8160 1115.4880 18.9200
-63.1920 1114.5280 19.6880
-63.1920 1087.2480 -16.5200
20.1875 1004.1875 -20.5625
20.1875 1038.5625 25.0625
-51.6875 1112.3125 25.0625
-51.6875 1112.3125 25.0625
-51.6875 1077.9375 -20.5625
22.3680 999.4560 -16.5200
17.4320 1050.7040 30.0720
-38.9840 1108.2720 30.8400
-39.6080 1109.2320 30.0720
-39.6080 1068.3120 -24.2400
24.0065 995.8805 -12.2775
14.0685 1062.5395 34.4435
-26.5845 1103.6935 35.7875
-27.6765 1105.3735 34.4435
-27.6765 1058.7885 -27.3875
25.1360 993.7520 -8.0000
10.0640 1073.4480 37.9040
-15.3680 1098.9040 39.4400
-16.6160 1100.8240 37.9040
-16.6160 1049.7840 -29.8400
25.7895 993.3615 -3.8525
5.3855 1082.8085 40.1805
-6.2135 1094.2305 41.3325
-7.1495 1095.6705 40.1805
-7.1495 1041.7155 -31.4325
0.0000 1036.0000 -33.0000
23.0000 996.0000 0.0000
-89.0000 1113.0000 0.0000
-89.0000 1113.0000 0.0000
-89.0000 1113.0000 0.0000
5.1800 1029.8985 -32.4135
22.8600 1000.2925 4.2135
-87.8400 1116.5095 3.0255
-87.0120 1115.0695 4.2135
-87.0120 1109.1835 -3.9615
9.5600 1023.4880 -30.7680
22.4000 1007.3600 9.1680
-82.6400 1117.8560 7.5840
-81.5360 1115.9360 9.1680
-81.5360 1103.4080 -8.2320
13.2000 1017.0595 -28.2345
21.5600 1016.5875 14.5845
-74.2700 1117.3665 13.1985
-73.3040 1115.6865 14.5845
-73.3040 1096.0845 -12.6405
16.1600 1010.9040 -24.9840
20.2800 1027.3600 20.1840
-63.6000 1115.3680 19.3920
-63.0480 1114.4080 20.1840
-63.0480 1087.6240 -17.0160
18.5000 1005.3125 -21.1875
18.5000 1039.0625 25.6875
-51.5000 1112.1875 25.6875
-51.5000 1112.1875 25.6875
-51.5000 1078.4375 -21.1875
20.2800 1000.5760 -17.0160
16.1600 1051.0800 30.8160
-38.8400 1108.1520 31.6080
-39.3920 1109.1120 30.8160
-39.3920 1068.9360 -24.9840
21.5600 996.9855 -12.6405
13.2000 1062.7975 35.2905
-26.4900 1103.5885 36.6765
-27.4560 1105.2685 35.2905
-27.4560 1059.5305 -28.2345
22.4000 994.8320 -8.2320
9.5600 1073.6000 38.8320
-15.3200 1098.8240 40.4160
-16.4240 1100.7440 38.8320
-16.4240 1050.6320 -30.7680
22.8600 994.4065 -3.9615
5.1800 1082.8725 41.1615
-6.2000 1094.1855 42.3495
-7.0280 1095.6255 41.1615
-7.0280 1042.6515 -32.4135
0.0000 1036.0000 -32.0000
23.0000 996.0000 0.0000
-88.0000 1113.0000 0.0000
-88.0000 1113.0000 0.0000
-88.0000 1113.0000 0.0000
5.1395 1029.8985 -31.4415
22.8555 1000.2925 4.2415
-86.8635 1116.5095 3.0895
-86.0355 1115.0695 4.2415
-86.0355 1109.1835 -3.9335
9.4960 1023.4880 -29.8720
22.3840 1007.3600 9.2720
-81.7280 1117.8560 7.7360
-80.6240 1115.9360 9.2720
-80.6240 1103.4080 -8.1280
13.1265 1017.0595 -27.4505
21.5285 1016.5875 14.8005
-73.4545 1117.3665 13.4565
-72.4885 1115.6865 14.8005
-72.4885 1096.0845 -12.4245
16.0880 1010.9040 -24.3360
20.2320 1027.3600 20.5360
-62.9040 1115.3680 19.7680
-62.3520 1114.4080 20.5360
-62.3520 1087.6240 -16.6640
18.4375 1005.3125 -20.6875
18.4375 1039.0625 26.1875
-50.9375 1112.1875 26.1875
-50.9375 1112.1875 26.1875
-50.9375 1078.4375 -20.6875
20.2320 1000.5760 -16.6640
16.0880 1051.0800 31.4640
-38.4160 1108.1520 32.2320
-38.9680 1109.1120 31.4640
-38.9680 1068.9360 -24.3360
21.5285 996.9855 -12.4245
13.1265 1062.7975 36.0745
-26.2005 1103.5885 37.4185
-27.1665 1105.2685 36.0745
-27.1665 1059.5305 -27.4505
22.3840 994.8320 -8.1280
9.4960 1073.6000 39.7280
-15.1520 1098.8240 41.2640
-16.2560 1100.7440 39.7280
-16.2560 1050.6320 -29.8720
22.8555 994.4065 -3.9335
5.1395 1082.8725 42.1335
-6.1315 1094.1855 43.2855
-6.9595 1095.6255 42.1335
-6.9595 1042.6515 -31.4415
0.0000 1036.0000 -31.0000
24.0000 996.0000 0.0000
-88.0000 1113.0000 0.0000
-88.0000 1113.0000 0.0000
-88.0000 1113.0000 0.0000
5.2080 1029.8985 -30.4695
23.8320 1000.2925 4.2695
-86.9040 1116.5095 3.1535
-86.0400 1115.0695 4.2695
-86.0400 1109.1835 -3.9055
9.6640 1023.4880 -28.9760
23.2960 1007.3600 9.3760
-81.7920 1117.8560 7.8880
-80.6400 1115.9360 9.3760
-80.6400 1103.4080 -8.0240
13.4160 1017.0595 -26.6665
22.3440 1016.5875 15.0165
-73.5280 1117.3665 13.7145
-72.5200 1115.6865 15.0165
-72.5200 1096.0845 -12.2085
16.5120 1010.9040 -23.6880
20.9280 1027.3600 20.8880
-62.9760 1115.3680 20.1440
-62.4000 1114.4080 20.8880
-62.4000 1087.6240 -16.3120
19.0000 1005.3125 -20.1875
19.0000 1039.0625 26.6875
-51.0000 1112.1875 26.6875
-51.0000 1112.1875 26.6875
-51.0000 1078.4375 -20.1875
20.9280 1000.5760 -16.3120
16.5120 1051.0800 32.1120
-38.4640 1108.1520 32.8560
-39.0400 1109.1120 32.1120
-39.0400 1068.9360 -23.6880
22.3440 996.9855 -12.2085
13.4160 1062.7975 36.8585
-26.2320 1103.5885 38.1605
-27.2400 1105.2685 36.8585
-27.2400 1059.5305 -26.6665
23.2960 994.8320 -8.0240
9.6640 1073.6000 40.6240
-15.1680 1098.8240 42.1120
-16.3200 1100.7440 40.6240
-16.3200 1050.6320 -28.9760
23.8320 994.4065 -3.9055
5.2080 1082.8725 43.1055
-6.1360 1094.1855 44.2215
-7.0000 1095.6255 43.1055
-7.0000 1042.6515 -30.4695
0.0000 1037.0000 -33.0000
24.0000 996.0000 0.0000
-87.0000 1113.0000 0.0000
-87.0000 1113.0000 0.0000
-87.0000 1113.0000 0.0000
5.1675 1030.8705 -32.4090
23.8275 1000.3205 4.1450
-85.9275 1116.5735 2.9570
-85.0635 1115.0975 4.1450
-85.0635 1109.2115 -3.9210
9.6000 1024.3840 -30.7520
23.2800 1007.4640 9.0000
-80.8800 1118.0080 7.4160
-79.7280 1116.0400 9.0000
-79.7280 1103.5120 -8.1680
13.3425 1017.8435 -28.2030
22.3125 1016.8035 14.2950
-72.7125 1117.6245 12.9090
-71.7045 1115.9025 14.2950
-71.7045 1096.3005 -12.5670
16.4400 1011.5520 -24.9360
20.8800 1027.7120 19.7600
-62.2800 1115.7440 18.9680
-61.7040 1114.7600 19.7600
-61.7040 1087.9760 -16.9440
18.9375 1005.8125 -21.1250
18.9375 1039.5625 25.1250
-50.4375 1112.6875 25.1250
-50.4375 1112.6875 25.1250
-50.4375 1078.9375 -21.1250
20.8800 1000.9280 -16.9440
16.4400 1051.7280 30.1200
-38.0400 1108.7760 30.9120
-38.6160 1109.7600 30.1200
-38.6160 1069.5840 -24.9360
22.3125 997.2015 -12.5670
13.3425 1063.5815 34.4750
-25.9425 1104.3305 35.8610
-26.9505 1106.0525 34.4750
-26.9505 1060.3145 -28.2030
23.2800 994.9360 -8.1680
9.6000 1074.4960 37.9200
-15.0000 1099.6720 39.5040
-16.1520 1101.6400 37.9200
-16.1520 1051.5280 -30.7520
23.8275 994.4345 -3.9210
5.1675 1083.8445 40.1850
-6.0675 1095.1215 41.3730
-6.9315 1096.5975 40.1850
-6.9315 1043.6235 -32.4090
0.0000 1037.0000 -32.0000
25.0000 996.0000 0.0000
-87.0000 1113.0000 0.0000
-87.0000 1113.0000 0.0000
-87.0000 1113.0000 0.0000
5.2360 1030.8705 -31.4370
24.8040 1000.3205 4.1730
-85.9680 1116.5735 3.0210
-85.0680 1115.0975 4.1730
-85.0680 1109.2115 -3.8930
9.7680 1024.3840 -29.8560
24.1920 1007.4640 9.1040
-80.9440 1118.0080 7.5680
-79.7440 1116.0400 9.1040
-79.7440 1103.5120 -8.0640
13.6320 1017.8435 -27.4190
23.1280 1016.8035 14.5110
-72.7860 1117.6245 13.1670
-71.7360 1115.9025 14.5110
-71.7360 1096.3005 -12.3510
16.8640 1011.5520 -24.2880
21.5760 1027.7120 20.1120
-62.3520 1115.7440 19.3440
-61.7520 1114.7600 20.1120
-61.7520 1087.9760 -16.5920
19.5000 1005.8125 -20.6250
19.5000 1039.5625 25.6250
-50.5000 1112.6875 25.6250
-50.5000 1112.6875 25.6250
-50.5000 1078.9375 -20.6250
21.5760 1000.9280 -16.5920
16.8640 1051.7280 30.7680
-38.0880 1108.7760 31.5360
-38.6880 1109.7600 30.7680
-38.6880 1069.5840 -24.2880
23.1280 997.2015 -12.3510
13.6320 1063.5815 35.2590
-25.9740 1104.3305 36.6030
-27.0240 1106.0525 35.2590
-27.0240 1060.3145 -27.4190
24.1920 994.9360 -8.0640
9.7680 1074.4960 38.8160
-15.0160 1099.6720 40.3520
-16.2160 1101.6400 38.8160
-16.2160 1051.5280 -29.8560
24.8040 994.4345 -3.8930
5.2360 1083.8445 41.1570
-6.0720 1095.1215 42.3090
-6.9720 1096.5975 41.1570
-6.9720 1043.6235 -31.4370
0.0000 1037.0000 -32.0000
26.0000 996.0000 0.0000
-29.0000 1113.0000 0.0000
-29.0000 1113.0000 0.0000
-29.0000 1113.0000 0.0000
2.9555 1030.8705 -31.4415
25.5195 1000.3205 4.2415
-29.3715 1116.5735 3.0895
-28.4355 1115.0975 4.2415
-28.4355 1109.2115 -3.9335
6.2240 1024.3840 -29.8720
24.1760 1007.4640 9.2720
-28.1120 1118.0080 7.7360
-26.8640 1116.0400 9.2720
-26.8640 1103.5120 -8.1280
9.6585 1017.8435 -27.4505
22.1165 1016.8035 14.8005
-25.5605 1117.6245 13.4565
-24.4685 1115.9025 14.8005
-24.4685 1096.3005 -12.4245
13.1120 1011.5520 -24.3360
19.4880 1027.7120 20.5360
-22.0560 1115.7440 19.7680
-21.4320 1114.7600 20.5360
-21.4320 1087.9760 -16.6640
16.4375 1005.8125 -20.6875
16.4375 1039.5625 26.1875
-17.9375 1112.6875 26.1875
-17.9375 1112.6875 26.1875
-17.9375 1078.9375 -20.6875
19.4880 1000.9280 -16.6640
13.1120 1051.7280 31.4640
-13.5440 1108.7760 32.2320
-14.1680 1109.7600 31.4640
-14.1680 1069.5840 -24.3360
22.1165 997.2015 -12.4245
9.6585 1063.5815 36.0745
-9.2145 1104.3305 37.4185
-10.3065 1106.0525 36.0745
-10.3065 1060.3145 -27.4505
24.1760 994.9360 -8.1280
6.2240 1074.4960 39.7280
-5.2880 1099.6720 41.2640
-6.5360 1101.6400 39.7280
-6.5360 1051.5280 -29.8720
25.5195 994.4345 -3.9335
2.9555 1083.8445 42.1335
-2.1035 1095.1215 43.2855
-3.0395 1096.5975 42.1335
-3.0395 1043.6235 -31.4415
0.0000 1037.0000 -31.0000
26.0000 996.0000 0.0000
-28.0000 1113.0000 0.0000
-28.0000 1113.0000 0.0000
-28.0000 1113.0000 0.0000
2.9150 1030.8705 -30.4695
25.5150 1000.3205 4.2695
-28.3950 1116.5735 3.1535
-27.4590 1115.0975 4.2695
-27.4590 1109.2115 -3.9055
6.1600 1024.3840 -28.9760
24.1600 1007.4640 9.3760
-27.2000 1118.0080 7.8880
-25.9520 1116.0400 9.3760
-25.9520 1103.5120 -8.0240
9.5850 1017.8435 -26.6665
22.0850 1016.8035 15.0165
-24.7450 1117.6245 13.7145
-23.6530 1115.9025 15.0165
-23.6530 1096.3005 -12.2085
13.0400 1011.5520 -23.6880
19.4400 1027.7120 20.8880
-21.3600 1115.7440 20.1440
-20.7360 1114.7600 20.8880
-20.7360 1087.9760 -16.3120
16.3750 1005.8125 -20.1875
16.3750 1039.5625 26.6875
-17.3750 1112.6875 26.6875
-17.3750 1112.6875 26.6875
-17.3750 1078.9375 -20.1875
19.4400 1000.9280 -16.3120
13.0400 1051.7280 32.1120
-13.1200 1108.7760 32.8560
-13.7440 1109.7600 32.1120
-13.7440 1069.5840 -23.6880
22.0850 997.2015 -12.2085
9.5850 1063.5815 36.8585
-8.9250 1104.3305 38.1605
-10.0170 1106.0525 36.8585
-10.0170 1060.3145 -26.6665
24.1600 994.9360 -8.0240
6.1600 1074.4960 40.6240
-5.1200 1099.6720 42.1120
-6.3680 1101.6400 40.6240
-6.3680 1051.5280 -28.9760
25.5150 994.4345 -3.9055
2.9150 1083.8445 43.1055
-2.0350 1095.1215 44.2215
-2.9710 1096.5975 43.1055
-2.9710 1043.6235 -30.4695
0.0000 1038.0000 -33.0000
22.0000 997.0000 0.0000
-28.0000 1113.0000 0.0000
-28.0000 1113.0000 0.0000
-28.0000 1113.0000 0.0000
2.6410 1031.9110 -32.4135
21.6090 1001.3250 4.2135
-28.2330 1116.5970 3.0255
-27.4410 1115.1210 4.2135
-27.4410 1109.2350 -3.9615
5.4880 1025.4480 -30.7680
20.5120 1008.4800 9.1680
-26.9440 1118.0960 7.5840
-25.8880 1116.1280 9.1680
-25.8880 1103.6000 -8.2320
8.4270 1018.9170 -28.2345
18.8230 1017.8350 14.5845
-24.4510 1117.8090 13.1985
-23.5270 1116.0870 14.5845
-23.5270 1096.4850 -12.6405
11.3440 1012.6240 -24.9840
16.6560 1028.7600 20.1840
-21.0720 1116.0480 19.3920
-20.5440 1115.0640 20.1840
-20.5440 1088.2800 -17.0160
14.1250 1006.8750 -21.1875
14.1250 1040.6250 25.6875
-17.1250 1113.1250 25.6875
-17.1250 1113.1250 25.6875
-17.1250 1079.3750 -21.1875
16.6560 1001.9760 -17.0160
11.3440 1052.8000 30.8160
-12.9280 1109.3520 31.6080
-13.4560 1110.3360 30.8160
-13.4560 1070.1600 -24.9840
18.8230 998.2330 -12.6405
8.4270 1064.6550 35.2905
-8.7990 1105.0410 36.6765
-9.7230 1106.7630 35.2905
-9.7230 1061.0250 -28.2345
20.5120 995.9520 -8.2320
5.4880 1075.5600 38.8320
-5.0560 1100.5040 40.4160
-6.1120 1102.4720 38.8320
-6.1120 1052.3600 -30.7680
21.6090 995.4390 -3.9615
2.6410 1084.8850 41.1615
-2.0170 1096.0530 42.3495
-2.8090 1097.5290 41.1615
-2.8090 1044.5550 -32.4135
0.0000 1038.0000 -32.0000
23.0000 997.0000 0.0000
-27.0000 1113.0000 0.0000
-27.0000 1113.0000 0.0000
-27.0000 1113.0000 0.0000
2.6690 1031.9110 -31.4415
22.5810 1001.3250 4.2415
-27.2970 1116.5970 3.0895
-26.4690 1115.1210 4.2415
-26.4690 1109.2350 -3.9335
5.5920 1025.4480 -29.8720
21.4080 1008.4800 9.2720
-26.0960 1118.0960 7.7360
-24.9920 1116.1280 9.2720
-24.9920 1103.6000 -8.1280
8.6430 1018.9170 -27.4505
19.6070 1017.8350 14.8005
-23.7090 1117.8090 13.4565
-22.7430 1116.0870 14.8005
-22.7430 1096.4850 -12.4245
11.6960 1012.6240 -24.3360
17.3040 1028.7600 20.5360
-20.4480 1116.0480 19.7680
-19.8960 1115.0640 20.5360
-19.8960 1088.2800 -16.6640
14.6250 1006.8750 -20.6875
14.6250 1040.6250 26.1875
-16.6250 1113.1250 26.1875
-16.6250 1113.1250 26.1875
-16.6250 1079.3750 -20.6875
17.3040 1001.9760 -16.6640
11.6960 1052.8000 31.4640
-12.5520 1109.3520 32.2320
-13.1040 1110.3360 31.4640
-13.1040 1070.1600 -24.3360
19.6070 998.2330 -12.4245
8.6430 1064.6550 36.0745
-8.5410 1105.0410 37.4185
-9.5070 1106.7630 36.0745
-9.5070 1061.0250 -27.4505
21.4080 995.9520 -8.1280
5.5920 1075.5600 39.7280
-4.9040 1100.5040 41.2640
-6.0080 1102.4720 39.7280
-6.0080 1052.3600 -29.8720
22.5810 995.4390 -3.9335
2.6690 1084.8850 42.1335
-1.9530 1096.0530 43.2855
-2.7810 1097.5290 42.1335
-2.7810 1044.5550 -31.4415
0.0000 1038.0000 -31.0000
23.0000 997.0000 0.0000
-27.0000 1113.0000 0.0000
-27.0000 1113.0000 0.0000
-27.0000 1113.0000 0.0000
2.6690 1031.9110 -30.4695
22.5810 1001.3250 4.2695
-27.2970 1116.5970 3.1535
-26.4690 1115.1210 4.2695
-26.4690 1109.2350 -3.9055
5.5920 1025.4480 -28.9760
21.4080 1008.4800 9.3760
-26.0960 1118.0960 7.8880
-24.9920 1116.1280 9.3760
-24.9920 1103.6000 -8.0240
8.6430 1018.9170 -26.6665
19.6070 1017.8350 15.0165
-23.7090 1117.8090 13.7145
-22.7430 1116.0870 15.0165
-22.7430 1096.4850 -12.2085
11.6960 1012.6240 -23.6880
17.3040 1028.7600 20.8880
-20.4480 1116.0480 20.1440
-19.8960 1115.0640 20.8880
-19.8960 1088.2800 -16.3120
14.6250 1006.8750 -20.1875
14.6250 1040.6250 26.6875
-16.6250 1113.1250 26.6875
-16.6250 1113.1250 26.6875
-16.6250 1079.3750 -20.1875
17.3040 1001.9760 -16.3120
11.6960 1052.8000 32.1120
-12.5520 1109.3520 32.8560
-13.1040 1110.3360 32.1120
-13.1040 1070.1600 -23.6880
19.6070 998.2330 -12.2085
8.6430 1064.6550 36.8585
-8.5410 1105.0410 38.1605
-9.5070 1106.7630 36.8585
-9.5070 1061.0250 -26.6665
21.4080 995.9520 -8.0240
5.5920 1075.5600 40.6240
-4.9040 1100.5040 42.1120
-6.0080 1102.4720 40.6240
-6.0080 1052.3600 -28.9760
22.5810 995.4390 -3.9055
2.6690 1084.8850 43.1055
-1.9530 1096.0530 44.2215
-2.7810 1097.5290 43.1055
-2.7810 1044.5550 -30.4695
0.0000 1039.0000 -32.0000
24.0000 997.0000 0.0000
-89.0000 1114.0000 0.0000
-89.0000 1114.0000 0.0000
-89.0000 1114.0000 0.0000
5.2485 1032.8425 -31.4370
23.8365 1001.3485 4.1730
-87.8805 1117.6375 3.0210
-87.0165 1116.1255 4.1730
-87.0165 1110.2395 -3.8930
9.7280 1026.2800 -29.8560
23.3120 1008.5680 9.1040
-82.7040 1119.1600 7.5680
-81.5520 1117.1440 9.1040
-81.5520 1104.6160 -8.0640
13.4895 1019.6275 -27.4190
22.3755 1018.0195 14.5110
-74.3435 1118.8825 13.1670
-73.3355 1117.1185 14.5110
-73.3355 1097.5165 -12.3510
16.5840 1013.2000 -24.2880
20.9760 1029.0640 20.1120
-63.6720 1117.1200 19.3440
-63.0960 1116.1120 20.1120
-63.0960 1089.3280 -16.5920
19.0625 1007.3125 -20.6250
19.0625 1041.0625 25.6250
-51.5625 1114.1875 25.6250
-51.5625 1114.1875 25.6250
-51.5625 1080.4375 -20.6250
20.9760 1002.2800 -16.5920
16.5840 1053.3760 30.7680
-38.8880 1110.4000 31.5360
-39.4640 1111.4080 30.7680
-39.4640 1071.2320 -24.2880
22.3755 998.4175 -12.3510
13.4895 1065.3655 35.2590
-26.5215 1106.0725 36.6030
-27.5295 1107.8365 35.2590
-27.5295 1062.0985 -27.4190
23.3120 996.0400 -8.0640
9.7280 1076.3920 38.8160
-15.3360 1101.5200 40.3520
-16.4880 1103.5360 38.8160
-16.4880 1053.4240 -29.8560
23.8365 995.4625 -3.8930
5.2485 1085.8165 41.1570
-6.2045 1097.0575 42.3090
-7.0685 1098.5695 41.1570
-7.0685 1045.5955 -31.4370
0.0000 1039.0000 -31.0000
24.0000 997.0000 0.0000
-89.0000 1114.0000 0.0000
-89.0000 1114.0000 0.0000
-89.0000 1114.0000 0.0000
5.2485 1032.8425 -30.4650
23.8365 1001.3485 4.2010
-87.8805 1117.6375 3.0850
-87.0165 1116.1255 4.2010
-87.0165 1110.2395 -3.8650
9.7280 1026.2800 -28.9600
23.3120 1008.5680 9.2080
-82.7040 1119.1600 7.7200
-81.5520 1117.1440 9.2080
-81.5520 1104.6160 -7.9600
13.4895 1019.6275 -26.6350
22.3755 1018.0195 14.7270
-74.3435 1118.8825 13.4250
-73.3355 1117.1185 14.7270
-73.3355 1097.5165 -12.1350
16.5840 1013.2000 -23.6400
20.9760 1029.0640 20.4640
-63.6720 1117.1200 19.7200
-63.0960 1116.1120 20.4640
-63.0960 1089.3280 -16.2400
19.0625 1007.3125 -20.1250
19.0625 1041.0625 26.1250
-51.5625 1114.1875 26.1250
-51.5625 1114.1875 26.1250
-51.5625 1080.4375 -20.1250
20.9760 1002.2800 -16.2400
16.5840 1053.3760 31.4160
-38.8880 1110.4000 32.1600
-39.4640 1111.4080 31.4160
-39.4640 1071.2320 -23.6400
22.3755 998.4175 -12.1350
13.4895 1065.3655 36.0430
-26.5215 1106.0725 37.3450
-27.5295 1107.8365 36.0430
-27.5295 1062.0985 -26.6350
23.3120 996.0400 -7.9600
9.7280 1076.3920 39.7120
-15.3360 1101.5200 41.2000
-16.4880 1103.5360 39.7120
-16.4880 1053.4240 -28.9600
23.8365 995.4625 -3.8650
5.2485 1085.8165 42.1290
-6.2045 1097.0575 43.2450
-7.0685 1098.5695 42.1290
-7.0685 1045.5955 -30.4650
0.0000 1039.0000 -31.0000
25.0000 997.0000 0.0000
-88.0000 1114.0000 0.0000
-88.0000 1114.0000 0.0000
-88.0000 1114.0000 0.0000
5.2765 1032.8425 -30.4695
24.8085 1001.3485 4.2695
-86.9445 1117.6375 3.1535
-86.0445 1116.1255 4.2695
-86.0445 1110.2395 -3.9055
9.8320 1026.2800 -28.9760
24.2080 1008.5680 9.3760
-81.8560 1119.1600 7.8880
-80.6560 1117.1440 9.3760
-80.6560 1104.6160 -8.0240
13.7055 1019.6275 -26.6665
23.1595 1018.0195 15.0165
-73.6015 1118.8825 13.7145
-72.5515 1117.1185 15.0165
-72.5515 1097.5165 -12.2085
16.9360 1013.2000 -23.6880
21.6240 1029.0640 20.8880
-63.0480 1117.1200 20.1440
-62.4480 1116.1120 20.8880
-62.4480 1089.3280 -16.3120
19.5625 1007.3125 -20.1875
19.5625 1041.0625 26.6875
-51.0625 1114.1875 26.6875
-51.0625 1114.1875 26.6875
-51.0625 1080.4375 -20.1875
21.6240 1002.2800 -16.3120
16.9360 1053.3760 32.1120
-38.5120 1110.4000 32.8560
-39.1120 1111.4080 32.1120
-39.1120 1071.2320 -23.6880
23.1595 998.4175 -12.2085
13.7055 1065.3655 36.8585
-26.2635 1106.0725 38.1605
-27.3135 1107.8365 36.8585
-27.3135 1062.0985 -26.6665
24.2080 996.0400 -8.0240
9.8320 1076.3920 40.6240
-15.1840 1101.5200 42.1120
-16.3840 1103.5360 40.6240
-16.3840 1053.4240 -28.9760
24.8085 995.4625 -3.9055
5.2765 1085.8165 43.1055
-6.1405 1097.0575 44.2215
-7.0405 1098.5695 43.1055
-7.0405 1045.5955 -30.4695
0.0000 1039.0000 -30.0000
22.0000 998.0000 0.0000
-29.0000 1114.0000 0.0000
-29.0000 1114.0000 0.0000
-29.0000 1114.0000 0.0000
2.6815 1032.9065 -29.4840
21.6135 1002.3935 4.0920
-29.2095 1117.6655 3.0120
-28.4175 1116.1895 4.0920
-28.4175 1110.1945 -3.7560
5.5520 1026.4320 -28.0320
20.5280 1009.6480 8.9760
-27.8560 1119.2640 7.5360
-26.8000 1117.2960 8.9760
-26.8000 1104.5360 -7.7280
8.5005 1019.8855 -25.7880
18.8545 1019.1245 14.3640
-25.2665 1119.0985 13.1040
-24.3425 1117.3765 14.3640
-24.3425 1097.4115 -11.7720
11.4160 1013.5760 -22.8960
16.7040 1030.1840 19.9680
-21.7680 1117.4720 19.2480
-21.2400 1116.4880 19.9680
-21.2400 1089.2080 -15.7440
14.1875 1007.8125 -19.5000
14.1875 1042.1875 25.5000
-17.6875 1114.6875 25.5000
-17.6875 1114.6875 25.5000
-17.6875 1080.3125 -19.5000
16.7040 1002.9040 -15.7440
11.4160 1054.4960 30.6720
-13.3520 1111.0480 31.3920
-13.8800 1112.0320 30.6720
-13.8800 1071.1120 -22.8960
18.8545 999.1595 -11.7720
8.5005 1066.4705 35.1960
-9.0885 1106.8565 36.4560
-10.0125 1108.5785 35.1960
-10.0125 1061.9935 -25.7880
20.5280 996.8880 -7.7280
5.5520 1077.4720 38.7840
-5.2240 1102.4160 40.2240
-6.2800 1104.3840 38.7840
-6.2800 1053.3440 -28.0320
21.6135 996.3985 -3.7560
2.6815 1086.8615 41.1480
-2.0855 1098.0295 42.2280
-2.8775 1099.5055 41.1480
-2.8775 1045.5505 -29.4840
0.0000 1040.0000 -32.0000
22.0000 998.0000 0.0000
-29.0000 1114.0000 0.0000
-29.0000 1114.0000 0.0000
-29.0000 1114.0000 0.0000
2.6815 1033.8830 -31.4415
21.6135 1002.3530 4.2415
-29.2095 1117.6610 3.0895
-28.4175 1116.1490 4.2415
-28.4175 1110.2630 -3.9335
5.5520 1027.3440 -29.8720
20.5280 1009.5840 9.2720
-27.8560 1119.2480 7.7360
-26.8000 1117.2320 9.2720
-26.8000 1104.7040 -8.1280
8.5005 1020.7010 -27.4505
18.8545 1019.0510 14.8005
-25.2665 1119.0670 13.4565
-24.3425 1117.3030 14.8005
-24.3425 1097.7010 -12.4245
11.4160 1014.2720 -24.3360
16.7040 1030.1120 20.5360
-21.7680 1117.4240 19.7680
-21.2400 1116.4160 20.5360
-21.2400 1089.6320 -16.6640
14.1875 1008.3750 -20.6875
14.1875 1042.1250 26.1875
-17.6875 1114.6250 26.1875
-17.6875 1114.6250 26.1875
-17.6875 1080.8750 -20.6875
16.7040 1003.3280 -16.6640
11.4160 1054.4480 31.4640
-13.3520 1110.9760 32.2320
-13.8800 1111.9840 31.4640
-13.8800 1071.8080 -24.3360
18.8545 999.4490 -12.4245
8.5005 1066.4390 36.0745
-9.0885 1106.7830 37.4185
-10.0125 1108.5470 36.0745
-10.0125 1062.8090 -27.4505
20.5280 997.0560 -8.1280
5.5520 1077.4560 39.7280
-5.2240 1102.3520 41.2640
-6.2800 1104.3680 39.7280
-6.2800 1054.2560 -29.8720
21.6135 996.4670 -3.9335
2.6815 1086.8570 42.1335
-2.0855 1097.9890 43.2855
-2.8775 1099.5010 42.1335
-2.8775 1046.5270 -31.4415
0.0000 1040.0000 -31.0000
23.0000 998.0000 0.0000
-28.0000 1114.0000 0.0000
-28.0000 1114.0000 0.0000
-28.0000 1114.0000 0.0000
2.7095 1033.8830 -30.4695
22.5855 1002.3530 4.2695
-28.2735 1117.6610 3.1535
-27.4455 1116.1490 4.2695
-27.4455 1110.2630 -3.9055
5.6560 1027.3440 -28.9760
21.4240 1009.5840 9.3760
-27.0080 1119.2480 7.8880
-25.9040 1117.2320 9.3760
-25.9040 1104.7040 -8.0240
8.7165 1020.7010 -26.6665
19.6385 1019.0510 15.0165
-24.5245 1119.0670 13.7145
-23.5585 1117.3030 15.0165
-23.5585 1097.7010 -12.2085
11.7680 1014.2720 -23.6880
17.3520 1030.1120 20.8880
-21.1440 1117.4240 20.1440
-20.5920 1116.4160 20.8880
-20.5920 1089.6320 -16.3120
14.6875 1008.3750 -20.1875
14.6875 1042.1250 26.6875
-17.1875 1114.6250 26.6875
-17.1875 1114.6250 26.6875
-17.1875 1080.8750 -20.1875
17.3520 1003.3280 -16.3120
11.7680 1054.4480 32.1120
-12.9760 1110.9760 32.8560
-13.5280 1111.9840 32.1120
-13.5280 1071.8080 -23.6880
19.6385 999.4490 -12.2085
8.7165 1066.4390 36.8585
-8.8305 1106.7830 38.1605
-9.7965 1108.5470 36.8585
-9.7965 1062.8090 -26.6665
21.4240 997.0560 -8.0240
5.6560 1077.4560 40.6240
-5.0720 1102.3520 42.1120
-6.1760 1104.3680 40.6240
-6.1760 1054.2560 -28.9760
22.5855 996.4670 -3.9055
2.7095 1086.8570 43.1055
-2.0215 1097.9890 44.2215
-2.8495 1099.5010 43.1055
-2.8495 1046.5270 -30.4695
0.0000 1040.0000 -30.0000
24.0000 998.0000 0.0000
-28.0000 1114.0000 0.0000
-28.0000 1114.0000 0.0000
-28.0000 1114.0000 0.0000
2.7780 1033.8830 -29.4975
23.5620 1002.3530 4.2975
-28.3140 1117.6610 3.2175
-27.4500 1116.1490 4.2975
-27.4500 1110.2630 -3.8775
5.8240 1027.3440 -28.0800
22.3360 1009.5840 9.4800
-27.0720 1119.2480 8.0400
-25.9200 1117.2320 9.4800
-25.9200 1104.7040 -7.9200
9.0060 1020.7010 -25.8825
20.4540 1019.0510 15.2325
-24.5980 1119.0670 13.9725
-23.5900 1117.3030 15.2325
-23.5900 1097.7010 -11.9925
12.1920 1014.2720 -23.0400
18.0480 1030.1120 21.2400
-21.2160 1117.4240 20.5200
-20.6400 1116.4160 21.2400
-20.6400 1089.6320 -15.9600
15.2500 1008.3750 -19.6875
15.2500 1042.1250 27.1875
-17.2500 1114.6250 27.1875
-17.2500 1114.6250 27.1875
-17.2500 1080.8750 -19.6875
18.0480 1003.3280 -15.9600
12.1920 1054.4480 32.7600
-13.0240 1110.9760 33.4800
-13.6000 1111.9840 32.7600
-13.6000 1071.8080 -23.0400
20.4540 999.4490 -11.9925
9.0060 1066.4390 37.6425
-8.8620 1106.7830 38.9025
-9.8700 1108.5470 37.6425
-9.8700 1062.8090 -25.8825
22.3360 997.0560 -7.9200
5.8240 1077.4560 41.5200
-5.0880 1102.3520 42.9600
-6.2400 1104.3680 41.5200
-6.2400 1054.2560 -28.0800
23.5620 996.4670 -3.8775
2.7780 1086.8570 44.0775
-2.0260 1097.9890 45.1575
-2.8900 1099.5010 44.0775
-2.8900 1046.5270 -29.4975
0.0000 1041.0000 -31.0000
24.0000 998.0000 0.0000
-89.0000 1115.0000 0.0000
-89.0000 1115.0000 0.0000
-89.0000 1115.0000 0.0000
5.2485 1034.8145 -30.4605
23.8365 1002.3765 4.1325
-87.8805 1118.7015 3.0165
-87.0165 1117.1535 4.1325
-87.0165 1111.2675 -3.8245
9.7280 1028.1760 -28.9440
23.3120 1009.6720 9.0400
-82.7040 1120.3120 7.5520
-81.5520 1118.2480 9.0400
-81.5520 1105.7200 -7.8960
13.4895 1021.4115 -26.6035
22.3755 1019.2355 14.4375
-74.3435 1120.1405 13.1355
-73.3355 1118.3345 14.4375
-73.3355 1098.7325 -12.0615
16.5840 1014.8480 -23.5920
20.9760 1030.4160 20.0400
-63.6720 1118.4960 19.2960
-63.0960 1117.4640 20.0400
-63.0960 1090.6800 -16.1680
19.0625 1008.8125 -20.0625
19.0625 1042.5625 25.5625
-51.5625 1115.6875 25.5625
-51.5625 1115.6875 25.5625
-51.5625 1081.9375 -20.0625
20.9760 1003.6320 -16.1680
16.5840 1055.0240 30.7200
-38.8880 1112.0240 31.4640
-39.4640 1113.0560 30.7200
-39.4640 1072.8800 -23.5920
22.3755 999.6335 -12.0615
13.4895 1067.1495 35.2275
-26.5215 1107.8145 36.5295
-27.5295 1109.6205 35.2275
-27.5295 1063.8825 -26.6035
23.3120 997.1440 -7.8960
9.7280 1078.2880 38.8000
-15.3360 1103.3680 40.2880
-16.4880 1105.4320 38.8000
-16.4880 1055.3200 -28.9440
23.8365 996.4905 -3.8245
5.2485 1087.7885 41.1525
-6.2045 1098.9935 42.2685
-7.0685 1100.5415 41.1525
-7.0685 1047.5675 -30.4605
0.0000 1041.0000 -30.0000
25.0000 998.0000 0.0000
-89.0000 1115.0000 0.0000
-89.0000 1115.0000 0.0000
-89.0000 1115.0000 0.0000
5.3170 1034.8145 -29.4885
24.8130 1002.3765 4.1605
-87.9210 1118.7015 3.0805
-87.0210 1117.1535 4.1605
-87.0210 1111.2675 -3.7965
9.8960 1028.1760 -28.0480
24.2240 1009.6720 9.1440
-82.7680 1120.3120 7.7040
-81.5680 1118.2480 9.1440
-81.5680 1105.7200 -7.7920
13.7790 1021.4115 -25.8195
23.1910 1019.2355 14.6535
-74.4170 1120.1405 13.3935
-73.3670 1118.3345 14.6535
-73.3670 1098.7325 -11.8455
17.0080 1014.8480 -22.9440
21.6720 1030.4160 20.3920
-63.7440 1118.4960 19.6720
-63.1440 1117.4640 20.3920
-63.1440 1090.6800 -15.8160
19.6250 1008.8125 -19.5625
19.6250 1042.5625 26.0625
-51.6250 1115.6875 26.0625
-51.6250 1115.6875 26.0625
-51.6250 1081.9375 -19.5625
21.6720 1003.6320 -15.8160
17.0080 1055.0240 31.3680
-38.9360 1112.0240 32.0880
-39.5360 1113.0560 31.3680
-39.5360 1072.8800 -22.9440
23.1910 999.6335 -11.8455
13.7790 1067.1495 36.0115
-26.5530 1107.8145 37.2715
-27.6030 1109.6205 36.0115
-27.6030 1063.8825 -25.8195
24.2240 997.1440 -7.7920
9.8960 1078.2880 39.6960
-15.3520 1103.3680 41.1360
-16.5520 1105.4320 39.6960
-16.5520 1055.3200 -28.0480
24.8130 996.4905 -3.7965
5.3170 1087.7885 42.1245
-6.2090 1098.9935 43.2045
-7.1090 1100.5415 42.1245
-7.1090 1047.5675 -29.4885
0.0000 1041.0000 -29.0000
22.0000 999.0000 0.0000
-88.0000 1115.0000 0.0000
-88.0000 1115.0000 0.0000
-88.0000 1115.0000 0.0000
5.0710 1034.8830 -28.5165
21.8790 1003.3530 4.1885
-86.8230 1118.6610 3.1445
-86.0310 1117.1490 4.1885
-86.0310 1111.2630 -3.7685
9.3280 1028.3440 -27.1520
21.4720 1010.5840 9.2480
-81.6640 1120.2480 7.8560
-80.6080 1118.2320 9.2480
-80.6080 1105.7040 -7.6880
12.8370 1021.7010 -25.0355
20.7130 1020.0510 14.8695
-73.3810 1120.0670 13.6515
-72.4570 1118.3030 14.8695
-72.4570 1098.7010 -11.6295
15.6640 1015.2720 -22.2960
19.5360 1031.1120 20.7440
-62.8320 1118.4240 20.0480
-62.3040 1117.4160 20.7440
-62.3040 1090.6320 -15.4640
17.8750 1009.3750 -19.0625
17.8750 1043.1250 26.5625
-50.8750 1115.6250 26.5625
-50.8750 1115.6250 26.5625
-50.8750 1081.8750 -19.0625
19.5360 1004.3280 -15.4640
15.6640 1055.4480 32.0160
-38.3680 1111.9760 32.7120
-38.8960 1112.9840 32.0160
-38.8960 1072.8080 -22.2960
20.7130 1000.4490 -11.6295
12.8370 1067.4390 36.7955
-26.1690 1107.7830 38.0135
-27.0930 1109.5470 36.7955
-27.0930 1063.8090 -25.0355
21.4720 998.0560 -7.6880
9.3280 1078.4560 40.5920
-15.1360 1103.3520 41.9840
-16.1920 1105.3680 40.5920
-16.1920 1055.2560 -27.1520
21.8790 997.4670 -3.7685
5.0710 1087.8570 43.0965
-6.1270 1098.9890 44.1405
-6.9190 1100.5010 43.0965
-6.9190 1047.5270 -28.5165
0.0000 1041.0000 -29.0000
22.0000 999.0000 0.0000
-30.0000 1115.0000 0.0000
-30.0000 1115.0000 0.0000
-30.0000 1115.0000 0.0000
2.7220 1034.8830 -28.5210
21.6180 1003.3530 4.2570
-30.1860 1118.6610 3.2130
-29.3940 1117.1490 4.2570
-29.3940 1111.2630 -3.8090
