ply
format ascii 1.0
element vertex 1852
property float x
property float y
property float z
element face 0
property list uchar int vertex_index
end_header
-66.2160 381.5440 -51.4320
55.6250 391.5000 -65.0625
55.6250 399.0000 60.5625
-55.6250 391.5000 60.5625
-55.6250 391.5000 60.5625
-55.6250 384.0000 -65.0625
66.2160 390.4720 -51.4320
44.1440 401.4560 71.8560
-42.0080 395.3840 74.3760
-44.1440 395.5040 71.8560
-44.1440 386.5760 -77.6880
75.3830 389.5760 -37.4535
32.3070 403.5880 81.5955
-28.5690 399.0220 86.0055
-32.3070 399.2320 81.5955
-32.3070 389.0680 -88.6515
82.5920 388.9440 -23.7840
20.6480 405.1920 89.2320
-16.3760 402.1680 94.2720
-20.6480 402.4080 89.2320
-20.6480 391.2720 -97.2960
87.3090 388.7080 -11.0805
9.7010 406.0640 94.2165
-6.4970 404.5760 97.9965
-9.7010 404.7560 94.2165
-9.7010 392.9840 -102.9645
0.0000 394.0000 -104.0000
90.0000 389.0000 0.0000
-89.0000 377.0000 0.0000
-89.0000 377.0000 0.0000
-89.0000 377.0000 0.0000
9.7695 394.2920 -101.9925
88.2855 390.0160 10.8565
-90.5535 378.4240 7.1125
-87.3135 378.2440 10.8565
-87.3135 376.9360 -11.0525
20.8160 394.0560 -96.4000
83.5040 391.7280 22.9520
-86.9280 380.8320 17.9600
-82.6080 380.5920 22.9520
-82.6080 377.8080 -23.6800
32.5965 393.4240 -87.8675
76.1985 393.9320 35.7255
-79.1945 383.9780 31.3575
-75.4145 383.7680 35.7255
-75.4145 379.4120 -37.2375
44.5680 392.5280 -77.0400
66.9120 396.4240 48.6160
-68.4240 387.6160 46.1200
-66.2640 387.4960 48.6160
-66.2640 381.5440 -51.0800
56.1875 391.5000 -64.5625
56.1875 399.0000 61.0625
-55.6875 391.5000 61.0625
-55.6875 391.5000 61.0625
-55.6875 384.0000 -64.5625
66.9120 390.4720 -51.0800
44.5680 401.4560 72.5040
-42.0560 395.3840 75.0000
-44.2160 395.5040 72.5040
-44.2160 386.5760 -77.0400
76.1985 389.5760 -37.2375
32.5965 403.5880 82.3795
-28.6005 399.0220 86.7475
-32.3805 399.2320 82.3795
-32.3805 389.0680 -87.8675
83.5040 388.9440 -23.6800
20.8160 405.1920 90.1280
-16.3920 402.1680 95.1200
-20.7120 402.4080 90.1280
-20.7120 391.2720 -96.4000
88.2855 388.7080 -11.0525
9.7695 406.0640 95.1885
-6.5015 404.5760 98.9325
-9.7415 404.7560 95.1885
-9.7415 392.9840 -101.9925
0.0000 394.0000 -103.0000
89.0000 390.0000 0.0000
-91.0000 378.0000 0.0000
-91.0000 378.0000 0.0000
-91.0000 378.0000 0.0000
9.7820 394.3200 -101.0205
87.3180 390.9880 10.8845
-92.4660 379.3600 7.1765
-89.2620 379.2160 10.8845
-89.2620 377.9080 -11.0245
20.7760 394.1600 -95.5040
82.6240 392.6240 23.0560
-88.6880 381.6800 18.1120
-84.4160 381.4880 23.0560
-84.4160 378.7040 -23.5760
32.4540 393.6400 -87.0835
75.4460 394.7160 35.9415
-80.7520 384.7200 31.6155
-77.0140 384.5520 35.9415
-77.0140 380.1960 -37.0215
44.2880 392.8800 -76.3920
66.3120 397.0720 48.9680
-69.7440 388.2400 46.4960
-67.6080 388.1440 48.9680
-67.6080 382.1920 -50.7280
55.7500 392.0000 -64.0625
55.7500 399.5000 61.5625
-56.7500 392.0000 61.5625
-56.7500 392.0000 61.5625
-56.7500 384.5000 -64.0625
66.3120 391.1200 -50.7280
44.2880 401.8080 73.1520
-42.8560 395.7600 75.6240
-44.9920 395.8560 73.1520
-44.9920 386.9280 -76.3920
75.4460 390.3600 -37.0215
32.4540 403.8040 83.1635
-29.1480 399.2800 87.4895
-32.8860 399.4480 83.1635
-32.8860 389.2840 -87.0835
82.6240 389.8400 -23.5760
20.7760 405.2960 91.0240
-16.7120 402.3200 95.9680
-20.9840 402.5120 91.0240
-20.9840 391.3760 -95.5040
87.3180 389.6800 -11.0245
9.7820 406.0920 96.1605
-6.6340 404.6400 99.8685
-9.8380 404.7840 96.1605
-9.8380 393.0120 -101.0205
0.0000 395.0000 -105.0000
90.0000 390.0000 0.0000
-90.0000 378.0000 0.0000
-90.0000 378.0000 0.0000
-90.0000 378.0000 0.0000
9.8100 395.2920 -102.9645
88.2900 391.0160 10.8285
-91.5300 379.4240 7.0485
-88.2900 379.2440 10.8285
-88.2900 377.9360 -11.0805
20.8800 395.0560 -97.2960
83.5200 392.7280 22.8480
-87.8400 381.8320 17.8080
-83.5200 381.5920 22.8480
-83.5200 378.8080 -23.7840
32.6700 394.4240 -88.6515
76.2300 394.9320 35.5095
-80.0100 384.9780 31.0995
-76.2300 384.7680 35.5095
-76.2300 380.4120 -37.4535
44.6400 393.5280 -77.6880
66.9600 397.4240 48.2640
-69.1200 388.6160 45.7440
-66.9600 388.4960 48.2640
-66.9600 382.5440 -51.4320
56.2500 392.5000 -65.0625
56.2500 400.0000 60.5625
-56.2500 392.5000 60.5625
-56.2500 392.5000 60.5625
-56.2500 385.0000 -65.0625
66.9600 391.4720 -51.4320
44.6400 402.4560 71.8560
-42.4800 396.3840 74.3760
-44.6400 396.5040 71.8560
-44.6400 387.5760 -77.6880
76.2300 390.5760 -37.4535
32.6700 404.5880 81.5955
-28.8900 400.0220 86.0055
-32.6700 400.2320 81.5955
-32.6700 390.0680 -88.6515
83.5200 389.9440 -23.7840
20.8800 406.1920 89.2320
-16.5600 403.1680 94.2720
-20.8800 403.4080 89.2320
-20.8800 392.2720 -97.2960
88.2900 389.7080 -11.0805
9.8100 407.0640 94.2165
-6.5700 405.5760 97.9965
-9.8100 405.7560 94.2165
-9.8100 393.9840 -102.9645
0.0000 395.0000 -104.0000
90.0000 390.0000 0.0000
-89.0000 378.0000 0.0000
-89.0000 378.0000 0.0000
-89.0000 378.0000 0.0000
9.7695 395.2920 -101.9925
88.2855 391.0160 10.8565
-90.5535 379.4240 7.1125
-87.3135 379.2440 10.8565
-87.3135 377.9360 -11.0525
20.8160 395.0560 -96.4000
83.5040 392.7280 22.9520
-86.9280 381.8320 17.9600
-82.6080 381.5920 22.9520
-82.6080 378.8080 -23.6800
32.5965 394.4240 -87.8675
76.1985 394.9320 35.7255
-79.1945 384.9780 31.3575
-75.4145 384.7680 35.7255
-75.4145 380.4120 -37.2375
44.5680 393.5280 -77.0400
66.9120 397.4240 48.6160
-68.4240 388.6160 46.1200
-66.2640 388.4960 48.6160
-66.2640 382.5440 -51.0800
56.1875 392.5000 -64.5625
56.1875 400.0000 61.0625
-55.6875 392.5000 61.0625
-55.6875 392.5000 61.0625
-55.6875 385.0000 -64.5625
66.9120 391.4720 -51.0800
44.5680 402.4560 72.5040
-42.0560 396.3840 75.0000
-44.2160 396.5040 72.5040
-44.2160 387.5760 -77.0400
76.1985 390.5760 -37.2375
32.5965 404.5880 82.3795
-28.6005 400.0220 86.7475
-32.3805 400.2320 82.3795
-32.3805 390.0680 -87.8675
83.5040 389.9440 -23.6800
20.8160 406.1920 90.1280
-16.3920 403.1680 95.1200
-20.7120 403.4080 90.1280
-20.7120 392.2720 -96.4000
88.2855 389.7080 -11.0525
9.7695 407.0640 95.1885
-6.5015 405.5760 98.9325
-9.7415 405.7560 95.1885
-9.7415 393.9840 -101.9925
0.0000 395.0000 -103.0000
89.0000 391.0000 0.0000
-89.0000 378.0000 0.0000
-89.0000 378.0000 0.0000
-89.0000 378.0000 0.0000
9.7010 395.3605 -101.0205
87.3090 391.9925 10.8845
-90.5130 379.3835 7.1765
-87.3090 379.2395 10.8845
-87.3090 377.9315 -11.0245
20.6480 395.2240 -95.5040
82.5920 393.6400 23.0560
-86.8640 381.7680 18.1120
-82.5920 381.5760 23.0560
-82.5920 378.7920 -23.5760
32.3070 394.7135 -87.0835
75.3830 395.7475 35.9415
-79.1210 384.9045 31.6155
-75.3830 384.7365 35.9415
-75.3830 380.3805 -37.0215
44.1440 393.9520 -76.3920
66.2160 398.1200 48.9680
-68.3520 388.5440 46.4960
-66.2160 388.4480 48.9680
-66.2160 382.4960 -50.7280
55.6250 393.0625 -64.0625
55.6250 400.5625 61.5625
-55.6250 392.4375 61.5625
-55.6250 392.4375 61.5625
-55.6250 384.9375 -64.0625
66.2160 392.1680 -50.7280
44.1440 402.8800 73.1520
-42.0080 396.3360 75.6240
-44.1440 396.4320 73.1520
-44.1440 387.5040 -76.3920
75.3830 391.3915 -37.0215
32.3070 404.8775 83.1635
-28.5690 399.9905 87.4895
-32.3070 400.1585 83.1635
-32.3070 389.9945 -87.0835
82.5920 390.8560 -23.5760
20.6480 406.3600 91.0240
-16.3760 403.1520 95.9680
-20.6480 403.3440 91.0240
-20.6480 392.2080 -95.5040
87.3090 390.6845 -11.0245
9.7010 407.1325 96.1605
-6.4970 405.5715 99.8685
-9.7010 405.7155 96.1605
-9.7010 393.9435 -101.0205
0.0000 396.0000 -105.0000
90.0000 391.0000 0.0000
-91.0000 379.0000 0.0000
-91.0000 379.0000 0.0000
-91.0000 379.0000 0.0000
9.8505 396.2920 -102.9645
88.2945 392.0160 10.8285
-92.5065 380.4240 7.0485
-89.2665 380.2440 10.8285
-89.2665 378.9360 -11.0805
20.9440 396.0560 -97.2960
83.5360 393.7280 22.8480
-88.7520 382.8320 17.8080
-84.4320 382.5920 22.8480
-84.4320 379.8080 -23.7840
32.7435 395.4240 -88.6515
76.2615 395.9320 35.5095
-80.8255 385.9780 31.0995
-77.0455 385.7680 35.5095
-77.0455 381.4120 -37.4535
44.7120 394.5280 -77.6880
67.0080 398.4240 48.2640
-69.8160 389.6160 45.7440
-67.6560 389.4960 48.2640
-67.6560 383.5440 -51.4320
56.3125 393.5000 -65.0625
56.3125 401.0000 60.5625
-56.8125 393.5000 60.5625
-56.8125 393.5000 60.5625
-56.8125 386.0000 -65.0625
67.0080 392.4720 -51.4320
44.7120 403.4560 71.8560
-42.9040 397.3840 74.3760
-45.0640 397.5040 71.8560
-45.0640 388.5760 -77.6880
76.2615 391.5760 -37.4535
32.7435 405.5880 81.5955
-29.1795 401.0220 86.0055
-32.9595 401.2320 81.5955
-32.9595 391.0680 -88.6515
83.5360 390.9440 -23.7840
20.9440 407.1920 89.2320
-16.7280 404.1680 94.2720
-21.0480 404.4080 89.2320
-21.0480 393.2720 -97.2960
88.2945 390.7080 -11.0805
9.8505 408.0640 94.2165
-6.6385 406.5760 97.9965
-9.8785 406.7560 94.2165
-9.8785 394.9840 -102.9645
0.0000 396.0000 -104.0000
89.0000 392.0000 0.0000
-90.0000 379.0000 0.0000
-90.0000 379.0000 0.0000
-90.0000 379.0000 0.0000
9.7415 396.3605 -101.9925
87.3135 392.9925 10.8565
-91.4895 380.3835 7.1125
-88.2855 380.2395 10.8565
-88.2855 378.9315 -11.0525
20.7120 396.2240 -96.4000
82.6080 394.6400 22.9520
-87.7760 382.7680 17.9600
-83.5040 382.5760 22.9520
-83.5040 379.7920 -23.6800
32.3805 395.7135 -87.8675
75.4145 396.7475 35.7255
-79.9365 385.9045 31.3575
-76.1985 385.7365 35.7255
-76.1985 381.3805 -37.2375
44.2160 394.9520 -77.0400
66.2640 399.1200 48.6160
-69.0480 389.5440 46.1200
-66.9120 389.4480 48.6160
-66.9120 383.4960 -51.0800
55.6875 394.0625 -64.5625
55.6875 401.5625 61.0625
-56.1875 393.4375 61.0625
-56.1875 393.4375 61.0625
-56.1875 385.9375 -64.5625
66.2640 393.1680 -51.0800
44.2160 403.8800 72.5040
-42.4320 397.3360 75.0000
-44.5680 397.4320 72.5040
-44.5680 388.5040 -77.0400
75.4145 392.3915 -37.2375
32.3805 405.8775 82.3795
-28.8585 400.9905 86.7475
-32.5965 401.1585 82.3795
-32.5965 390.9945 -87.8675
82.6080 391.8560 -23.6800
20.7120 407.3600 90.1280
-16.5440 404.1520 95.1200
-20.8160 404.3440 90.1280
-20.8160 393.2080 -96.4000
87.3135 391.6845 -11.0525
9.7415 408.1325 95.1885
-6.5655 406.5715 98.9325
-9.7695 406.7155 95.1885
-9.7695 394.9435 -101.9925
0.0000 396.0000 -103.0000
90.0000 392.0000 0.0000
-89.0000 379.0000 0.0000
-89.0000 379.0000 0.0000
-89.0000 379.0000 0.0000
9.7695 396.3605 -101.0205
88.2855 392.9925 10.8845
-90.5535 380.3835 7.1765
-87.3135 380.2395 10.8845
-87.3135 378.9315 -11.0245
20.8160 396.2240 -95.5040
83.5040 394.6400 23.0560
-86.9280 382.7680 18.1120
-82.6080 382.5760 23.0560
-82.6080 379.7920 -23.5760
32.5965 395.7135 -87.0835
76.1985 396.7475 35.9415
-79.1945 385.9045 31.6155
-75.4145 385.7365 35.9415
-75.4145 381.3805 -37.0215
44.5680 394.9520 -76.3920
66.9120 399.1200 48.9680
-68.4240 389.5440 46.4960
-66.2640 389.4480 48.9680
-66.2640 383.4960 -50.7280
56.1875 394.0625 -64.0625
56.1875 401.5625 61.5625
-55.6875 393.4375 61.5625
-55.6875 393.4375 61.5625
-55.6875 385.9375 -64.0625
66.9120 393.1680 -50.7280
44.5680 403.8800 73.1520
-42.0560 397.3360 75.6240
-44.2160 397.4320 73.1520
-44.2160 388.5040 -76.3920
76.1985 392.3915 -37.0215
32.5965 405.8775 83.1635
-28.6005 400.9905 87.4895
-32.3805 401.1585 83.1635
-32.3805 390.9945 -87.0835
83.5040 391.8560 -23.5760
20.8160 407.3600 91.0240
-16.3920 404.1520 95.9680
-20.7120 404.3440 91.0240
-20.7120 393.2080 -95.5040
88.2855 391.6845 -11.0245
9.7695 408.1325 96.1605
-6.5015 406.5715 99.8685
-9.7415 406.7155 96.1605
-9.7415 394.9435 -101.0205
0.0000 397.0000 -105.0000
90.0000 392.0000 0.0000
-89.0000 379.0000 0.0000
-89.0000 379.0000 0.0000
-89.0000 379.0000 0.0000
9.7695 397.3325 -102.9690
88.2855 393.0205 10.8970
-90.5535 380.4475 7.1170
-87.3135 380.2675 10.8970
-87.3135 378.9595 -11.1210
20.8160 397.1200 -97.3120
83.5040 394.7440 23.0160
-86.9280 382.9200 17.9760
-82.6080 382.6800 23.0160
-82.6080 379.8960 -23.8480
32.5965 396.4975 -88.6830
76.1985 396.9635 35.7990
-79.1945 386.1625 31.3890
-75.4145 385.9525 35.7990
-75.4145 381.5965 -37.5270
44.5680 395.6000 -77.7360
66.9120 399.4720 48.6880
-68.4240 389.9200 46.1680
-66.2640 389.8000 48.6880
-66.2640 383.8480 -51.5040
56.1875 394.5625 -65.1250
56.1875 402.0625 61.1250
-55.6875 393.9375 61.1250
-55.6875 393.9375 61.1250
-55.6875 386.4375 -65.1250
66.9120 393.5200 -51.5040
44.5680 404.5280 72.5520
-42.0560 397.9600 75.0720
-44.2160 398.0800 72.5520
-44.2160 389.1520 -77.7360
76.1985 392.6075 -37.5270
32.5965 406.6615 82.4110
-28.6005 401.7325 86.8210
-32.3805 401.9425 82.4110
-32.3805 391.7785 -88.6830
83.5040 391.9600 -23.8480
20.8160 408.2560 90.1440
-16.3920 405.0000 95.1840
-20.7120 405.2400 90.1440
-20.7120 394.1040 -97.3120
88.2855 391.7125 -11.1210
9.7695 409.1045 95.1930
-6.5015 407.5075 98.9730
-9.7415 407.6875 95.1930
-9.7415 395.9155 -102.9690
0.0000 397.0000 -104.0000
89.0000 393.0000 0.0000
-90.0000 380.0000 0.0000
-90.0000 380.0000 0.0000
-90.0000 380.0000 0.0000
9.7415 397.3605 -101.9970
87.3135 393.9925 10.9250
-91.4895 381.3835 7.1810
-88.2855 381.2395 10.9250
-88.2855 379.9315 -11.0930
20.7120 397.2240 -96.4160
82.6080 395.6400 23.1200
-87.7760 383.7680 18.1280
-83.5040 383.5760 23.1200
-83.5040 380.7920 -23.7440
32.3805 396.7135 -87.8990
75.4145 397.7475 36.0150
-79.9365 386.9045 31.6470
-76.1985 386.7365 36.0150
-76.1985 382.3805 -37.3110
44.2160 395.9520 -77.0880
66.2640 400.1200 49.0400
-69.0480 390.5440 46.5440
-66.9120 390.4480 49.0400
-66.9120 384.4960 -51.1520
55.6875 395.0625 -64.6250
55.6875 402.5625 61.6250
-56.1875 394.4375 61.6250
-56.1875 394.4375 61.6250
-56.1875 386.9375 -64.6250
66.2640 394.1680 -51.1520
44.2160 404.8800 73.2000
-42.4320 398.3360 75.6960
-44.5680 398.4320 73.2000
-44.5680 389.5040 -77.0880
75.4145 393.3915 -37.3110
32.3805 406.8775 83.1950
-28.8585 401.9905 87.5630
-32.5965 402.1585 83.1950
-32.5965 391.9945 -87.8990
82.6080 392.8560 -23.7440
20.7120 408.3600 91.0400
-16.5440 405.1520 96.0320
-20.8160 405.3440 91.0400
-20.8160 394.2080 -96.4160
87.3135 392.6845 -11.0930
9.7415 409.1325 96.1650
-6.5655 407.5715 99.9090
-9.7695 407.7155 96.1650
-9.7695 395.9435 -101.9970
0.0000 397.0000 -103.0000
90.0000 393.0000 0.0000
-89.0000 380.0000 0.0000
-89.0000 380.0000 0.0000
-89.0000 380.0000 0.0000
9.7695 397.3560 -101.0160
88.2855 394.0610 10.8160
-90.5535 381.4520 7.1080
-87.3135 381.3080 10.8160
-87.3135 379.8910 -10.9840
20.8160 397.2080 -95.4880
83.5040 395.8080 22.8880
-86.9280 383.9360 17.9440
-82.6080 383.7440 22.8880
-82.6080 380.7280 -23.5120
32.5965 396.6820 -87.0520
76.1985 398.0370 35.6520
-79.1945 387.1940 31.3260
-75.4145 387.0260 35.6520
-75.4145 382.3070 -36.9480
44.5680 395.9040 -76.3440
66.9120 400.5440 48.5440
-68.4240 390.9680 46.0720
-66.2640 390.8720 48.5440
-66.2640 384.4240 -50.6560
56.1875 395.0000 -64.0000
56.1875 403.1250 61.0000
-55.6875 395.0000 61.0000
-55.6875 395.0000 61.0000
-55.6875 386.8750 -64.0000
66.9120 394.0960 -50.6560
44.5680 405.5760 72.4560
-42.0560 399.0320 74.9280
-44.2160 399.1280 72.4560
-44.2160 389.4560 -76.3440
76.1985 393.3180 -36.9480
32.5965 407.6930 82.3480
-28.6005 402.8060 86.6740
-32.3805 402.9740 82.3480
-32.3805 391.9630 -87.0520
83.5040 392.7920 -23.5120
20.8160 409.2720 90.1120
-16.3920 406.0640 95.0560
-20.7120 406.2560 90.1120
-20.7120 394.1920 -95.4880
88.2855 392.6440 -10.9840
9.7695 410.1090 95.1840
-6.5015 408.5480 98.8920
-9.7415 408.6920 95.1840
-9.7415 395.9390 -101.0160
0.0000 398.0000 -105.0000
89.0000 394.0000 0.0000
-91.0000 381.0000 0.0000
-91.0000 381.0000 0.0000
-91.0000 381.0000 0.0000
9.7820 398.3605 -102.9735
87.3180 394.9925 10.9655
-92.4660 382.3835 7.1855
-89.2620 382.2395 10.9655
-89.2620 380.9315 -11.1615
20.7760 398.2240 -97.3280
82.6240 396.6400 23.1840
-88.6880 384.7680 18.1440
-84.4160 384.5760 23.1840
-84.4160 381.7920 -23.9120
32.4540 397.7135 -88.7145
75.4460 398.7475 36.0885
-80.7520 387.9045 31.6785
-77.0140 387.7365 36.0885
-77.0140 383.3805 -37.6005
44.2880 396.9520 -77.7840
66.3120 401.1200 49.1120
-69.7440 391.5440 46.5920
-67.6080 391.4480 49.1120
-67.6080 385.4960 -51.5760
55.7500 396.0625 -65.1875
55.7500 403.5625 61.6875
-56.7500 395.4375 61.6875
-56.7500 395.4375 61.6875
-56.7500 387.9375 -65.1875
66.3120 395.1680 -51.5760
44.2880 405.8800 73.2480
-42.8560 399.3360 75.7680
-44.9920 399.4320 73.2480
-44.9920 390.5040 -77.7840
75.4460 394.3915 -37.6005
32.4540 407.8775 83.2265
-29.1480 402.9905 87.6365
-32.8860 403.1585 83.2265
-32.8860 392.9945 -88.7145
82.6240 393.8560 -23.9120
20.7760 409.3600 91.0560
-16.7120 406.1520 96.0960
-20.9840 406.3440 91.0560
-20.9840 395.2080 -97.3280
87.3180 393.6845 -11.1615
9.7820 410.1325 96.1695
-6.6340 408.5715 99.9495
-9.8380 408.7155 96.1695
-9.8380 396.9435 -102.9735
0.0000 398.0000 -104.0000
89.0000 394.0000 0.0000
-91.0000 381.0000 0.0000
-91.0000 381.0000 0.0000
-91.0000 381.0000 0.0000
9.7820 398.3605 -102.0015
87.3180 394.9925 10.9935
-92.4660 382.3835 7.2495
-89.2620 382.2395 10.9935
-89.2620 380.9315 -11.1335
20.7760 398.2240 -96.4320
82.6240 396.6400 23.2880
-88.6880 384.7680 18.2960
-84.4160 384.5760 23.2880
-84.4160 381.7920 -23.8080
32.4540 397.7135 -87.9305
75.4460 398.7475 36.3045
-80.7520 387.9045 31.9365
-77.0140 387.7365 36.3045
-77.0140 383.3805 -37.3845
44.2880 396.9520 -77.1360
66.3120 401.1200 49.4640
-69.7440 391.5440 46.9680
-67.6080 391.4480 49.4640
-67.6080 385.4960 -51.2240
55.7500 396.0625 -64.6875
55.7500 403.5625 62.1875
-56.7500 395.4375 62.1875
-56.7500 395.4375 62.1875
-56.7500 387.9375 -64.6875
66.3120 395.1680 -51.2240
44.2880 405.8800 73.8960
-42.8560 399.3360 76.3920
-44.9920 399.4320 73.8960
-44.9920 390.5040 -77.1360
75.4460 394.3915 -37.3845
32.4540 407.8775 84.0105
-29.1480 402.9905 88.3785
-32.8860 403.1585 84.0105
-32.8860 392.9945 -87.9305
82.6240 393.8560 -23.8080
20.7760 409.3600 91.9520
-16.7120 406.1520 96.9440
-20.9840 406.3440 91.9520
-20.9840 395.2080 -96.4320
87.3180 393.6845 -11.1335
9.7820 410.1325 97.1415
-6.6340 408.5715 100.8855
-9.8380 408.7155 97.1415
-9.8380 396.9435 -102.0015
0.0000 398.0000 -103.0000
90.0000 394.0000 0.0000
-90.0000 381.0000 0.0000
-90.0000 381.0000 0.0000
-90.0000 381.0000 0.0000
9.8100 398.3560 -101.0205
88.2900 395.0610 10.8845
-91.5300 382.4520 7.1765
-88.2900 382.3080 10.8845
-88.2900 380.8910 -11.0245
20.8800 398.2080 -95.5040
83.5200 396.8080 23.0560
-87.8400 384.9360 18.1120
-83.5200 384.7440 23.0560
-83.5200 381.7280 -23.5760
32.6700 397.6820 -87.0835
76.2300 399.0370 35.9415
-80.0100 388.1940 31.6155
-76.2300 388.0260 35.9415
-76.2300 383.3070 -37.0215
44.6400 396.9040 -76.3920
66.9600 401.5440 48.9680
-69.1200 391.9680 46.4960
-66.9600 391.8720 48.9680
-66.9600 385.4240 -50.7280
56.2500 396.0000 -64.0625
56.2500 404.1250 61.5625
-56.2500 396.0000 61.5625
-56.2500 396.0000 61.5625
-56.2500 387.8750 -64.0625
66.9600 395.0960 -50.7280
44.6400 406.5760 73.1520
-42.4800 400.0320 75.6240
-44.6400 400.1280 73.1520
-44.6400 390.4560 -76.3920
76.2300 394.3180 -37.0215
32.6700 408.6930 83.1635
-28.8900 403.8060 87.4895
-32.6700 403.9740 83.1635
-32.6700 392.9630 -87.0835
83.5200 393.7920 -23.5760
20.8800 410.2720 91.0240
-16.5600 407.0640 95.9680
-20.8800 407.2560 91.0240
-20.8800 395.1920 -95.5040
88.2900 393.6440 -11.0245
9.8100 411.1090 96.1605
-6.5700 409.5480 99.8685
-9.8100 409.6920 96.1605
-9.8100 396.9390 -101.0205
0.0000 399.0000 -104.0000
88.0000 395.0000 0.0000
-89.0000 381.0000 0.0000
-89.0000 381.0000 0.0000
-89.0000 381.0000 0.0000
9.6325 399.4010 -102.0015
86.3325 395.9970 10.9935
-90.4725 382.4070 7.2495
-87.3045 382.2630 10.9935
-87.3045 380.9550 -11.1335
20.4800 399.2880 -96.4320
81.6800 397.6560 23.2880
-86.8000 384.8560 18.2960
-82.5760 384.6640 23.2880
-82.5760 381.8800 -23.8080
32.0175 398.7870 -87.9305
74.5675 399.7790 36.3045
-79.0475 388.0890 31.9365
-75.3515 387.9210 36.3045
-75.3515 383.5650 -37.3845
43.7200 398.0240 -77.1360
65.5200 402.1680 49.4640
-68.2800 391.8480 46.9680
-66.1680 391.7520 49.4640
-66.1680 385.8000 -51.2240
55.0625 397.1250 -64.6875
55.0625 404.6250 62.1875
-55.5625 395.8750 62.1875
-55.5625 395.8750 62.1875
-55.5625 388.3750 -64.6875
65.5200 396.2160 -51.2240
43.7200 406.9520 73.8960
-41.9600 399.9120 76.3920
-44.0720 400.0080 73.8960
-44.0720 391.0800 -77.1360
74.5675 395.4230 -37.3845
32.0175 408.9510 84.0105
-28.5375 403.7010 88.3785
-32.2335 403.8690 84.0105
-32.2335 393.7050 -87.9305
81.6800 394.8720 -23.8080
20.4800 410.4240 91.9520
-16.3600 406.9840 96.9440
-20.5840 407.1760 91.9520
-20.5840 396.0400 -96.4320
86.3325 394.6890 -11.1335
9.6325 411.1730 97.1415
-6.4925 409.5030 100.8855
-9.6605 409.6470 97.1415
-9.6605 397.8750 -102.0015
0.0000 399.0000 -103.0000
89.0000 395.0000 0.0000
-91.0000 382.0000 0.0000
-91.0000 382.0000 0.0000
-91.0000 382.0000 0.0000
9.7820 399.3560 -101.0205
87.3180 396.0610 10.8845
-92.4660 383.4520 7.1765
-89.2620 383.3080 10.8845
-89.2620 381.8910 -11.0245
20.7760 399.2080 -95.5040
82.6240 397.8080 23.0560
-88.6880 385.9360 18.1120
-84.4160 385.7440 23.0560
-84.4160 382.7280 -23.5760
32.4540 398.6820 -87.0835
75.4460 400.0370 35.9415
-80.7520 389.1940 31.6155
-77.0140 389.0260 35.9415
-77.0140 384.3070 -37.0215
44.2880 397.9040 -76.3920
66.3120 402.5440 48.9680
-69.7440 392.9680 46.4960
-67.6080 392.8720 48.9680
-67.6080 386.4240 -50.7280
55.7500 397.0000 -64.0625
55.7500 405.1250 61.5625
-56.7500 397.0000 61.5625
-56.7500 397.0000 61.5625
-56.7500 388.8750 -64.0625
66.3120 396.0960 -50.7280
44.2880 407.5760 73.1520
-42.8560 401.0320 75.6240
-44.9920 401.1280 73.1520
-44.9920 391.4560 -76.3920
75.4460 395.3180 -37.0215
32.4540 409.6930 83.1635
-29.1480 404.8060 87.4895
-32.8860 404.9740 83.1635
-32.8860 393.9630 -87.0835
82.6240 394.7920 -23.5760
20.7760 411.2720 91.0240
-16.7120 408.0640 95.9680
-20.9840 408.2560 91.0240
-20.9840 396.1920 -95.5040
87.3180 394.6440 -11.0245
9.7820 412.1090 96.1605
-6.6340 410.5480 99.8685
-9.8380 410.6920 96.1605
-9.8380 397.9390 -101.0205
0.0000 399.0000 -102.0000
89.0000 395.0000 0.0000
-91.0000 382.0000 0.0000
-91.0000 382.0000 0.0000
-91.0000 382.0000 0.0000
9.7820 399.3560 -100.0485
87.3180 396.0610 10.9125
-92.4660 383.4520 7.2405
-89.2620 383.3080 10.9125
-89.2620 381.8910 -10.9965
20.7760 399.2080 -94.6080
82.6240 397.8080 23.1600
-88.6880 385.9360 18.2640
-84.4160 385.7440 23.1600
-84.4160 382.7280 -23.4720
32.4540 398.6820 -86.2995
75.4460 400.0370 36.1575
-80.7520 389.1940 31.8735
-77.0140 389.0260 36.1575
-77.0140 384.3070 -36.8055
44.2880 397.9040 -75.7440
66.3120 402.5440 49.3200
-69.7440 392.9680 46.8720
-67.6080 392.8720 49.3200
-67.6080 386.4240 -50.3760
55.7500 397.0000 -63.5625
55.7500 405.1250 62.0625
-56.7500 397.0000 62.0625
-56.7500 397.0000 62.0625
-56.7500 388.8750 -63.5625
66.3120 396.0960 -50.3760
44.2880 407.5760 73.8000
-42.8560 401.0320 76.2480
-44.9920 401.1280 73.8000
-44.9920 391.4560 -75.7440
75.4460 395.3180 -36.8055
32.4540 409.6930 83.9475
-29.1480 404.8060 88.2315
-32.8860 404.9740 83.9475
-32.8860 393.9630 -86.2995
82.6240 394.7920 -23.4720
20.7760 411.2720 91.9200
-16.7120 408.0640 96.8160
-20.9840 408.2560 91.9200
-20.9840 396.1920 -94.6080
87.3180 394.6440 -10.9965
9.7820 412.1090 97.1325
-6.6340 410.5480 100.8045
-9.8380 410.6920 97.1325
-9.8380 397.9390 -100.0485
0.0000 400.0000 -104.0000
90.0000 395.0000 0.0000
-90.0000 382.0000 0.0000
-90.0000 382.0000 0.0000
-90.0000 382.0000 0.0000
9.8100 400.3280 -101.9970
88.2900 396.0890 10.9250
-91.5300 383.5160 7.1810
-88.2900 383.3360 10.9250
-88.2900 381.9190 -11.0930
20.8800 400.1040 -96.4160
83.5200 397.9120 23.1200
-87.8400 386.0880 18.1280
-83.5200 385.8480 23.1200
-83.5200 382.8320 -23.7440
32.6700 399.4660 -87.8990
76.2300 400.2530 36.0150
-80.0100 389.4520 31.6470
-76.2300 389.2420 36.0150
-76.2300 384.5230 -37.3110
44.6400 398.5520 -77.0880
66.9600 402.8960 49.0400
-69.1200 393.3440 46.5440
-66.9600 393.2240 49.0400
-66.9600 386.7760 -51.1520
56.2500 397.5000 -64.6250
56.2500 405.6250 61.6250
-56.2500 397.5000 61.6250
-56.2500 397.5000 61.6250
-56.2500 389.3750 -64.6250
66.9600 396.4480 -51.1520
44.6400 408.2240 73.2000
-42.4800 401.6560 75.6960
-44.6400 401.7760 73.2000
-44.6400 392.1040 -77.0880
76.2300 395.5340 -37.3110
32.6700 410.4770 83.1950
-28.8900 405.5480 87.5630
-32.6700 405.7580 83.1950
-32.6700 394.7470 -87.8990
83.5200 394.8960 -23.7440
20.8800 412.1680 91.0400
-16.5600 408.9120 96.0320
-20.8800 409.1520 91.0400
-20.8800 397.0880 -96.4160
88.2900 394.6720 -11.0930
9.8100 413.0810 96.1650
-6.5700 411.4840 99.9090
-9.8100 411.6640 96.1650
-9.8100 398.9110 -101.9970
0.0000 400.0000 -103.0000
88.0000 396.0000 0.0000
-89.0000 382.0000 0.0000
-89.0000 382.0000 0.0000
-89.0000 382.0000 0.0000
9.6325 400.3965 -101.0250
86.3325 397.0655 10.9530
-90.4725 383.4755 7.2450
-87.3045 383.3315 10.9530
-87.3045 381.9145 -11.0650
20.4800 400.2720 -95.5200
81.6800 398.8240 23.2240
-86.8000 386.0240 18.2800
-82.5760 385.8320 23.2240
-82.5760 382.8160 -23.6400
32.0175 399.7555 -87.1150
74.5675 401.0685 36.2310
-79.0475 389.3785 31.9050
-75.3515 389.2105 36.2310
-75.3515 384.4915 -37.0950
43.7200 398.9760 -76.4400
65.5200 403.5920 49.3920
-68.2800 393.2720 46.9200
-66.1680 393.1760 49.3920
-66.1680 386.7280 -50.8000
55.0625 398.0625 -64.1250
55.0625 406.1875 62.1250
-55.5625 397.4375 62.1250
-55.5625 397.4375 62.1250
-55.5625 389.3125 -64.1250
65.5200 397.1440 -50.8000
43.7200 408.6480 73.8480
-41.9600 401.6080 76.3200
-44.0720 401.7040 73.8480
-44.0720 392.0320 -76.4400
74.5675 396.3495 -37.0950
32.0175 410.7665 83.9790
-28.5375 405.5165 88.3050
-32.2335 405.6845 83.9790
-32.2335 394.6735 -87.1150
81.6800 395.8080 -23.6400
20.4800 412.3360 91.9360
-16.3600 408.8960 96.8800
-20.5840 409.0880 91.9360
-20.5840 397.0240 -95.5200
86.3325 395.6485 -11.0650
9.6325 413.1495 97.1370
-6.4925 411.4795 100.8450
-9.6605 411.6235 97.1370
-9.6605 398.8705 -101.0250
0.0000 400.0000 -102.0000
89.0000 396.0000 0.0000
-91.0000 383.0000 0.0000
-91.0000 383.0000 0.0000
-91.0000 383.0000 0.0000
9.7820 400.3515 -100.0440
87.3180 397.1295 10.8440
-92.4660 384.5205 7.1720
-89.2620 384.3765 10.8440
-89.2620 382.8505 -10.9560
20.7760 400.1920 -94.5920
82.6240 398.9760 22.9920
-88.6880 387.1040 18.0960
-84.4160 386.9120 22.9920
-84.4160 383.6640 -23.4080
32.4540 399.6505 -86.2680
75.4460 401.3265 35.8680
-80.7520 390.4835 31.5840
-77.0140 390.3155 35.8680
-77.0140 385.2335 -36.7320
44.2880 398.8560 -75.6960
66.3120 403.9680 48.8960
-69.7440 394.3920 46.4480
-67.6080 394.2960 48.8960
-67.6080 387.3520 -50.3040
55.7500 397.9375 -63.5000
55.7500 406.6875 61.5000
-56.7500 398.5625 61.5000
-56.7500 398.5625 61.5000
-56.7500 389.8125 -63.5000
66.3120 397.0240 -50.3040
44.2880 409.2720 73.1040
-42.8560 402.7280 75.5520
-44.9920 402.8240 73.1040
-44.9920 392.4080 -75.6960
75.4460 396.2445 -36.7320
32.4540 411.5085 83.1320
-29.1480 406.6215 87.4160
-32.8860 406.7895 83.1320
-32.8860 394.9315 -86.2680
82.6240 395.7280 -23.4080
20.7760 413.1840 91.0080
-16.7120 409.9760 95.9040
-20.9840 410.1680 91.0080
-20.9840 397.1760 -94.5920
87.3180 395.6035 -10.9560
9.7820 414.0855 96.1560
-6.6340 412.5245 99.8280
-9.8380 412.6685 96.1560
-9.8380 398.9345 -100.0440
0.0000 401.0000 -104.0000
90.0000 396.0000 0.0000
-91.0000 383.0000 0.0000
-91.0000 383.0000 0.0000
-91.0000 383.0000 0.0000
9.8505 401.3280 -102.0015
88.2945 397.0890 10.9935
-92.5065 384.5160 7.2495
-89.2665 384.3360 10.9935
-89.2665 382.9190 -11.1335
20.9440 401.1040 -96.4320
83.5360 398.9120 23.2880
-88.7520 387.0880 18.2960
-84.4320 386.8480 23.2880
-84.4320 383.8320 -23.8080
32.7435 400.4660 -87.9305
76.2615 401.2530 36.3045
-80.8255 390.4520 31.9365
-77.0455 390.2420 36.3045
-77.0455 385.5230 -37.3845
44.7120 399.5520 -77.1360
67.0080 403.8960 49.4640
-69.8160 394.3440 46.9680
-67.6560 394.2240 49.4640
-67.6560 387.7760 -51.2240
56.3125 398.5000 -64.6875
56.3125 406.6250 62.1875
-56.8125 398.5000 62.1875
-56.8125 398.5000 62.1875
-56.8125 390.3750 -64.6875
67.0080 397.4480 -51.2240
44.7120 409.2240 73.8960
-42.9040 402.6560 76.3920
-45.0640 402.7760 73.8960
-45.0640 393.1040 -77.1360
76.2615 396.5340 -37.3845
32.7435 411.4770 84.0105
-29.1795 406.5480 88.3785
-32.9595 406.7580 84.0105
-32.9595 395.7470 -87.9305
83.5360 395.8960 -23.8080
20.9440 413.1680 91.9520
-16.7280 409.9120 96.9440
-21.0480 410.1520 91.9520
-21.0480 398.0880 -96.4320
88.2945 395.6720 -11.1335
9.8505 414.0810 97.1415
-6.6385 412.4840 100.8855
-9.8785 412.6640 97.1415
-9.8785 399.9110 -102.0015
0.0000 401.0000 -103.0000
90.0000 396.0000 0.0000
-90.0000 383.0000 0.0000
-90.0000 383.0000 0.0000
-90.0000 383.0000 0.0000
9.8100 401.3280 -101.0295
88.2900 397.0890 11.0215
-91.5300 384.5160 7.3135
-88.2900 384.3360 11.0215
-88.2900 382.9190 -11.1055
20.8800 401.1040 -95.5360
83.5200 398.9120 23.3920
-87.8400 387.0880 18.4480
-83.5200 386.8480 23.3920
-83.5200 383.8320 -23.7040
32.6700 400.4660 -87.1465
76.2300 401.2530 36.5205
-80.0100 390.4520 32.1945
-76.2300 390.2420 36.5205
-76.2300 385.5230 -37.1685
44.6400 399.5520 -76.4880
66.9600 403.8960 49.8160
-69.1200 394.3440 47.3440
-66.9600 394.2240 49.8160
-66.9600 387.7760 -50.8720
56.2500 398.5000 -64.1875
56.2500 406.6250 62.6875
-56.2500 398.5000 62.6875
-56.2500 398.5000 62.6875
-56.2500 390.3750 -64.1875
66.9600 397.4480 -50.8720
44.6400 409.2240 74.5440
-42.4800 402.6560 77.0160
-44.6400 402.7760 74.5440
-44.6400 393.1040 -76.4880
76.2300 396.5340 -37.1685
32.6700 411.4770 84.7945
-28.8900 406.5480 89.1205
-32.6700 406.7580 84.7945
-32.6700 395.7470 -87.1465
83.5200 395.8960 -23.7040
20.8800 413.1680 92.8480
-16.5600 409.9120 97.7920
-20.8800 410.1520 92.8480
-20.8800 398.0880 -95.5360
88.2900 395.6720 -11.1055
9.8100 414.0810 98.1135
-6.5700 412.4840 101.8215
-9.8100 412.6640 98.1135
-9.8100 399.9110 -101.0295
0.0000 401.0000 -102.0000
88.0000 397.0000 0.0000
-89.0000 383.0000 0.0000
-89.0000 383.0000 0.0000
-89.0000 383.0000 0.0000
9.6325 401.3920 -100.0485
86.3325 398.1340 10.9125
-90.4725 384.5440 7.2405
-87.3045 384.4000 10.9125
-87.3045 382.8740 -10.9965
20.4800 401.2560 -94.6080
81.6800 399.9920 23.1600
-86.8000 387.1920 18.2640
-82.5760 387.0000 23.1600
-82.5760 383.7520 -23.4720
32.0175 400.7240 -86.2995
74.5675 402.3580 36.1575
-79.0475 390.6680 31.8735
-75.3515 390.5000 36.1575
-75.3515 385.4180 -36.8055
43.7200 399.9280 -75.7440
65.5200 405.0160 49.3200
-68.2800 394.6960 46.8720
-66.1680 394.6000 49.3200
-66.1680 387.6560 -50.3760
55.0625 399.0000 -63.5625
55.0625 407.7500 62.0625
-55.5625 399.0000 62.0625
-55.5625 399.0000 62.0625
-55.5625 390.2500 -63.5625
65.5200 398.0720 -50.3760
43.7200 410.3440 73.8000
-41.9600 403.3040 76.2480
-44.0720 403.4000 73.8000
-44.0720 392.9840 -75.7440
74.5675 397.2760 -36.8055
32.0175 412.5820 83.9475
-28.5375 407.3320 88.2315
-32.2335 407.5000 83.9475
-32.2335 395.6420 -86.2995
81.6800 396.7440 -23.4720
20.4800 414.2480 91.9200
-16.3600 410.8080 96.8160
-20.5840 411.0000 91.9200
-20.5840 398.0080 -94.6080
86.3325 396.6080 -10.9965
9.6325 415.1260 97.1325
-6.4925 413.4560 100.8045
-9.6605 413.6000 97.1325
-9.6605 399.8660 -100.0485
0.0000 401.0000 -101.0000
89.0000 397.0000 0.0000
-91.0000 384.0000 0.0000
-91.0000 384.0000 0.0000
-91.0000 384.0000 0.0000
9.7820 401.3515 -99.0765
87.3180 398.1295 10.9405
-92.4660 385.5205 7.3045
-89.2620 385.3765 10.9405
-89.2620 383.8505 -10.9685
20.7760 401.1920 -93.7120
82.6240 399.9760 23.2640
-88.6880 388.1040 18.4160
-84.4160 387.9120 23.2640
-84.4160 384.6640 -23.3680
32.4540 400.6505 -85.5155
75.4460 402.3265 36.3735
-80.7520 391.4835 32.1315
-77.0140 391.3155 36.3735
-77.0140 386.2335 -36.5895
44.2880 399.8560 -75.0960
66.3120 404.9680 49.6720
-69.7440 395.3920 47.2480
-67.6080 395.2960 49.6720
-67.6080 388.3520 -50.0240
55.7500 398.9375 -63.0625
55.7500 407.6875 62.5625
-56.7500 399.5625 62.5625
-56.7500 399.5625 62.5625
-56.7500 390.8125 -63.0625
66.3120 398.0240 -50.0240
44.2880 410.2720 74.4480
-42.8560 403.7280 76.8720
-44.9920 403.8240 74.4480
-44.9920 393.4080 -75.0960
75.4460 397.2445 -36.5895
32.4540 412.5085 84.7315
-29.1480 407.6215 88.9735
-32.8860 407.7895 84.7315
-32.8860 395.9315 -85.5155
82.6240 396.7280 -23.3680
20.7760 414.1840 92.8160
-16.7120 410.9760 97.6640
-20.9840 411.1680 92.8160
-20.9840 398.1760 -93.7120
87.3180 396.6035 -10.9685
9.7820 415.0855 98.1045
-6.6340 413.5245 101.7405
-9.8380 413.6685 98.1045
-9.8380 399.9345 -99.0765
0.0000 402.0000 -104.0000
87.0000 398.0000 0.0000
-91.0000 384.0000 0.0000
-91.0000 384.0000 0.0000
-91.0000 384.0000 0.0000
9.6450 402.3920 -102.0015
85.3650 399.1340 10.9935
-92.3850 385.5440 7.2495
-89.2530 385.4000 10.9935
-89.2530 383.8740 -11.1335
20.4400 402.2560 -96.4320
80.8000 400.9920 23.2880
-88.5600 388.1920 18.2960
-84.3840 388.0000 23.2880
-84.3840 384.7520 -23.8080
31.8750 401.7240 -87.9305
73.8150 403.3580 36.3045
-80.6050 391.6680 31.9365
-76.9510 391.5000 36.3045
-76.9510 386.4180 -37.3845
43.4400 400.9280 -77.1360
64.9200 406.0160 49.4640
-69.6000 395.6960 46.9680
-67.5120 395.6000 49.4640
-67.5120 388.6560 -51.2240
54.6250 400.0000 -64.6875
54.6250 408.7500 62.1875
-56.6250 400.0000 62.1875
-56.6250 400.0000 62.1875
-56.6250 391.2500 -64.6875
64.9200 399.0720 -51.2240
43.4400 411.3440 73.8960
-42.7600 404.3040 76.3920
-44.8480 404.4000 73.8960
-44.8480 393.9840 -77.1360
73.8150 398.2760 -37.3845
31.8750 413.5820 84.0105
-29.0850 408.3320 88.3785
-32.7390 408.5000 84.0105
-32.7390 396.6420 -87.9305
80.8000 397.7440 -23.8080
20.4400 415.2480 91.9520
-16.6800 411.8080 96.9440
-20.8560 412.0000 91.9520
-20.8560 399.0080 -96.4320
85.3650 397.6080 -11.1335
9.6450 416.1260 97.1415
-6.6250 414.4560 100.8855
-9.7570 414.6000 97.1415
-9.7570 400.8660 -102.0015
0.0000 402.0000 -103.0000
87.0000 398.0000 0.0000
-90.0000 384.0000 0.0000
-90.0000 384.0000 0.0000
-90.0000 384.0000 0.0000
9.6045 402.3920 -101.0295
85.3605 399.1340 11.0215
-91.4085 385.5440 7.3135
-88.2765 385.4000 11.0215
-88.2765 383.8740 -11.1055
20.3760 402.2560 -95.5360
80.7840 400.9920 23.3920
-87.6480 388.1920 18.4480
-83.4720 388.0000 23.3920
-83.4720 384.7520 -23.7040
31.8015 401.7240 -87.1465
73.7835 403.3580 36.5205
-79.7895 391.6680 32.1945
-76.1355 391.5000 36.5205
-76.1355 386.4180 -37.1685
43.3680 400.9280 -76.4880
64.8720 406.0160 49.8160
-68.9040 395.6960 47.3440
-66.8160 395.6000 49.8160
-66.8160 388.6560 -50.8720
54.5625 400.0000 -64.1875
54.5625 408.7500 62.6875
-56.0625 400.0000 62.6875
-56.0625 400.0000 62.6875
-56.0625 391.2500 -64.1875
64.8720 399.0720 -50.8720
43.3680 411.3440 74.5440
-42.3360 404.3040 77.0160
-44.4240 404.4000 74.5440
-44.4240 393.9840 -76.4880
73.7835 398.2760 -37.1685
31.8015 413.5820 84.7945
-28.7955 408.3320 89.1205
-32.4495 408.5000 84.7945
-32.4495 396.6420 -87.1465
80.7840 397.7440 -23.7040
20.3760 415.2480 92.8480
-16.5120 411.8080 97.7920
-20.6880 412.0000 92.8480
-20.6880 399.0080 -95.5360
85.3605 397.6080 -11.1055
9.6045 416.1260 98.1135
-6.5565 414.4560 101.8215
-9.6885 414.6000 98.1135
-9.6885 400.8660 -101.0295
0.0000 402.0000 -102.0000
88.0000 398.0000 0.0000
-89.0000 384.0000 0.0000
-89.0000 384.0000 0.0000
-89.0000 384.0000 0.0000
9.6325 402.3920 -100.0530
86.3325 399.1340 10.9810
-90.4725 385.5440 7.3090
-87.3045 385.4000 10.9810
-87.3045 383.8740 -11.0370
20.4800 402.2560 -94.6240
81.6800 400.9920 23.3280
-86.8000 388.1920 18.4320
-82.5760 388.0000 23.3280
-82.5760 384.7520 -23.5360
32.0175 401.7240 -86.3310
74.5675 403.3580 36.4470
-79.0475 391.6680 32.1630
-75.3515 391.5000 36.4470
-75.3515 386.4180 -36.8790
43.7200 400.9280 -75.7920
65.5200 406.0160 49.7440
-68.2800 395.6960 47.2960
-66.1680 395.6000 49.7440
-66.1680 388.6560 -50.4480
55.0625 400.0000 -63.6250
55.0625 408.7500 62.6250
-55.5625 400.0000 62.6250
-55.5625 400.0000 62.6250
-55.5625 391.2500 -63.6250
65.5200 399.0720 -50.4480
43.7200 411.3440 74.4960
-41.9600 404.3040 76.9440
-44.0720 404.4000 74.4960
-44.0720 393.9840 -75.7920
74.5675 398.2760 -36.8790
32.0175 413.5820 84.7630
-28.5375 408.3320 89.0470
-32.2335 408.5000 84.7630
-32.2335 396.6420 -86.3310
81.6800 397.7440 -23.5360
20.4800 415.2480 92.8320
-16.3600 411.8080 97.7280
-20.5840 412.0000 92.8320
-20.5840 399.0080 -94.6240
86.3325 397.6080 -11.0370
9.6325 416.1260 98.1090
-6.4925 414.4560 101.7810
-9.6605 414.6000 98.1090
-9.6605 400.8660 -100.0530
0.0000 402.0000 -101.0000
89.0000 398.0000 0.0000
-91.0000 385.0000 0.0000
-91.0000 385.0000 0.0000
-91.0000 385.0000 0.0000
9.7820 402.3515 -99.0810
87.3180 399.1295 11.0090
-92.4660 386.5205 7.3730
-89.2620 386.3765 11.0090
-89.2620 384.8505 -11.0090
20.7760 402.1920 -93.7280
82.6240 400.9760 23.4320
-88.6880 389.1040 18.5840
-84.4160 388.9120 23.4320
-84.4160 385.6640 -23.4320
32.4540 401.6505 -85.5470
75.4460 403.3265 36.6630
-80.7520 392.4835 32.4210
-77.0140 392.3155 36.6630
-77.0140 387.2335 -36.6630
44.2880 400.8560 -75.1440
66.3120 405.9680 50.0960
-69.7440 396.3920 47.6720
-67.6080 396.2960 50.0960
-67.6080 389.3520 -50.0960
55.7500 399.9375 -63.1250
55.7500 408.6875 63.1250
-56.7500 400.5625 63.1250
-56.7500 400.5625 63.1250
-56.7500 391.8125 -63.1250
66.3120 399.0240 -50.0960
44.2880 411.2720 75.1440
-42.8560 404.7280 77.5680
-44.9920 404.8240 75.1440
-44.9920 394.4080 -75.1440
75.4460 398.2445 -36.6630
32.4540 413.5085 85.5470
-29.1480 408.6215 89.7890
-32.8860 408.7895 85.5470
-32.8860 396.9315 -85.5470
82.6240 397.7280 -23.4320
20.7760 415.1840 93.7280
-16.7120 411.9760 98.5760
-20.9840 412.1680 93.7280
-20.9840 399.1760 -93.7280
87.3180 397.6035 -11.0090
9.7820 416.0855 99.0810
-6.6340 414.5245 102.7170
-9.8380 414.6685 99.0810
-9.8380 400.9345 -99.0810
0.0000 403.0000 -104.0000
87.0000 399.0000 0.0000
-91.0000 385.0000 0.0000
-91.0000 385.0000 0.0000
-91.0000 385.0000 0.0000
9.6450 403.3920 -102.0015
85.3650 400.1340 10.9935
-92.3850 386.5440 7.2495
-89.2530 386.4000 10.9935
-89.2530 384.8740 -11.1335
20.4400 403.2560 -96.4320
80.8000 401.9920 23.2880
-88.5600 389.1920 18.2960
-84.3840 389.0000 23.2880
-84.3840 385.7520 -23.8080
31.8750 402.7240 -87.9305
73.8150 404.3580 36.3045
-80.6050 392.6680 31.9365
-76.9510 392.5000 36.3045
-76.9510 387.4180 -37.3845
43.4400 401.9280 -77.1360
64.9200 407.0160 49.4640
-69.6000 396.6960 46.9680
-67.5120 396.6000 49.4640
-67.5120 389.6560 -51.2240
54.6250 401.0000 -64.6875
54.6250 409.7500 62.1875
-56.6250 401.0000 62.1875
-56.6250 401.0000 62.1875
-56.6250 392.2500 -64.6875
64.9200 400.0720 -51.2240
43.4400 412.3440 73.8960
-42.7600 405.3040 76.3920
-44.8480 405.4000 73.8960
-44.8480 394.9840 -77.1360
73.8150 399.2760 -37.3845
31.8750 414.5820 84.0105
-29.0850 409.3320 88.3785
-32.7390 409.5000 84.0105
-32.7390 397.6420 -87.9305
80.8000 398.7440 -23.8080
20.4400 416.2480 91.9520
-16.6800 412.8080 96.9440
-20.8560 413.0000 91.9520
-20.8560 400.0080 -96.4320
85.3650 398.6080 -11.1335
9.6450 417.1260 97.1415
-6.6250 415.4560 100.8855
-9.7570 415.6000 97.1415
-9.7570 401.8660 -102.0015
0.0000 403.0000 -103.0000
87.0000 399.0000 0.0000
-90.0000 385.0000 0.0000
-90.0000 385.0000 0.0000
-90.0000 385.0000 0.0000
9.6045 403.3920 -101.0295
85.3605 400.1340 11.0215
-91.4085 386.5440 7.3135
-88.2765 386.4000 11.0215
-88.2765 384.8740 -11.1055
20.3760 403.2560 -95.5360
80.7840 401.9920 23.3920
-87.6480 389.1920 18.4480
-83.4720 389.0000 23.3920
-83.4720 385.7520 -23.7040
31.8015 402.7240 -87.1465
73.7835 404.3580 36.5205
-79.7895 392.6680 32.1945
-76.1355 392.5000 36.5205
-76.1355 387.4180 -37.1685
43.3680 401.9280 -76.4880
64.8720 407.0160 49.8160
-68.9040 396.6960 47.3440
-66.8160 396.6000 49.8160
-66.8160 389.6560 -50.8720
54.5625 401.0000 -64.1875
54.5625 409.7500 62.6875
-56.0625 401.0000 62.6875
-56.0625 401.0000 62.6875
-56.0625 392.2500 -64.1875
64.8720 400.0720 -50.8720
43.3680 412.3440 74.5440
-42.3360 405.3040 77.0160
-44.4240 405.4000 74.5440
-44.4240 394.9840 -76.4880
73.7835 399.2760 -37.1685
31.8015 414.5820 84.7945
-28.7955 409.3320 89.1205
-32.4495 409.5000 84.7945
-32.4495 397.6420 -87.1465
80.7840 398.7440 -23.7040
20.3760 416.2480 92.8480
-16.5120 412.8080 97.7920
-20.6880 413.0000 92.8480
-20.6880 400.0080 -95.5360
85.3605 398.6080 -11.1055
9.6045 417.1260 98.1135
-6.5565 415.4560 101.8215
-9.6885 415.6000 98.1135
-9.6885 401.8660 -101.0295
0.0000 403.0000 -102.0000
88.0000 399.0000 0.0000
-89.0000 385.0000 0.0000
-89.0000 385.0000 0.0000
-89.0000 385.0000 0.0000
9.6325 403.3920 -100.0575
86.3325 400.1340 11.0495
-90.4725 386.5440 7.3775
-87.3045 386.4000 11.0495
-87.3045 384.8740 -11.0775
20.4800 403.2560 -94.6400
81.6800 401.9920 23.4960
-86.8000 389.1920 18.6000
-82.5760 389.0000 23.4960
-82.5760 385.7520 -23.6000
32.0175 402.7240 -86.3625
74.5675 404.3580 36.7365
-79.0475 392.6680 32.4525
-75.3515 392.5000 36.7365
-75.3515 387.4180 -36.9525
43.7200 401.9280 -75.8400
65.5200 407.0160 50.1680
-68.2800 396.6960 47.7200
-66.1680 396.6000 50.1680
-66.1680 389.6560 -50.5200
55.0625 401.0000 -63.6875
55.0625 409.7500 63.1875
-55.5625 401.0000 63.1875
-55.5625 401.0000 63.1875
-55.5625 392.2500 -63.6875
65.5200 400.0720 -50.5200
43.7200 412.3440 75.1920
-41.9600 405.3040 77.6400
-44.0720 405.4000 75.1920
-44.0720 394.9840 -75.8400
74.5675 399.2760 -36.9525
32.0175 414.5820 85.5785
-28.5375 409.3320 89.8625
-32.2335 409.5000 85.5785
-32.2335 397.6420 -86.3625
81.6800 398.7440 -23.6000
20.4800 416.2480 93.7440
-16.3600 412.8080 98.6400
-20.5840 413.0000 93.7440
-20.5840 400.0080 -94.6400
86.3325 398.6080 -11.0775
9.6325 417.1260 99.0855
-6.4925 415.4560 102.7575
-9.6605 415.6000 99.0855
-9.6605 401.8660 -100.0575
0.0000 403.0000 -101.0000
89.0000 399.0000 0.0000
-91.0000 386.0000 0.0000
-91.0000 386.0000 0.0000
-91.0000 386.0000 0.0000
9.7820 403.3470 -99.0720
87.3180 400.1980 10.8720
-92.4660 387.5890 7.2360
-89.2620 387.4450 10.8720
-89.2620 385.8100 -10.9280
20.7760 403.1760 -93.6960
82.6240 402.1440 23.0960
-88.6880 390.2720 18.2480
-84.4160 390.0800 23.0960
-84.4160 386.6000 -23.3040
32.4540 402.6190 -85.4840
75.4460 404.6160 36.0840
-80.7520 393.7730 31.8420
-77.0140 393.6050 36.0840
-77.0140 388.1600 -36.5160
44.2880 401.8080 -75.0480
66.3120 407.3920 49.2480
-69.7440 397.8160 46.8240
-67.6080 397.7200 49.2480
-67.6080 390.2800 -49.9520
55.7500 400.8750 -63.0000
55.7500 410.2500 62.0000
-56.7500 402.1250 62.0000
-56.7500 402.1250 62.0000
-56.7500 392.7500 -63.0000
66.3120 399.9520 -49.9520
44.2880 412.9680 73.7520
-42.8560 406.4240 76.1760
-44.9920 406.5200 73.7520
-44.9920 395.3600 -75.0480
75.4460 399.1710 -36.5160
32.4540 415.3240 83.9160
-29.1480 410.4370 88.1580
-32.8860 410.6050 83.9160
-32.8860 397.9000 -85.4840
82.6240 398.6640 -23.3040
20.7760 417.0960 91.9040
-16.7120 413.8880 96.7520
-20.9840 414.0800 91.9040
-20.9840 400.1600 -93.6960
87.3180 398.5630 -10.9280
9.7820 418.0620 97.1280
-6.6340 416.5010 100.7640
-9.8380 416.6450 97.1280
-9.8380 401.9300 -99.0720
0.0000 404.0000 -103.0000
87.0000 400.0000 0.0000
-91.0000 386.0000 0.0000
-91.0000 386.0000 0.0000
-91.0000 386.0000 0.0000
9.6450 404.3920 -101.0295
85.3650 401.1340 11.0215
-92.3850 387.5440 7.3135
-89.2530 387.4000 11.0215
-89.2530 385.8740 -11.1055
20.4400 404.2560 -95.5360
80.8000 402.9920 23.3920
-88.5600 390.1920 18.4480
-84.3840 390.0000 23.3920
-84.3840 386.7520 -23.7040
31.8750 403.7240 -87.1465
73.8150 405.3580 36.5205
-80.6050 393.6680 32.1945
-76.9510 393.5000 36.5205
-76.9510 388.4180 -37.1685
43.4400 402.9280 -76.4880
64.9200 408.0160 49.8160
-69.6000 397.6960 47.3440
-67.5120 397.6000 49.8160
-67.5120 390.6560 -50.8720
54.6250 402.0000 -64.1875
54.6250 410.7500 62.6875
-56.6250 402.0000 62.6875
-56.6250 402.0000 62.6875
-56.6250 393.2500 -64.1875
64.9200 401.0720 -50.8720
43.4400 413.3440 74.5440
-42.7600 406.3040 77.0160
-44.8480 406.4000 74.5440
-44.8480 395.9840 -76.4880
73.8150 400.2760 -37.1685
31.8750 415.5820 84.7945
-29.0850 410.3320 89.1205
-32.7390 410.5000 84.7945
-32.7390 398.6420 -87.1465
80.8000 399.7440 -23.7040
20.4400 417.2480 92.8480
-16.6800 413.8080 97.7920
-20.8560 414.0000 92.8480
-20.8560 401.0080 -95.5360
85.3650 399.6080 -11.1055
9.6450 418.1260 98.1135
-6.6250 416.4560 101.8215
-9.7570 416.6000 98.1135
-9.7570 402.8660 -101.0295
0.0000 404.0000 -102.0000
88.0000 400.0000 0.0000
-90.0000 386.0000 0.0000
-90.0000 386.0000 0.0000
-90.0000 386.0000 0.0000
9.6730 404.3920 -100.0575
86.3370 401.1340 11.0495
-91.4490 387.5440 7.3775
-88.2810 387.4000 11.0495
-88.2810 385.8740 -11.0775
20.5440 404.2560 -94.6400
81.6960 402.9920 23.4960
-87.7120 390.1920 18.6000
-83.4880 390.0000 23.4960
-83.4880 386.7520 -23.6000
32.0910 403.7240 -86.3625
74.5990 405.3580 36.7365
-79.8630 393.6680 32.4525
-76.1670 393.5000 36.7365
-76.1670 388.4180 -36.9525
43.7920 402.9280 -75.8400
65.5680 408.0160 50.1680
-68.9760 397.6960 47.7200
-66.8640 397.6000 50.1680
-66.8640 390.6560 -50.5200
55.1250 402.0000 -63.6875
55.1250 410.7500 63.1875
-56.1250 402.0000 63.1875
-56.1250 402.0000 63.1875
-56.1250 393.2500 -63.6875
65.5680 401.0720 -50.5200
43.7920 413.3440 75.1920
-42.3840 406.3040 77.6400
-44.4960 406.4000 75.1920
-44.4960 395.9840 -75.8400
74.5990 400.2760 -36.9525
32.0910 415.5820 85.5785
-28.8270 410.3320 89.8625
-32.5230 410.5000 85.5785
-32.5230 398.6420 -86.3625
81.6960 399.7440 -23.6000
20.5440 417.2480 93.7440
-16.5280 413.8080 98.6400
-20.7520 414.0000 93.7440
-20.7520 401.0080 -94.6400
86.3370 399.6080 -11.0775
9.6730 418.1260 99.0855
-6.5610 416.4560 102.7575
-9.7290 416.6000 99.0855
-9.7290 402.8660 -100.0575
0.0000 404.0000 -101.0000
88.0000 400.0000 0.0000
-89.0000 386.0000 0.0000
-89.0000 386.0000 0.0000
-89.0000 386.0000 0.0000
9.6325 404.3875 -99.0720
86.3325 401.2025 10.8720
-90.4725 387.6125 7.2360
-87.3045 387.4685 10.8720
-87.3045 385.8335 -10.9280
20.4800 404.2400 -93.6960
81.6800 403.1600 23.0960
-86.8000 390.3600 18.2480
-82.5760 390.1680 23.0960
-82.5760 386.6880 -23.3040
32.0175 403.6925 -85.4840
74.5675 405.6475 36.0840
-79.0475 393.9575 31.8420
-75.3515 393.7895 36.0840
-75.3515 388.3445 -36.5160
43.7200 402.8800 -75.0480
65.5200 408.4400 49.2480
-68.2800 398.1200 46.8240
-66.1680 398.0240 49.2480
-66.1680 390.5840 -49.9520
55.0625 401.9375 -63.0000
55.0625 411.3125 62.0000
-55.5625 402.5625 62.0000
-55.5625 402.5625 62.0000
-55.5625 393.1875 -63.0000
65.5200 401.0000 -49.9520
43.7200 414.0400 73.7520
-41.9600 407.0000 76.1760
-44.0720 407.0960 73.7520
-44.0720 395.9360 -75.0480
74.5675 400.2025 -36.5160
32.0175 416.3975 83.9160
-28.5375 411.1475 88.1580
-32.2335 411.3155 83.9160
-32.2335 398.6105 -85.4840
81.6800 399.6800 -23.3040
20.4800 418.1600 91.9040
-16.3600 414.7200 96.7520
-20.5840 414.9120 91.9040
-20.5840 400.9920 -93.6960
86.3325 399.5675 -10.9280
9.6325 419.1025 97.1280
-6.4925 417.4325 100.7640
-9.6605 417.5765 97.1280
-9.6605 402.8615 -99.0720
0.0000 405.0000 -103.0000
89.0000 400.0000 0.0000
-91.0000 387.0000 0.0000
-91.0000 387.0000 0.0000
-91.0000 387.0000 0.0000
9.7820 405.3235 -101.0295
87.3180 401.1575 11.0215
-92.4660 388.5845 7.3135
-89.2620 388.4045 11.0215
-89.2620 386.8785 -11.1055
20.7760 405.0880 -95.5360
82.6240 403.0800 23.3920
-88.6880 391.2560 18.4480
-84.4160 391.0160 23.3920
-84.4160 387.7680 -23.7040
32.4540 404.4345 -87.1465
75.4460 405.5425 36.5205
-80.7520 394.7415 32.1945
-77.0140 394.5315 36.5205
-77.0140 389.4495 -37.1685
44.2880 403.5040 -76.4880
66.3120 408.3200 49.8160
-69.7440 398.7680 47.3440
-67.6080 398.6480 49.8160
-67.6080 391.7040 -50.8720
55.7500 402.4375 -64.1875
55.7500 411.1875 62.6875
-56.7500 403.0625 62.6875
-56.7500 403.0625 62.6875
-56.7500 394.3125 -64.1875
66.3120 401.3760 -50.8720
44.2880 413.9200 74.5440
-42.8560 407.3520 77.0160
-44.9920 407.4720 74.5440
-44.9920 397.0560 -76.4880
75.4460 400.4605 -37.1685
32.4540 416.2925 84.7945
-29.1480 411.3635 89.1205
-32.8860 411.5735 84.7945
-32.8860 399.7155 -87.1465
82.6240 399.8320 -23.7040
20.7760 418.0800 92.8480
-16.7120 414.8240 97.7920
-20.9840 415.0640 92.8480
-20.9840 402.0720 -95.5360
87.3180 399.6315 -11.1055
9.7820 419.0575 98.1135
-6.6340 417.4605 101.8215
-9.8380 417.6405 98.1135
-9.8380 403.9065 -101.0295
0.0000 405.0000 -102.0000
87.0000 401.0000 0.0000
-90.0000 387.0000 0.0000
-90.0000 387.0000 0.0000
-90.0000 387.0000 0.0000
9.6045 405.3920 -100.0575
85.3605 402.1340 11.0495
-91.4085 388.5440 7.3775
-88.2765 388.4000 11.0495
-88.2765 386.8740 -11.0775
20.3760 405.2560 -94.6400
80.7840 403.9920 23.4960
-87.6480 391.1920 18.6000
-83.4720 391.0000 23.4960
-83.4720 387.7520 -23.6000
31.8015 404.7240 -86.3625
73.7835 406.3580 36.7365
-79.7895 394.6680 32.4525
-76.1355 394.5000 36.7365
-76.1355 389.4180 -36.9525
43.3680 403.9280 -75.8400
64.8720 409.0160 50.1680
-68.9040 398.6960 47.7200
-66.8160 398.6000 50.1680
-66.8160 391.6560 -50.5200
54.5625 403.0000 -63.6875
