ply
format ascii 1.0
element vertex 1715
property float x
property float y
property float z
element face 0
property list uchar int vertex_index
end_header
-84.0080 1073.8560 110.0880
-88.0640 1073.8560 106.8000
-88.0640 1079.0640 -102.2640
143.4580 1080.6090 -50.2455
62.0820 1074.5120 121.7475
-57.1440 1073.4230 127.5015
-64.2420 1073.4230 121.7475
-64.2420 1079.3520 -116.2595
156.9920 1080.4960 -32.2320
39.8480 1073.8080 133.5200
-32.7760 1073.1120 140.0960
-40.8880 1073.1120 133.5200
-40.8880 1079.6080 -127.2480
165.8340 1080.2970 -15.2165
18.8260 1073.2860 141.2325
-13.0220 1072.9590 146.1645
-19.1060 1072.9590 141.2325
-19.1060 1079.8260 -134.4285
0.0000 1081.0000 -140.0000
170.0000 1080.0000 0.0000
-178.0000 1077.0000 0.0000
-178.0000 1077.0000 0.0000
-178.0000 1077.0000 0.0000
18.8540 1081.1295 -137.3625
166.8060 1079.4935 15.6025
-180.7020 1076.5865 10.5625
-174.5820 1076.5505 15.6025
-174.5820 1077.4225 -15.4625
39.9520 1081.2160 -130.0000
157.8880 1078.8080 33.3200
-173.2160 1076.0720 26.6000
-165.0560 1076.0240 33.3200
-165.0560 1077.8800 -32.8000
62.2980 1081.2565 -118.7375
144.2420 1077.9945 52.2675
-157.6540 1075.4955 46.3875
-150.5140 1075.4535 52.2675
-150.5140 1078.3575 -51.1875
84.8960 1081.2480 -104.4000
126.8640 1077.1040 71.5600
-136.1280 1074.8960 68.2000
-132.0480 1074.8720 71.5600
-132.0480 1078.8400 -69.8000
106.7500 1081.1875 -87.8125
106.7500 1076.1875 90.3125
-110.7500 1074.3125 90.3125
-110.7500 1074.3125 90.3125
-110.7500 1079.3125 -87.8125
126.8640 1081.0720 -69.8000
84.8960 1075.2960 107.6400
-83.6320 1073.7840 111.0000
-87.7120 1073.8080 107.6400
-87.7120 1079.7600 -104.4000
144.2420 1080.8985 -51.1875
62.2980 1074.4805 122.6575
-56.8860 1073.3495 128.5375
-64.0260 1073.3915 122.6575
-64.0260 1080.1675 -118.7375
157.8880 1080.6640 -32.8000
39.9520 1073.7920 134.4800
-32.6240 1073.0480 141.2000
-40.7840 1073.0960 134.4800
-40.7840 1080.5200 -130.0000
166.8060 1080.3655 -15.4625
18.8540 1073.2815 142.2225
-12.9580 1072.9185 147.2625
-19.0780 1072.9545 142.2225
-19.0780 1080.8025 -137.3625
0.0000 1081.0000 -139.0000
170.0000 1080.0000 0.0000
-177.0000 1077.0000 0.0000
-177.0000 1077.0000 0.0000
-177.0000 1077.0000 0.0000
18.8135 1081.1295 -136.3860
166.8015 1079.4935 15.5620
-179.7255 1076.5865 10.5580
-173.6055 1076.5505 15.5620
-173.6055 1077.4225 -15.3940
39.8880 1081.2160 -129.0880
157.8720 1078.8080 33.2560
-172.3040 1076.0720 26.5840
-164.1440 1076.0240 33.2560
-164.1440 1077.8800 -32.6320
62.2245 1081.2565 -117.9220
144.2105 1077.9945 52.1940
-156.8385 1075.4955 46.3560
-149.6985 1075.4535 52.1940
-149.6985 1078.3575 -50.8980
84.8240 1081.2480 -103.7040
126.8160 1077.1040 71.4880
-135.4320 1074.8960 68.1520
-131.3520 1074.8720 71.4880
-131.3520 1078.8400 -69.3760
106.6875 1081.1875 -87.2500
106.6875 1076.1875 90.2500
-110.1875 1074.3125 90.2500
-110.1875 1074.3125 90.2500
-110.1875 1079.3125 -87.2500
126.8160 1081.0720 -69.3760
84.8240 1075.2960 107.5920
-83.2080 1073.7840 110.9280
-87.2880 1073.8080 107.5920
-87.2880 1079.7600 -103.7040
144.2105 1080.8985 -50.8980
62.2245 1074.4805 122.6260
-56.5965 1073.3495 128.4640
-63.7365 1073.3915 122.6260
-63.7365 1080.1675 -117.9220
157.8720 1080.6640 -32.6320
39.8880 1073.7920 134.4640
-32.4560 1073.0480 141.1360
-40.6160 1073.0960 134.4640
-40.6160 1080.5200 -129.0880
166.8015 1080.3655 -15.3940
18.8135 1073.2815 142.2180
-12.8895 1072.9185 147.2220
-19.0095 1072.9545 142.2180
-19.0095 1080.8025 -136.3860
0.0000 1081.0000 -138.0000
171.0000 1080.0000 0.0000
-179.0000 1078.0000 0.0000
-179.0000 1078.0000 0.0000
-179.0000 1078.0000 0.0000
18.9630 1081.0845 -135.3915
167.7870 1079.5575 15.2475
-181.7190 1077.6315 10.2795
-175.5630 1077.5955 15.2475
-175.5630 1078.3585 -15.1635
40.1840 1081.1360 -128.1120
158.8160 1078.9600 32.5200
-174.1920 1077.1520 25.8960
-165.9840 1077.1040 32.5200
-165.9840 1078.7280 -32.2080
62.6610 1081.1515 -116.9805
145.0890 1078.2525 50.9625
-158.5430 1076.6005 45.1665
-151.3610 1076.5585 50.9625
-151.3610 1079.0995 -50.3145
85.3920 1081.1280 -102.8160
127.6080 1077.4800 69.7200
-136.8960 1076.0160 66.4080
-132.7920 1075.9920 69.7200
-132.7920 1079.4640 -68.6640
107.3750 1081.0625 -86.4375
107.3750 1076.6875 87.9375
-111.3750 1075.4375 87.9375
-111.3750 1075.4375 87.9375
-111.3750 1079.8125 -86.4375
127.6080 1080.9520 -68.6640
85.3920 1075.9200 104.7600
-84.1040 1074.9040 108.0720
-88.2080 1074.9280 104.7600
-88.2080 1080.1360 -102.8160
145.0890 1080.7935 -50.3145
62.6610 1075.2225 119.3325
-57.2070 1074.4545 125.1285
-64.3890 1074.4965 119.3325
-64.3890 1080.4255 -116.9805
158.8160 1080.5840 -32.2080
40.1840 1074.6400 130.8000
-32.8080 1074.1280 137.4240
-41.0160 1074.1760 130.8000
-41.0160 1080.6720 -128.1120
167.7870 1080.3205 -15.1635
18.9630 1074.2175 138.3075
-13.0310 1073.9635 143.2755
-19.1870 1073.9995 138.3075
-19.1870 1080.8665 -135.3915
0.0000 1081.0000 -137.0000
169.0000 1081.0000 0.0000
-179.0000 1078.0000 0.0000
-179.0000 1078.0000 0.0000
-179.0000 1078.0000 0.0000
18.8260 1081.1530 -134.4195
165.8340 1080.5340 15.2755
-181.6380 1077.5910 10.3435
-175.5540 1077.5910 15.2755
-175.5540 1078.3540 -15.1355
39.8480 1081.3040 -127.2160
156.9920 1079.8720 32.6240
-174.0640 1077.0880 26.0480
-165.9520 1077.0880 32.6240
-165.9520 1078.7120 -32.1040
62.0820 1081.4410 -116.1965
143.4580 1079.0680 51.1785
-158.3960 1076.5270 45.4245
-151.2980 1076.5270 51.1785
-151.2980 1079.0680 -50.0985
84.5440 1081.5520 -102.1680
126.2160 1078.1760 70.0720
-136.7520 1075.9440 66.7840
-132.6960 1075.9440 70.0720
-132.6960 1079.4160 -68.3120
106.2500 1081.6250 -85.9375
106.2500 1077.2500 88.4375
-111.2500 1075.3750 88.4375
-111.2500 1075.3750 88.4375
-111.2500 1079.7500 -85.9375
126.2160 1081.6480 -68.3120
84.5440 1076.3440 105.4080
-84.0080 1074.8560 108.6960
-88.0640 1074.8560 105.4080
-88.0640 1080.0640 -102.1680
143.4580 1081.6090 -50.0985
62.0820 1075.5120 120.1165
-57.1440 1074.4230 125.8705
-64.2420 1074.4230 120.1165
-64.2420 1080.3520 -116.1965
156.9920 1081.4960 -32.1040
39.8480 1074.8080 131.6960
-32.7760 1074.1120 138.2720
-40.8880 1074.1120 131.6960
-40.8880 1080.6080 -127.2160
165.8340 1081.2970 -15.1355
18.8260 1074.2860 139.2795
-13.0220 1073.9590 144.2115
-19.1060 1073.9590 139.2795
-19.1060 1080.8260 -134.4195
0.0000 1082.0000 -140.0000
170.0000 1081.0000 0.0000
-178.0000 1078.0000 0.0000
-178.0000 1078.0000 0.0000
-178.0000 1078.0000 0.0000
18.8540 1082.1295 -137.3535
166.8060 1080.4935 15.4655
-180.7020 1077.5865 10.4255
-174.5820 1077.5505 15.4655
-174.5820 1078.4225 -15.3815
39.9520 1082.2160 -129.9680
157.8880 1079.8080 32.9840
-173.2160 1077.0720 26.2640
-165.0560 1077.0240 32.9840
-165.0560 1078.8800 -32.6720
62.2980 1082.2565 -118.6745
144.2420 1078.9945 51.6885
-157.6540 1076.4955 45.8085
-150.5140 1076.4535 51.6885
-150.5140 1079.3575 -51.0405
84.8960 1082.2480 -104.3040
126.8640 1078.1040 70.7120
-136.1280 1075.8960 67.3520
-132.0480 1075.8720 70.7120
-132.0480 1079.8400 -69.6560
106.7500 1082.1875 -87.6875
106.7500 1077.1875 89.1875
-110.7500 1075.3125 89.1875
-110.7500 1075.3125 89.1875
-110.7500 1080.3125 -87.6875
126.8640 1082.0720 -69.6560
84.8960 1076.2960 106.2480
-83.6320 1074.7840 109.6080
-87.7120 1074.8080 106.2480
-87.7120 1080.7600 -104.3040
144.2420 1081.8985 -51.0405
62.2980 1075.4805 121.0265
-56.8860 1074.3495 126.9065
-64.0260 1074.3915 121.0265
-64.0260 1081.1675 -118.6745
157.8880 1081.6640 -32.6720
39.9520 1074.7920 132.6560
-32.6240 1074.0480 139.3760
-40.7840 1074.0960 132.6560
-40.7840 1081.5200 -129.9680
166.8060 1081.3655 -15.3815
18.8540 1074.2815 140.2695
-12.9580 1073.9185 145.3095
-19.0780 1073.9545 140.2695
-19.0780 1081.8025 -137.3535
0.0000 1082.0000 -139.0000
170.0000 1081.0000 0.0000
-177.0000 1078.0000 0.0000
-177.0000 1078.0000 0.0000
-177.0000 1078.0000 0.0000
18.8135 1082.1295 -136.3815
166.8015 1080.4935 15.4935
-179.7255 1077.5865 10.4895
-173.6055 1077.5505 15.4935
-173.6055 1078.4225 -15.3535
39.8880 1082.2160 -129.0720
157.8720 1079.8080 33.0880
-172.3040 1077.0720 26.4160
-164.1440 1077.0240 33.0880
-164.1440 1078.8800 -32.5680
62.2245 1082.2565 -117.8905
144.2105 1078.9945 51.9045
-156.8385 1076.4955 46.0665
-149.6985 1076.4535 51.9045
-149.6985 1079.3575 -50.8245
84.8240 1082.2480 -103.6560
126.8160 1078.1040 71.0640
-135.4320 1075.8960 67.7280
-131.3520 1075.8720 71.0640
-131.3520 1079.8400 -69.3040
106.6875 1082.1875 -87.1875
106.6875 1077.1875 89.6875
-110.1875 1075.3125 89.6875
-110.1875 1075.3125 89.6875
-110.1875 1080.3125 -87.1875
126.8160 1082.0720 -69.3040
84.8240 1076.2960 106.8960
-83.2080 1074.7840 110.2320
-87.2880 1074.8080 106.8960
-87.2880 1080.7600 -103.6560
144.2105 1081.8985 -50.8245
62.2245 1075.4805 121.8105
-56.5965 1074.3495 127.6485
-63.7365 1074.3915 121.8105
-63.7365 1081.1675 -117.8905
157.8720 1081.6640 -32.5680
39.8880 1074.7920 133.5520
-32.4560 1074.0480 140.2240
-40.6160 1074.0960 133.5520
-40.6160 1081.5200 -129.0720
166.8015 1081.3655 -15.3535
18.8135 1074.2815 141.2415
-12.8895 1073.9185 146.2455
-19.0095 1073.9545 141.2415
-19.0095 1081.8025 -136.3815
0.0000 1082.0000 -138.0000
171.0000 1081.0000 0.0000
-177.0000 1078.0000 0.0000
-177.0000 1078.0000 0.0000
-177.0000 1078.0000 0.0000
18.8820 1082.1295 -135.4095
167.7780 1080.4935 15.5215
-179.7660 1077.5865 10.5535
-173.6100 1077.5505 15.5215
-173.6100 1078.4225 -15.3255
40.0560 1082.2160 -128.1760
158.7840 1079.8080 33.1920
-172.3680 1077.0720 26.5680
-164.1600 1077.0240 33.1920
-164.1600 1078.8800 -32.4640
62.5140 1082.2565 -117.1065
145.0260 1078.9945 52.1205
-156.9120 1076.4955 46.3245
-149.7300 1076.4535 52.1205
-149.7300 1079.3575 -50.6085
85.2480 1082.2480 -103.0080
127.5120 1078.1040 71.4160
-135.5040 1075.8960 68.1040
-131.4000 1075.8720 71.4160
-131.4000 1079.8400 -68.9520
107.2500 1082.1875 -86.6875
107.2500 1077.1875 90.1875
-110.2500 1075.3125 90.1875
-110.2500 1075.3125 90.1875
-110.2500 1080.3125 -86.6875
127.5120 1082.0720 -68.9520
85.2480 1076.2960 107.5440
-83.2560 1074.7840 110.8560
-87.3600 1074.8080 107.5440
-87.3600 1080.7600 -103.0080
145.0260 1081.8985 -50.6085
62.5140 1075.4805 122.5945
-56.6280 1074.3495 128.3905
-63.8100 1074.3915 122.5945
-63.8100 1081.1675 -117.1065
158.7840 1081.6640 -32.4640
40.0560 1074.7920 134.4480
-32.4720 1074.0480 141.0720
-40.6800 1074.0960 134.4480
-40.6800 1081.5200 -128.1760
167.7780 1081.3655 -15.3255
18.8820 1074.2815 142.2135
-12.8940 1073.9185 147.1815
-19.0500 1073.9545 142.2135
-19.0500 1081.8025 -135.4095
0.0000 1082.0000 -137.0000
169.0000 1082.0000 0.0000
-179.0000 1079.0000 0.0000
-179.0000 1079.0000 0.0000
-179.0000 1079.0000 0.0000
18.8260 1082.1530 -134.4150
165.8340 1081.5340 15.2070
-181.6380 1078.5910 10.2750
-175.5540 1078.5910 15.2070
-175.5540 1079.3540 -15.0950
39.8480 1082.3040 -127.2000
156.9920 1080.8720 32.4560
-174.0640 1078.0880 25.8800
-165.9520 1078.0880 32.4560
-165.9520 1079.7120 -32.0400
62.0820 1082.4410 -116.1650
143.4580 1080.0680 50.8890
-158.3960 1077.5270 45.1350
-151.2980 1077.5270 50.8890
-151.2980 1080.0680 -50.0250
84.5440 1082.5520 -102.1200
126.2160 1079.1760 69.6480
-136.7520 1076.9440 66.3600
-132.6960 1076.9440 69.6480
-132.6960 1080.4160 -68.2400
106.2500 1082.6250 -85.8750
106.2500 1078.2500 87.8750
-111.2500 1076.3750 87.8750
-111.2500 1076.3750 87.8750
-111.2500 1080.7500 -85.8750
126.2160 1082.6480 -68.2400
84.5440 1077.3440 104.7120
-84.0080 1075.8560 108.0000
-88.0640 1075.8560 104.7120
-88.0640 1081.0640 -102.1200
143.4580 1082.6090 -50.0250
62.0820 1076.5120 119.3010
-57.1440 1075.4230 125.0550
-64.2420 1075.4230 119.3010
-64.2420 1081.3520 -116.1650
156.9920 1082.4960 -32.0400
39.8480 1075.8080 130.7840
-32.7760 1075.1120 137.3600
-40.8880 1075.1120 130.7840
-40.8880 1081.6080 -127.2000
165.8340 1082.2970 -15.0950
18.8260 1075.2860 138.3030
-13.0220 1074.9590 143.2350
-19.1060 1074.9590 138.3030
-19.1060 1081.8260 -134.4150
0.0000 1083.0000 -140.0000
170.0000 1082.0000 0.0000
-178.0000 1079.0000 0.0000
-178.0000 1079.0000 0.0000
-178.0000 1079.0000 0.0000
18.8540 1083.1295 -137.3490
166.8060 1081.4935 15.3970
-180.7020 1078.5865 10.3570
-174.5820 1078.5505 15.3970
-174.5820 1079.4225 -15.3410
39.9520 1083.2160 -129.9520
157.8880 1080.8080 32.8160
-173.2160 1078.0720 26.0960
-165.0560 1078.0240 32.8160
-165.0560 1079.8800 -32.6080
62.2980 1083.2565 -118.6430
144.2420 1079.9945 51.3990
-157.6540 1077.4955 45.5190
-150.5140 1077.4535 51.3990
-150.5140 1080.3575 -50.9670
84.8960 1083.2480 -104.2560
126.8640 1079.1040 70.2880
-136.1280 1076.8960 66.9280
-132.0480 1076.8720 70.2880
-132.0480 1080.8400 -69.5840
106.7500 1083.1875 -87.6250
106.7500 1078.1875 88.6250
-110.7500 1076.3125 88.6250
-110.7500 1076.3125 88.6250
-110.7500 1081.3125 -87.6250
126.8640 1083.0720 -69.5840
84.8960 1077.2960 105.5520
-83.6320 1075.7840 108.9120
-87.7120 1075.8080 105.5520
-87.7120 1081.7600 -104.2560
144.2420 1082.8985 -50.9670
62.2980 1076.4805 120.2110
-56.8860 1075.3495 126.0910
-64.0260 1075.3915 120.2110
-64.0260 1082.1675 -118.6430
157.8880 1082.6640 -32.6080
39.9520 1075.7920 131.7440
-32.6240 1075.0480 138.4640
-40.7840 1075.0960 131.7440
-40.7840 1082.5200 -129.9520
166.8060 1082.3655 -15.3410
18.8540 1075.2815 139.2930
-12.9580 1074.9185 144.3330
-19.0780 1074.9545 139.2930
-19.0780 1082.8025 -137.3490
0.0000 1083.0000 -139.0000
170.0000 1082.0000 0.0000
-178.0000 1079.0000 0.0000
-178.0000 1079.0000 0.0000
-178.0000 1079.0000 0.0000
18.8540 1083.1295 -136.3770
166.8060 1081.4935 15.4250
-180.7020 1078.5865 10.4210
-174.5820 1078.5505 15.4250
-174.5820 1079.4225 -15.3130
39.9520 1083.2160 -129.0560
157.8880 1080.8080 32.9200
-173.2160 1078.0720 26.2480
-165.0560 1078.0240 32.9200
-165.0560 1079.8800 -32.5040
62.2980 1083.2565 -117.8590
144.2420 1079.9945 51.6150
-157.6540 1077.4955 45.7770
-150.5140 1077.4535 51.6150
-150.5140 1080.3575 -50.7510
84.8960 1083.2480 -103.6080
126.8640 1079.1040 70.6400
-136.1280 1076.8960 67.3040
-132.0480 1076.8720 70.6400
-132.0480 1080.8400 -69.2320
106.7500 1083.1875 -87.1250
106.7500 1078.1875 89.1250
-110.7500 1076.3125 89.1250
-110.7500 1076.3125 89.1250
-110.7500 1081.3125 -87.1250
126.8640 1083.0720 -69.2320
84.8960 1077.2960 106.2000
-83.6320 1075.7840 109.5360
-87.7120 1075.8080 106.2000
-87.7120 1081.7600 -103.6080
144.2420 1082.8985 -50.7510
62.2980 1076.4805 120.9950
-56.8860 1075.3495 126.8330
-64.0260 1075.3915 120.9950
-64.0260 1082.1675 -117.8590
157.8880 1082.6640 -32.5040
39.9520 1075.7920 132.6400
-32.6240 1075.0480 139.3120
-40.7840 1075.0960 132.6400
-40.7840 1082.5200 -129.0560
166.8060 1082.3655 -15.3130
18.8540 1075.2815 140.2650
-12.9580 1074.9185 145.2690
-19.0780 1074.9545 140.2650
-19.0780 1082.8025 -136.3770
0.0000 1083.0000 -138.0000
171.0000 1082.0000 0.0000
-177.0000 1079.0000 0.0000
-177.0000 1079.0000 0.0000
-177.0000 1079.0000 0.0000
18.8820 1083.1295 -135.4050
167.7780 1081.4935 15.4530
-179.7660 1078.5865 10.4850
-173.6100 1078.5505 15.4530
-173.6100 1079.4225 -15.2850
40.0560 1083.2160 -128.1600
158.7840 1080.8080 33.0240
-172.3680 1078.0720 26.4000
-164.1600 1078.0240 33.0240
-164.1600 1079.8800 -32.4000
62.5140 1083.2565 -117.0750
145.0260 1079.9945 51.8310
-156.9120 1077.4955 46.0350
-149.7300 1077.4535 51.8310
-149.7300 1080.3575 -50.5350
85.2480 1083.2480 -102.9600
127.5120 1079.1040 70.9920
-135.5040 1076.8960 67.6800
-131.4000 1076.8720 70.9920
-131.4000 1080.8400 -68.8800
107.2500 1083.1875 -86.6250
107.2500 1078.1875 89.6250
-110.2500 1076.3125 89.6250
-110.2500 1076.3125 89.6250
-110.2500 1081.3125 -86.6250
127.5120 1083.0720 -68.8800
85.2480 1077.2960 106.8480
-83.2560 1075.7840 110.1600
-87.3600 1075.8080 106.8480
-87.3600 1081.7600 -102.9600
145.0260 1082.8985 -50.5350
62.5140 1076.4805 121.7790
-56.6280 1075.3495 127.5750
-63.8100 1075.3915 121.7790
-63.8100 1082.1675 -117.0750
158.7840 1082.6640 -32.4000
40.0560 1075.7920 133.5360
-32.4720 1075.0480 140.1600
-40.6800 1075.0960 133.5360
-40.6800 1082.5200 -128.1600
167.7780 1082.3655 -15.2850
18.8820 1075.2815 141.2370
-12.8940 1074.9185 146.2050
-19.0500 1074.9545 141.2370
-19.0500 1082.8025 -135.4050
0.0000 1083.0000 -137.0000
170.0000 1083.0000 0.0000
-179.0000 1080.0000 0.0000
-179.0000 1080.0000 0.0000
-179.0000 1080.0000 0.0000
18.8945 1083.1530 -134.4105
166.8105 1082.5340 15.1385
-181.6785 1079.5910 10.2065
-175.5585 1079.5910 15.1385
-175.5585 1080.3540 -15.0545
40.0160 1083.3040 -127.1840
157.9040 1081.8720 32.2880
-174.1280 1079.0880 25.7120
-165.9680 1079.0880 32.2880
-165.9680 1080.7120 -31.9760
62.3715 1083.4410 -116.1335
144.2735 1081.0680 50.5995
-158.4695 1078.5270 44.8455
-151.3295 1078.5270 50.5995
-151.3295 1081.0680 -49.9515
84.9680 1083.5520 -102.0720
126.9120 1080.1760 69.2240
-136.8240 1077.9440 65.9360
-132.7440 1077.9440 69.2240
-132.7440 1081.4160 -68.1680
106.8125 1083.6250 -85.8125
106.8125 1079.2500 87.3125
-111.3125 1077.3750 87.3125
-111.3125 1077.3750 87.3125
-111.3125 1081.7500 -85.8125
126.9120 1083.6480 -68.1680
84.9680 1078.3440 104.0160
-84.0560 1076.8560 107.3040
-88.1360 1076.8560 104.0160
-88.1360 1082.0640 -102.0720
144.2735 1083.6090 -49.9515
62.3715 1077.5120 118.4855
-57.1755 1076.4230 124.2395
-64.3155 1076.4230 118.4855
-64.3155 1082.3520 -116.1335
157.9040 1083.4960 -31.9760
40.0160 1076.8080 129.8720
-32.7920 1076.1120 136.4480
-40.9520 1076.1120 129.8720
-40.9520 1082.6080 -127.1840
166.8105 1083.2970 -15.0545
18.8945 1076.2860 137.3265
-13.0265 1075.9590 142.2585
-19.1465 1075.9590 137.3265
-19.1465 1082.8260 -134.4105
0.0000 1084.0000 -140.0000
171.0000 1083.0000 0.0000
-178.0000 1080.0000 0.0000
-178.0000 1080.0000 0.0000
-178.0000 1080.0000 0.0000
18.9225 1084.1295 -137.3445
167.7825 1082.4935 15.3285
-180.7425 1079.5865 10.2885
-174.5865 1079.5505 15.3285
-174.5865 1080.4225 -15.3005
40.1200 1084.2160 -129.9360
158.8000 1081.8080 32.6480
-173.2800 1079.0720 25.9280
-165.0720 1079.0240 32.6480
-165.0720 1080.8800 -32.5440
62.5875 1084.2565 -118.6115
145.0575 1080.9945 51.1095
-157.7275 1078.4955 45.2295
-150.5455 1078.4535 51.1095
-150.5455 1081.3575 -50.8935
85.3200 1084.2480 -104.2080
127.5600 1080.1040 69.8640
-136.2000 1077.8960 66.5040
-132.0960 1077.8720 69.8640
-132.0960 1081.8400 -69.5120
107.3125 1084.1875 -87.5625
107.3125 1079.1875 88.0625
-110.8125 1077.3125 88.0625
-110.8125 1077.3125 88.0625
-110.8125 1082.3125 -87.5625
127.5600 1084.0720 -69.5120
85.3200 1078.2960 104.8560
-83.6800 1076.7840 108.2160
-87.7840 1076.8080 104.8560
-87.7840 1082.7600 -104.2080
145.0575 1083.8985 -50.8935
62.5875 1077.4805 119.3955
-56.9175 1076.3495 125.2755
-64.0995 1076.3915 119.3955
-64.0995 1083.1675 -118.6115
158.8000 1083.6640 -32.5440
40.1200 1076.7920 130.8320
-32.6400 1076.0480 137.5520
-40.8480 1076.0960 130.8320
-40.8480 1083.5200 -129.9360
167.7825 1083.3655 -15.3005
18.9225 1076.2815 138.3165
-12.9625 1075.9185 143.3565
-19.1185 1075.9545 138.3165
-19.1185 1083.8025 -137.3445
0.0000 1084.0000 -139.0000
170.0000 1084.0000 0.0000
-178.0000 1080.0000 0.0000
-178.0000 1080.0000 0.0000
-178.0000 1080.0000 0.0000
18.8540 1084.1980 -136.3725
166.8060 1083.4700 15.3565
-180.7020 1079.5460 10.3525
-174.5820 1079.5460 15.3565
-174.5820 1080.4180 -15.2725
39.9520 1084.3840 -129.0400
157.8880 1082.7200 32.7520
-173.2160 1079.0080 26.0800
-165.0560 1079.0080 32.7520
-165.0560 1080.8640 -32.4400
62.2980 1084.5460 -117.8275
144.2420 1081.8100 51.3255
-157.6540 1078.4220 45.4875
-150.5140 1078.4220 51.3255
-150.5140 1081.3260 -50.6775
84.8960 1084.6720 -103.5600
126.8640 1080.8000 70.2160
-136.1280 1077.8240 66.8800
-132.0480 1077.8240 70.2160
-132.0480 1081.7920 -69.1600
106.7500 1084.7500 -87.0625
106.7500 1079.7500 88.5625
-110.7500 1077.2500 88.5625
-110.7500 1077.2500 88.5625
-110.7500 1082.2500 -87.0625
126.8640 1084.7680 -69.1600
84.8960 1078.7200 105.5040
-83.6320 1076.7360 108.8400
-87.7120 1076.7360 105.5040
-87.7120 1082.6880 -103.5600
144.2420 1084.7140 -50.6775
62.2980 1077.7700 120.1795
-56.8860 1076.3180 126.0175
-64.0260 1076.3180 120.1795
-64.0260 1083.0940 -117.8275
157.8880 1084.5760 -32.4400
39.9520 1076.9600 131.7280
-32.6240 1076.0320 138.4000
-40.7840 1076.0320 131.7280
-40.7840 1083.4560 -129.0400
166.8060 1084.3420 -15.2725
18.8540 1076.3500 139.2885
-12.9580 1075.9140 144.2925
-19.0780 1075.9140 139.2885
-19.0780 1083.7620 -136.3725
0.0000 1084.0000 -138.0000
170.0000 1084.0000 0.0000
-177.0000 1080.0000 0.0000
-177.0000 1080.0000 0.0000
-177.0000 1080.0000 0.0000
18.8135 1084.1980 -135.4005
166.8015 1083.4700 15.3845
-179.7255 1079.5460 10.4165
-173.6055 1079.5460 15.3845
-173.6055 1080.4180 -15.2445
39.8880 1084.3840 -128.1440
157.8720 1082.7200 32.8560
-172.3040 1079.0080 26.2320
-164.1440 1079.0080 32.8560
-164.1440 1080.8640 -32.3360
62.2245 1084.5460 -117.0435
144.2105 1081.8100 51.5415
-156.8385 1078.4220 45.7455
-149.6985 1078.4220 51.5415
-149.6985 1081.3260 -50.4615
84.8240 1084.6720 -102.9120
126.8160 1080.8000 70.5680
-135.4320 1077.8240 67.2560
-131.3520 1077.8240 70.5680
-131.3520 1081.7920 -68.8080
106.6875 1084.7500 -86.5625
106.6875 1079.7500 89.0625
-110.1875 1077.2500 89.0625
-110.1875 1077.2500 89.0625
-110.1875 1082.2500 -86.5625
126.8160 1084.7680 -68.8080
84.8240 1078.7200 106.1520
-83.2080 1076.7360 109.4640
-87.2880 1076.7360 106.1520
-87.2880 1082.6880 -102.9120
144.2105 1084.7140 -50.4615
62.2245 1077.7700 120.9635
-56.5965 1076.3180 126.7595
-63.7365 1076.3180 120.9635
-63.7365 1083.0940 -117.0435
157.8720 1084.5760 -32.3360
39.8880 1076.9600 132.6240
-32.4560 1076.0320 139.2480
-40.6160 1076.0320 132.6240
-40.6160 1083.4560 -128.1440
166.8015 1084.3420 -15.2445
18.8135 1076.3500 140.2605
-12.8895 1075.9140 145.2285
-19.0095 1075.9140 140.2605
-19.0095 1083.7620 -135.4005
0.0000 1085.0000 -140.0000
171.0000 1084.0000 0.0000
-179.0000 1081.0000 0.0000
-179.0000 1081.0000 0.0000
-179.0000 1081.0000 0.0000
18.9630 1085.1340 -137.3580
167.7870 1083.4250 15.5340
-181.7190 1080.5180 10.4940
-175.5630 1080.4820 15.5340
-175.5630 1081.4630 -15.4220
40.1840 1085.2320 -129.9840
158.8160 1082.6400 33.1520
-174.1920 1079.9040 26.4320
-165.9840 1079.8560 33.1520
-165.9840 1081.9440 -32.7360
62.6610 1085.2880 -118.7060
145.0890 1081.7050 51.9780
-158.5430 1079.2060 46.0980
-151.3610 1079.1640 51.9780
-151.3610 1082.4310 -51.1140
85.3920 1085.2960 -104.3520
127.6080 1080.6800 71.1360
-136.8960 1078.4720 67.7760
-132.7920 1078.4480 71.1360
-132.7920 1082.9120 -69.7280
107.3750 1085.2500 -87.7500
107.3750 1079.6250 89.7500
-111.3750 1077.7500 89.7500
-111.3750 1077.7500 89.7500
-111.3750 1083.3750 -87.7500
127.6080 1085.1440 -69.7280
85.3920 1078.6000 106.9440
-84.1040 1077.0880 110.3040
-88.2080 1077.1120 106.9440
-88.2080 1083.8080 -104.3520
145.0890 1084.9720 -51.1140
62.6610 1077.6650 121.8420
-57.2070 1076.5340 127.7220
-64.3890 1076.5760 121.8420
-64.3890 1084.1990 -118.7060
158.8160 1084.7280 -32.7360
40.1840 1076.8800 133.5680
-32.8080 1076.1360 140.2880
-41.0160 1076.1840 133.5680
-41.0160 1084.5360 -129.9840
167.7870 1084.4060 -15.4220
18.9630 1076.3050 141.2460
-13.0310 1075.9420 146.2860
-19.1870 1075.9780 141.2460
-19.1870 1084.8070 -137.3580
0.0000 1085.0000 -139.0000
170.0000 1085.0000 0.0000
-179.0000 1081.0000 0.0000
-179.0000 1081.0000 0.0000
-179.0000 1081.0000 0.0000
18.8945 1085.1980 -136.3635
166.8105 1084.4700 15.2195
-181.6785 1080.5460 10.2155
-175.5585 1080.5460 15.2195
-175.5585 1081.4180 -15.1915
40.0160 1085.3840 -129.0080
157.9040 1083.7200 32.4160
-174.1280 1080.0080 25.7440
-165.9680 1080.0080 32.4160
-165.9680 1081.8640 -32.3120
62.3715 1085.5460 -117.7645
144.2735 1082.8100 50.7465
-158.4695 1079.4220 44.9085
-151.3295 1079.4220 50.7465
-151.3295 1082.3260 -50.5305
84.9680 1085.6720 -103.4640
126.9120 1081.8000 69.3680
-136.8240 1078.8240 66.0320
-132.7440 1078.8240 69.3680
-132.7440 1082.7920 -69.0160
106.8125 1085.7500 -86.9375
106.8125 1080.7500 87.4375
-111.3125 1078.2500 87.4375
-111.3125 1078.2500 87.4375
-111.3125 1083.2500 -86.9375
126.9120 1085.7680 -69.0160
84.9680 1079.7200 104.1120
-84.0560 1077.7360 107.4480
-88.1360 1077.7360 104.1120
-88.1360 1083.6880 -103.4640
144.2735 1085.7140 -50.5305
62.3715 1078.7700 118.5485
-57.1755 1077.3180 124.3865
-64.3155 1077.3180 118.5485
-64.3155 1084.0940 -117.7645
157.9040 1085.5760 -32.3120
40.0160 1077.9600 129.9040
-32.7920 1077.0320 136.5760
-40.9520 1077.0320 129.9040
-40.9520 1084.4560 -129.0080
166.8105 1085.3420 -15.1915
18.8945 1077.3500 137.3355
-13.0265 1076.9140 142.3395
-19.1465 1076.9140 137.3355
-19.1465 1084.7620 -136.3635
0.0000 1085.0000 -138.0000
171.0000 1085.0000 0.0000
-178.0000 1081.0000 0.0000
-178.0000 1081.0000 0.0000
-178.0000 1081.0000 0.0000
18.9225 1085.1980 -135.3870
167.7825 1084.4700 15.1790
-180.7425 1080.5460 10.2110
-174.5865 1080.5460 15.1790
-174.5865 1081.4180 -15.1230
40.1200 1085.3840 -128.0960
158.8000 1083.7200 32.3520
-173.2800 1080.0080 25.7280
-165.0720 1080.0080 32.3520
-165.0720 1081.8640 -32.1440
62.5875 1085.5460 -116.9490
145.0575 1082.8100 50.6730
-157.7275 1079.4220 44.8770
-150.5455 1079.4220 50.6730
-150.5455 1082.3260 -50.2410
85.3200 1085.6720 -102.7680
127.5600 1081.8000 69.2960
-136.2000 1078.8240 65.9840
-132.0960 1078.8240 69.2960
-132.0960 1082.7920 -68.5920
107.3125 1085.7500 -86.3750
107.3125 1080.7500 87.3750
-110.8125 1078.2500 87.3750
-110.8125 1078.2500 87.3750
-110.8125 1083.2500 -86.3750
127.5600 1085.7680 -68.5920
85.3200 1079.7200 104.0640
-83.6800 1077.7360 107.3760
-87.7840 1077.7360 104.0640
-87.7840 1083.6880 -102.7680
145.0575 1085.7140 -50.2410
62.5875 1078.7700 118.5170
-56.9175 1077.3180 124.3130
-64.0995 1077.3180 118.5170
-64.0995 1084.0940 -116.9490
158.8000 1085.5760 -32.1440
40.1200 1077.9600 129.8880
-32.6400 1077.0320 136.5120
-40.8480 1077.0320 129.8880
-40.8480 1084.4560 -128.0960
167.7825 1085.3420 -15.1230
18.9225 1077.3500 137.3310
-12.9625 1076.9140 142.2990
-19.1185 1076.9140 137.3310
-19.1185 1084.7620 -135.3870
0.0000 1086.0000 -140.0000
171.0000 1085.0000 0.0000
-177.0000 1081.0000 0.0000
-177.0000 1081.0000 0.0000
-177.0000 1081.0000 0.0000
18.8820 1086.1745 -137.3445
167.7780 1084.4295 15.3285
-179.7660 1080.5415 10.2885
-173.6100 1080.5055 15.3285
-173.6100 1081.4865 -15.3005
40.0560 1086.2960 -129.9360
158.7840 1083.6560 32.6480
-172.3680 1079.9920 25.9280
-164.1600 1079.9440 32.6480
-164.1600 1082.0320 -32.5440
62.5140 1086.3615 -118.6115
145.0260 1082.7365 51.1095
-156.9120 1079.3905 45.2295
-149.7300 1079.3485 51.1095
-149.7300 1082.6155 -50.8935
85.2480 1086.3680 -104.2080
127.5120 1081.7280 69.8640
-135.5040 1078.7760 66.5040
-131.4000 1078.7520 69.8640
-131.4000 1083.2160 -69.5120
107.2500 1086.3125 -87.5625
107.2500 1080.6875 88.0625
-110.2500 1078.1875 88.0625
-110.2500 1078.1875 88.0625
-110.2500 1083.8125 -87.5625
127.5120 1086.1920 -69.5120
85.2480 1079.6720 104.8560
-83.2560 1077.6640 108.2160
-87.3600 1077.6880 104.8560
-87.3600 1084.3840 -104.2080
145.0260 1086.0035 -50.8935
62.5140 1078.7385 119.3955
-56.6280 1077.2445 125.2755
-63.8100 1077.2865 119.3955
-63.8100 1084.9095 -118.6115
158.7840 1085.7440 -32.5440
40.0560 1077.9440 130.8320
-32.4720 1076.9680 137.5520
-40.6800 1077.0160 130.8320
-40.6800 1085.3680 -129.9360
167.7780 1085.4105 -15.3005
18.8820 1077.3455 138.3165
-12.8940 1076.8735 143.3565
-19.0500 1076.9095 138.3165
-19.0500 1085.7385 -137.3445
0.0000 1086.0000 -139.0000
170.0000 1086.0000 0.0000
-179.0000 1082.0000 0.0000
-179.0000 1082.0000 0.0000
-179.0000 1082.0000 0.0000
18.8945 1086.2025 -136.3725
166.8105 1085.4015 15.3565
-181.6785 1081.4775 10.3525
-175.5585 1081.4775 15.3565
-175.5585 1082.4585 -15.2725
40.0160 1086.4000 -129.0400
157.9040 1084.5520 32.7520
-174.1280 1080.8400 26.0800
-165.9680 1080.8400 32.7520
-165.9680 1082.9280 -32.4400
62.3715 1086.5775 -117.8275
144.2735 1083.5205 51.3255
-158.4695 1080.1325 45.4875
-151.3295 1080.1325 51.3255
-151.3295 1083.3995 -50.6775
84.9680 1086.7200 -103.5600
126.9120 1082.3760 70.2160
-136.8240 1079.4000 66.8800
-132.7440 1079.4000 70.2160
-132.7440 1083.8640 -69.1600
106.8125 1086.8125 -87.0625
106.8125 1081.1875 88.5625
-111.3125 1078.6875 88.5625
-111.3125 1078.6875 88.5625
-111.3125 1084.3125 -87.0625
126.9120 1086.8400 -69.1600
84.9680 1080.0240 105.5040
-84.0560 1078.0400 108.8400
-88.1360 1078.0400 105.5040
-88.1360 1084.7360 -103.5600
144.2735 1086.7875 -50.6775
62.3715 1078.9545 120.1795
-57.1755 1077.5025 126.0175
-64.3155 1077.5025 120.1795
-64.3155 1085.1255 -117.8275
157.9040 1086.6400 -32.4400
40.0160 1078.0480 131.7280
-32.7920 1077.1200 138.4000
-40.9520 1077.1200 131.7280
-40.9520 1085.4720 -129.0400
166.8105 1086.3825 -15.2725
18.8945 1077.3735 139.2885
-13.0265 1076.9375 144.2925
-19.1465 1076.9375 139.2885
-19.1465 1085.7665 -136.3725
0.0000 1086.0000 -138.0000
171.0000 1086.0000 0.0000
-179.0000 1082.0000 0.0000
-179.0000 1082.0000 0.0000
-179.0000 1082.0000 0.0000
18.9630 1086.2025 -135.4005
167.7870 1085.4015 15.3845
-181.7190 1081.4775 10.4165
-175.5630 1081.4775 15.3845
-175.5630 1082.4585 -15.2445
40.1840 1086.4000 -128.1440
158.8160 1084.5520 32.8560
-174.1920 1080.8400 26.2320
-165.9840 1080.8400 32.8560
-165.9840 1082.9280 -32.3360
62.6610 1086.5775 -117.0435
145.0890 1083.5205 51.5415
-158.5430 1080.1325 45.7455
-151.3610 1080.1325 51.5415
-151.3610 1083.3995 -50.4615
85.3920 1086.7200 -102.9120
127.6080 1082.3760 70.5680
-136.8960 1079.4000 67.2560
-132.7920 1079.4000 70.5680
-132.7920 1083.8640 -68.8080
107.3750 1086.8125 -86.5625
107.3750 1081.1875 89.0625
-111.3750 1078.6875 89.0625
-111.3750 1078.6875 89.0625
-111.3750 1084.3125 -86.5625
127.6080 1086.8400 -68.8080
85.3920 1080.0240 106.1520
-84.1040 1078.0400 109.4640
-88.2080 1078.0400 106.1520
-88.2080 1084.7360 -102.9120
145.0890 1086.7875 -50.4615
62.6610 1078.9545 120.9635
-57.2070 1077.5025 126.7595
-64.3890 1077.5025 120.9635
-64.3890 1085.1255 -117.0435
158.8160 1086.6400 -32.3360
40.1840 1078.0480 132.6240
-32.8080 1077.1200 139.2480
-41.0160 1077.1200 132.6240
-41.0160 1085.4720 -128.1440
167.7870 1086.3825 -15.2445
18.9630 1077.3735 140.2605
-13.0310 1076.9375 145.2285
-19.1870 1076.9375 140.2605
-19.1870 1085.7665 -135.4005
0.0000 1087.0000 -140.0000
170.0000 1087.0000 0.0000
-178.0000 1082.0000 0.0000
-178.0000 1082.0000 0.0000
-178.0000 1082.0000 0.0000
18.8540 1087.2430 -137.3355
166.8060 1086.4060 15.1915
-180.7020 1081.5010 10.1515
-174.5820 1081.5010 15.1915
-174.5820 1082.4820 -15.2195
39.9520 1087.4640 -129.9040
157.8880 1085.5680 32.3120
-173.2160 1080.9280 25.5920
-165.0560 1080.9280 32.3120
-165.0560 1083.0160 -32.4160
62.2980 1087.6510 -118.5485
144.2420 1084.5520 50.5305
-157.6540 1080.3170 44.6505
-150.5140 1080.3170 50.5305
-150.5140 1083.5840 -50.7465
84.8960 1087.7920 -104.1120
126.8640 1083.4240 69.0160
-136.1280 1079.7040 65.6560
-132.0480 1079.7040 69.0160
-132.0480 1084.1680 -69.3680
106.7500 1087.8750 -87.4375
106.7500 1082.2500 86.9375
-110.7500 1079.1250 86.9375
-110.7500 1079.1250 86.9375
-110.7500 1084.7500 -87.4375
126.8640 1087.8880 -69.3680
84.8960 1081.0960 103.4640
-83.6320 1078.6160 106.8240
-87.7120 1078.6160 103.4640
-87.7120 1085.3120 -104.1120
144.2420 1087.8190 -50.7465
62.2980 1080.0280 117.7645
-56.8860 1078.2130 123.6445
-64.0260 1078.2130 117.7645
-64.0260 1085.8360 -118.5485
157.8880 1087.6560 -32.4160
39.9520 1079.1120 129.0080
-32.6240 1077.9520 135.7280
-40.7840 1077.9520 129.0080
-40.7840 1086.3040 -129.9040
166.8060 1087.3870 -15.2195
18.8540 1078.4140 136.3635
-12.9580 1077.8690 141.4035
-19.0780 1077.8690 136.3635
-19.0780 1086.6980 -137.3355
0.0000 1087.0000 -139.0000
170.0000 1087.0000 0.0000
-177.0000 1082.0000 0.0000
-177.0000 1082.0000 0.0000
-177.0000 1082.0000 0.0000
18.8135 1087.2430 -136.3635
166.8015 1086.4060 15.2195
-179.7255 1081.5010 10.2155
-173.6055 1081.5010 15.2195
-173.6055 1082.4820 -15.1915
39.8880 1087.4640 -129.0080
157.8720 1085.5680 32.4160
-172.3040 1080.9280 25.7440
-164.1440 1080.9280 32.4160
-164.1440 1083.0160 -32.3120
62.2245 1087.6510 -117.7645
144.2105 1084.5520 50.7465
-156.8385 1080.3170 44.9085
-149.6985 1080.3170 50.7465
-149.6985 1083.5840 -50.5305
84.8240 1087.7920 -103.4640
126.8160 1083.4240 69.3680
-135.4320 1079.7040 66.0320
-131.3520 1079.7040 69.3680
-131.3520 1084.1680 -69.0160
106.6875 1087.8750 -86.9375
106.6875 1082.2500 87.4375
-110.1875 1079.1250 87.4375
-110.1875 1079.1250 87.4375
-110.1875 1084.7500 -86.9375
126.8160 1087.8880 -69.0160
84.8240 1081.0960 104.1120
-83.2080 1078.6160 107.4480
-87.2880 1078.6160 104.1120
-87.2880 1085.3120 -103.4640
144.2105 1087.8190 -50.5305
62.2245 1080.0280 118.5485
-56.5965 1078.2130 124.3865
-63.7365 1078.2130 118.5485
-63.7365 1085.8360 -117.7645
157.8720 1087.6560 -32.3120
39.8880 1079.1120 129.9040
-32.4560 1077.9520 136.5760
-40.6160 1077.9520 129.9040
-40.6160 1086.3040 -129.0080
166.8015 1087.3870 -15.1915
18.8135 1078.4140 137.3355
-12.8895 1077.8690 142.3395
-19.0095 1077.8690 137.3355
-19.0095 1086.6980 -136.3635
0.0000 1087.0000 -138.0000
171.0000 1087.0000 0.0000
-177.0000 1082.0000 0.0000
-177.0000 1082.0000 0.0000
-177.0000 1082.0000 0.0000
18.8820 1087.2430 -135.3915
167.7780 1086.4060 15.2475
-179.7660 1081.5010 10.2795
-173.6100 1081.5010 15.2475
-173.6100 1082.4820 -15.1635
40.0560 1087.4640 -128.1120
158.7840 1085.5680 32.5200
-172.3680 1080.9280 25.8960
-164.1600 1080.9280 32.5200
-164.1600 1083.0160 -32.2080
62.5140 1087.6510 -116.9805
145.0260 1084.5520 50.9625
-156.9120 1080.3170 45.1665
-149.7300 1080.3170 50.9625
-149.7300 1083.5840 -50.3145
85.2480 1087.7920 -102.8160
127.5120 1083.4240 69.7200
-135.5040 1079.7040 66.4080
-131.4000 1079.7040 69.7200
-131.4000 1084.1680 -68.6640
107.2500 1087.8750 -86.4375
107.2500 1082.2500 87.9375
-110.2500 1079.1250 87.9375
-110.2500 1079.1250 87.9375
-110.2500 1084.7500 -86.4375
127.5120 1087.8880 -68.6640
85.2480 1081.0960 104.7600
-83.2560 1078.6160 108.0720
-87.3600 1078.6160 104.7600
-87.3600 1085.3120 -102.8160
145.0260 1087.8190 -50.3145
62.5140 1080.0280 119.3325
-56.6280 1078.2130 125.1285
-63.8100 1078.2130 119.3325
-63.8100 1085.8360 -116.9805
158.7840 1087.6560 -32.2080
40.0560 1079.1120 130.8000
-32.4720 1077.9520 137.4240
-40.6800 1077.9520 130.8000
-40.6800 1086.3040 -128.1120
167.7780 1087.3870 -15.1635
18.8820 1078.4140 138.3075
-12.8940 1077.8690 143.2755
-19.0500 1077.8690 138.3075
-19.0500 1086.6980 -135.3915
0.0000 1088.0000 -140.0000
170.0000 1088.0000 0.0000
-179.0000 1083.0000 0.0000
-179.0000 1083.0000 0.0000
-179.0000 1083.0000 0.0000
18.8945 1088.2475 -137.3490
166.8105 1087.3375 15.3970
-181.6785 1082.4325 10.3570
-175.5585 1082.4325 15.3970
-175.5585 1083.5225 -15.3410
40.0160 1088.4800 -129.9520
157.9040 1086.4000 32.8160
-174.1280 1081.7600 26.0960
-165.9680 1081.7600 32.8160
-165.9680 1084.0800 -32.6080
62.3715 1088.6825 -118.6430
144.2735 1085.2625 51.3990
-158.4695 1081.0275 45.5190
-151.3295 1081.0275 51.3990
-151.3295 1084.6575 -50.9670
84.9680 1088.8400 -104.2560
126.9120 1084.0000 70.2880
-136.8240 1080.2800 66.9280
-132.7440 1080.2800 70.2880
-132.7440 1085.2400 -69.5840
106.8125 1088.9375 -87.6250
106.8125 1082.6875 88.6250
-111.3125 1079.5625 88.6250
-111.3125 1079.5625 88.6250
-111.3125 1085.8125 -87.6250
126.9120 1088.9600 -69.5840
84.9680 1081.4000 105.5520
-84.0560 1078.9200 108.9120
-88.1360 1078.9200 105.5520
-88.1360 1086.3600 -104.2560
144.2735 1088.8925 -50.9670
62.3715 1080.2125 120.2110
-57.1755 1078.3975 126.0910
-64.3155 1078.3975 120.2110
-64.3155 1086.8675 -118.6430
157.9040 1088.7200 -32.6080
40.0160 1079.2000 131.7440
-32.7920 1078.0400 138.4640
-40.9520 1078.0400 131.7440
-40.9520 1087.3200 -129.9520
166.8105 1088.4275 -15.3410
18.8945 1078.4375 139.2930
-13.0265 1077.8925 144.3330
-19.1465 1077.8925 139.2930
-19.1465 1087.7025 -137.3490
0.0000 1088.0000 -139.0000
171.0000 1088.0000 0.0000
-178.0000 1083.0000 0.0000
-178.0000 1083.0000 0.0000
-178.0000 1083.0000 0.0000
18.9225 1088.2475 -136.3770
167.7825 1087.3375 15.4250
-180.7425 1082.4325 10.4210
-174.5865 1082.4325 15.4250
-174.5865 1083.5225 -15.3130
40.1200 1088.4800 -129.0560
158.8000 1086.4000 32.9200
-173.2800 1081.7600 26.2480
-165.0720 1081.7600 32.9200
-165.0720 1084.0800 -32.5040
62.5875 1088.6825 -117.8590
145.0575 1085.2625 51.6150
-157.7275 1081.0275 45.7770
-150.5455 1081.0275 51.6150
-150.5455 1084.6575 -50.7510
85.3200 1088.8400 -103.6080
127.5600 1084.0000 70.6400
-136.2000 1080.2800 67.3040
-132.0960 1080.2800 70.6400
-132.0960 1085.2400 -69.2320
107.3125 1088.9375 -87.1250
107.3125 1082.6875 89.1250
-110.8125 1079.5625 89.1250
-110.8125 1079.5625 89.1250
-110.8125 1085.8125 -87.1250
127.5600 1088.9600 -69.2320
85.3200 1081.4000 106.2000
-83.6800 1078.9200 109.5360
-87.7840 1078.9200 106.2000
-87.7840 1086.3600 -103.6080
145.0575 1088.8925 -50.7510
62.5875 1080.2125 120.9950
-56.9175 1078.3975 126.8330
-64.0995 1078.3975 120.9950
-64.0995 1086.8675 -117.8590
158.8000 1088.7200 -32.5040
40.1200 1079.2000 132.6400
-32.6400 1078.0400 139.3120
-40.8480 1078.0400 132.6400
-40.8480 1087.3200 -129.0560
167.7825 1088.4275 -15.3130
18.9225 1078.4375 140.2650
-12.9625 1077.8925 145.2690
-19.1185 1077.8925 140.2650
-19.1185 1087.7025 -136.3770
0.0000 1089.0000 -140.0000
169.0000 1089.0000 0.0000
-178.0000 1083.0000 0.0000
-178.0000 1083.0000 0.0000
-178.0000 1083.0000 0.0000
18.7855 1089.2880 -137.3355
165.8295 1088.3420 15.1915
-180.6615 1082.4560 10.1515
-174.5775 1082.4560 15.1915
-174.5775 1083.5460 -15.2195
39.7840 1089.5440 -129.9040
156.9760 1087.4160 32.3120
-173.1520 1081.8480 25.5920
-165.0400 1081.8480 32.3120
-165.0400 1084.1680 -32.4160
62.0085 1089.7560 -118.5485
143.4265 1086.2940 50.5305
-157.5805 1081.2120 44.6505
-150.4825 1081.2120 50.5305
-150.4825 1084.8420 -50.7465
84.4720 1089.9120 -104.1120
126.1680 1085.0480 69.0160
-136.0560 1080.5840 65.6560
-132.0000 1080.5840 69.0160
-132.0000 1085.5440 -69.3680
106.1875 1090.0000 -87.4375
106.1875 1083.7500 86.9375
-110.6875 1080.0000 86.9375
-110.6875 1080.0000 86.9375
-110.6875 1086.2500 -87.4375
126.1680 1090.0080 -69.3680
84.4720 1082.4720 103.4640
-83.5840 1079.4960 106.8240
-87.6400 1079.4960 103.4640
-87.6400 1086.9360 -104.1120
143.4265 1089.9240 -50.7465
62.0085 1081.2860 117.7645
-56.8545 1079.1080 123.6445
-63.9525 1079.1080 117.7645
-63.9525 1087.5780 -118.5485
156.9760 1089.7360 -32.4160
39.7840 1080.2640 129.0080
-32.6080 1078.8720 135.7280
-40.7200 1078.8720 129.0080
-40.7200 1088.1520 -129.9040
165.8295 1089.4320 -15.2195
18.7855 1079.4780 136.3635
-12.9535 1078.8240 141.4035
-19.0375 1078.8240 136.3635
-19.0375 1088.6340 -137.3355
0.0000 1089.0000 -139.0000
169.0000 1089.0000 0.0000
-177.0000 1083.0000 0.0000
-177.0000 1083.0000 0.0000
-177.0000 1083.0000 0.0000
18.7450 1089.2880 -136.3635
165.8250 1088.3420 15.2195
-179.6850 1082.4560 10.2155
-173.6010 1082.4560 15.2195
-173.6010 1083.5460 -15.1915
39.7200 1089.5440 -129.0080
156.9600 1087.4160 32.4160
-172.2400 1081.8480 25.7440
-164.1280 1081.8480 32.4160
-164.1280 1084.1680 -32.3120
61.9350 1089.7560 -117.7645
143.3950 1086.2940 50.7465
-156.7650 1081.2120 44.9085
-149.6670 1081.2120 50.7465
-149.6670 1084.8420 -50.5305
84.4000 1089.9120 -103.4640
126.1200 1085.0480 69.3680
-135.3600 1080.5840 66.0320
-131.3040 1080.5840 69.3680
-131.3040 1085.5440 -69.0160
106.1250 1090.0000 -86.9375
106.1250 1083.7500 87.4375
-110.1250 1080.0000 87.4375
-110.1250 1080.0000 87.4375
-110.1250 1086.2500 -86.9375
126.1200 1090.0080 -69.0160
84.4000 1082.4720 104.1120
-83.1600 1079.4960 107.4480
-87.2160 1079.4960 104.1120
-87.2160 1086.9360 -103.4640
143.3950 1089.9240 -50.5305
61.9350 1081.2860 118.5485
-56.5650 1079.1080 124.3865
-63.6630 1079.1080 118.5485
-63.6630 1087.5780 -117.7645
156.9600 1089.7360 -32.3120
39.7200 1080.2640 129.9040
-32.4400 1078.8720 136.5760
-40.5520 1078.8720 129.9040
-40.5520 1088.1520 -129.0080
165.8250 1089.4320 -15.1915
18.7450 1079.4780 137.3355
-12.8850 1078.8240 142.3395
-18.9690 1078.8240 137.3355
-18.9690 1088.6340 -136.3635
0.0000 1090.0000 -141.0000
170.0000 1089.0000 0.0000
-179.0000 1084.0000 0.0000
-179.0000 1084.0000 0.0000
-179.0000 1084.0000 0.0000
18.8945 1090.2240 -138.3210
166.8105 1088.2970 15.3690
-181.6785 1083.4280 10.2930
-175.5585 1083.3920 15.3690
-175.5585 1084.5910 -15.3690
40.0160 1090.3920 -130.8480
157.9040 1087.3360 32.7120
-174.1280 1082.7440 25.9440
-165.9680 1082.6960 32.7120
-165.9680 1085.2480 -32.7120
62.3715 1090.4980 -119.4270
144.2735 1086.1890 51.1830
-158.4695 1081.9960 45.2610
-151.3295 1081.9540 51.1830
-151.3295 1085.9470 -51.1830
84.9680 1090.5360 -104.9040
126.9120 1084.9280 69.9360
-136.8240 1081.2320 66.5520
-132.7440 1081.2080 69.9360
-132.7440 1086.6640 -69.9360
106.8125 1090.5000 -88.1250
106.8125 1083.6250 88.1250
-111.3125 1080.5000 88.1250
-111.3125 1080.5000 88.1250
-111.3125 1087.3750 -88.1250
126.9120 1090.3840 -69.9360
84.9680 1082.3520 104.9040
-84.0560 1079.8480 108.2880
-88.1360 1079.8720 104.9040
-88.1360 1088.0560 -104.9040
144.2735 1090.1820 -51.1830
62.3715 1081.1810 119.4270
-57.1755 1079.3240 125.3490
-64.3155 1079.3660 119.4270
-64.3155 1088.6830 -119.4270
157.9040 1089.8880 -32.7120
40.0160 1080.1840 130.8480
-32.7920 1078.9760 137.6160
-40.9520 1079.0240 130.8480
-40.9520 1089.2320 -130.8480
166.8105 1089.4960 -15.3690
18.8945 1079.4330 138.3210
-13.0265 1078.8520 143.3970
-19.1465 1078.8880 138.3210
-19.1465 1089.6790 -138.3210
0.0000 1090.0000 -140.0000
171.0000 1089.0000 0.0000
-178.0000 1084.0000 0.0000
-178.0000 1084.0000 0.0000
-178.0000 1084.0000 0.0000
18.9225 1090.2240 -137.3490
167.7825 1088.2970 15.3970
-180.7425 1083.4280 10.3570
-174.5865 1083.3920 15.3970
-174.5865 1084.5910 -15.3410
40.1200 1090.3920 -129.9520
158.8000 1087.3360 32.8160
-173.2800 1082.7440 26.0960
-165.0720 1082.6960 32.8160
-165.0720 1085.2480 -32.6080
62.5875 1090.4980 -118.6430
145.0575 1086.1890 51.3990
-157.7275 1081.9960 45.5190
-150.5455 1081.9540 51.3990
-150.5455 1085.9470 -50.9670
85.3200 1090.5360 -104.2560
127.5600 1084.9280 70.2880
-136.2000 1081.2320 66.9280
-132.0960 1081.2080 70.2880
-132.0960 1086.6640 -69.5840
107.3125 1090.5000 -87.6250
107.3125 1083.6250 88.6250
-110.8125 1080.5000 88.6250
-110.8125 1080.5000 88.6250
-110.8125 1087.3750 -87.6250
127.5600 1090.3840 -69.5840
85.3200 1082.3520 105.5520
-83.6800 1079.8480 108.9120
-87.7840 1079.8720 105.5520
-87.7840 1088.0560 -104.2560
145.0575 1090.1820 -50.9670
62.5875 1081.1810 120.2110
-56.9175 1079.3240 126.0910
-64.0995 1079.3660 120.2110
-64.0995 1088.6830 -118.6430
158.8000 1089.8880 -32.6080
40.1200 1080.1840 131.7440
-32.6400 1078.9760 138.4640
-40.8480 1079.0240 131.7440
-40.8480 1089.2320 -129.9520
167.7825 1089.4960 -15.3410
18.9225 1079.4330 139.2930
-12.9625 1078.8520 144.3330
-19.1185 1078.8880 139.2930
-19.1185 1089.6790 -137.3490
0.0000 1090.0000 -139.0000
169.0000 1090.0000 0.0000
-178.0000 1084.0000 0.0000
-178.0000 1084.0000 0.0000
-178.0000 1084.0000 0.0000
18.7855 1090.2880 -136.3545
165.8295 1089.3420 15.0825
-180.6615 1083.4560 10.0785
-174.5775 1083.4560 15.0825
-174.5775 1084.5460 -15.1105
39.7840 1090.5440 -128.9760
156.9760 1088.4160 32.0800
-173.1520 1082.8480 25.4080
-165.0400 1082.8480 32.0800
-165.0400 1085.1680 -32.1840
62.0085 1090.7560 -117.7015
143.4265 1087.2940 50.1675
-157.5805 1082.2120 44.3295
-150.4825 1082.2120 50.1675
-150.4825 1085.8420 -50.3835
84.4720 1090.9120 -103.3680
126.1680 1086.0480 68.5200
-136.0560 1081.5840 65.1840
-132.0000 1081.5840 68.5200
-132.0000 1086.5440 -68.8720
106.1875 1091.0000 -86.8125
106.1875 1084.7500 86.3125
-110.6875 1081.0000 86.3125
-110.6875 1081.0000 86.3125
-110.6875 1087.2500 -86.8125
126.1680 1091.0080 -68.8720
84.4720 1083.4720 102.7200
-83.5840 1080.4960 106.0560
-87.6400 1080.4960 102.7200
-87.6400 1087.9360 -103.3680
143.4265 1090.9240 -50.3835
62.0085 1082.2860 116.9175
-56.8545 1080.1080 122.7555
-63.9525 1080.1080 116.9175
-63.9525 1088.5780 -117.7015
156.9760 1090.7360 -32.1840
39.7840 1081.2640 128.0800
-32.6080 1079.8720 134.7520
-40.7200 1079.8720 128.0800
-40.7200 1089.1520 -128.9760
165.8295 1090.4320 -15.1105
18.7855 1080.4780 135.3825
-12.9535 1079.8240 140.3865
-19.0375 1079.8240 135.3825
-19.0375 1089.6340 -136.3545
0.0000 1091.0000 -141.0000
169.0000 1090.0000 0.0000
-179.0000 1085.0000 0.0000
-179.0000 1085.0000 0.0000
-179.0000 1085.0000 0.0000
18.8260 1091.2240 -138.3120
165.8340 1089.2970 15.2320
-181.6380 1084.4280 10.1560
-175.5540 1084.3920 15.2320
-175.5540 1085.5910 -15.2880
39.8480 1091.3920 -130.8160
156.9920 1088.3360 32.3760
-174.0640 1083.7440 25.6080
-165.9520 1083.6960 32.3760
-165.9520 1086.2480 -32.5840
62.0820 1091.4980 -119.3640
143.4580 1087.1890 50.6040
-158.3960 1082.9960 44.6820
-151.2980 1082.9540 50.6040
-151.2980 1086.9470 -51.0360
84.5440 1091.5360 -104.8080
126.2160 1085.9280 69.0880
-136.7520 1082.2320 65.7040
-132.6960 1082.2080 69.0880
-132.6960 1087.6640 -69.7920
106.2500 1091.5000 -88.0000
106.2500 1084.6250 87.0000
-111.2500 1081.5000 87.0000
-111.2500 1081.5000 87.0000
-111.2500 1088.3750 -88.0000
126.2160 1091.3840 -69.7920
84.5440 1083.3520 103.5120
-84.0080 1080.8480 106.8960
-88.0640 1080.8720 103.5120
-88.0640 1089.0560 -104.8080
143.4580 1091.1820 -51.0360
62.0820 1082.1810 117.7960
-57.1440 1080.3240 123.7180
-64.2420 1080.3660 117.7960
-64.2420 1089.6830 -119.3640
156.9920 1090.8880 -32.5840
39.8480 1081.1840 129.0240
-32.7760 1079.9760 135.7920
-40.8880 1080.0240 129.0240
-40.8880 1090.2320 -130.8160
165.8340 1090.4960 -15.2880
18.8260 1080.4330 136.3680
-13.0220 1079.8520 141.4440
-19.1060 1079.8880 136.3680
-19.1060 1090.6790 -138.3120
0.0000 1091.0000 -140.0000
170.0000 1090.0000 0.0000
-178.0000 1085.0000 0.0000
-178.0000 1085.0000 0.0000
-178.0000 1085.0000 0.0000
18.8540 1091.2240 -137.3400
166.8060 1089.2970 15.2600
-180.7020 1084.4280 10.2200
-174.5820 1084.3920 15.2600
-174.5820 1085.5910 -15.2600
39.9520 1091.3920 -129.9200
157.8880 1088.3360 32.4800
-173.2160 1083.7440 25.7600
-165.0560 1083.6960 32.4800
-165.0560 1086.2480 -32.4800
62.2980 1091.4980 -118.5800
144.2420 1087.1890 50.8200
-157.6540 1082.9960 44.9400
-150.5140 1082.9540 50.8200
-150.5140 1086.9470 -50.8200
84.8960 1091.5360 -104.1600
126.8640 1085.9280 69.4400
-136.1280 1082.2320 66.0800
-132.0480 1082.2080 69.4400
-132.0480 1087.6640 -69.4400
106.7500 1091.5000 -87.5000
106.7500 1084.6250 87.5000
-110.7500 1081.5000 87.5000
-110.7500 1081.5000 87.5000
-110.7500 1088.3750 -87.5000
126.8640 1091.3840 -69.4400
84.8960 1083.3520 104.1600
-83.6320 1080.8480 107.5200
-87.7120 1080.8720 104.1600
-87.7120 1089.0560 -104.1600
144.2420 1091.1820 -50.8200
62.2980 1082.1810 118.5800
-56.8860 1080.3240 124.4600
-64.0260 1080.3660 118.5800
-64.0260 1089.6830 -118.5800
157.8880 1090.8880 -32.4800
39.9520 1081.1840 129.9200
-32.6240 1079.9760 136.6400
-40.7840 1080.0240 129.9200
-40.7840 1090.2320 -129.9200
166.8060 1090.4960 -15.2600
18.8540 1080.4330 137.3400
-12.9580 1079.8520 142.3800
-19.0780 1079.8880 137.3400
-19.0780 1090.6790 -137.3400
0.0000 1091.0000 -139.0000
171.0000 1090.0000 0.0000
-178.0000 1085.0000 0.0000
-178.0000 1085.0000 0.0000
-178.0000 1085.0000 0.0000
18.9225 1091.2240 -136.3635
167.7825 1089.2970 15.2195
-180.7425 1084.4280 10.2155
-174.5865 1084.3920 15.2195
-174.5865 1085.5910 -15.1915
40.1200 1091.3920 -129.0080
158.8000 1088.3360 32.4160
-173.2800 1083.7440 25.7440
-165.0720 1083.6960 32.4160
-165.0720 1086.2480 -32.3120
62.5875 1091.4980 -117.7645
145.0575 1087.1890 50.7465
-157.7275 1082.9960 44.9085
-150.5455 1082.9540 50.7465
-150.5455 1086.9470 -50.5305
85.3200 1091.5360 -103.4640
127.5600 1085.9280 69.3680
-136.2000 1082.2320 66.0320
-132.0960 1082.2080 69.3680
-132.0960 1087.6640 -69.0160
107.3125 1091.5000 -86.9375
107.3125 1084.6250 87.4375
-110.8125 1081.5000 87.4375
-110.8125 1081.5000 87.4375
-110.8125 1088.3750 -86.9375
127.5600 1091.3840 -69.0160
85.3200 1083.3520 104.1120
-83.6800 1080.8480 107.4480
-87.7840 1080.8720 104.1120
-87.7840 1089.0560 -103.4640
145.0575 1091.1820 -50.5305
62.5875 1082.1810 118.5485
-56.9175 1080.3240 124.3865
-64.0995 1080.3660 118.5485
-64.0995 1089.6830 -117.7645
158.8000 1090.8880 -32.3120
40.1200 1081.1840 129.9040
-32.6400 1079.9760 136.5760
-40.8480 1080.0240 129.9040
-40.8480 1090.2320 -129.0080
167.7825 1090.4960 -15.1915
18.9225 1080.4330 137.3355
