ply
format ascii 1.0
element vertex 558
property float x
property float y
property float z
element face 0
property list uchar int vertex_index
end_header
0.7071 1892.0000 -0.7071
1.4142 1892.0000 -1.4142
2.1213 1892.0000 -2.1213
36.7696 1892.0000 -36.7696
37.4767 1892.0000 -37.4767
38.1838 1892.0000 -38.1838
0.7071 1893.0000 -0.7071
1.4142 1893.0000 -1.4142
2.1213 1893.0000 -2.1213
36.7696 1893.0000 -36.7696
37.4767 1893.0000 -37.4767
0.7071 1894.0000 -0.7071
1.4142 1894.0000 -1.4142
2.1213 1894.0000 -2.1213
36.7696 1894.0000 -36.7696
37.4767 1894.0000 -37.4767
0.7071 1895.0000 -0.7071
1.4142 1895.0000 -1.4142
2.1213 1895.0000 -2.1213
2.8284 1895.0000 -2.8284
36.7696 1895.0000 -36.7696
37.4767 1895.0000 -37.4767
0.7071 1896.0000 -0.7071
1.4142 1896.0000 -1.4142
2.1213 1896.0000 -2.1213
2.8284 1896.0000 -2.8284
36.7696 1896.0000 -36.7696
37.4767 1896.0000 -37.4767
38.1838 1896.0000 -38.1838
1.4142 1897.0000 -1.4142
2.1213 1897.0000 -2.1213
2.8284 1897.0000 -2.8284
36.7696 1897.0000 -36.7696
37.4767 1897.0000 -37.4767
38.1838 1897.0000 -38.1838
1.4142 1898.0000 -1.4142
2.1213 1898.0000 -2.1213
2.8284 1898.0000 -2.8284
36.7696 1898.0000 -36.7696
37.4767 1898.0000 -37.4767
38.1838 1898.0000 -38.1838
1.4142 1899.0000 -1.4142
2.1213 1899.0000 -2.1213
2.8284 1899.0000 -2.8284
36.7696 1899.0000 -36.7696
37.4767 1899.0000 -37.4767
1.4142 1900.0000 -1.4142
2.1213 1900.0000 -2.1213
2.8284 1900.0000 -2.8284
36.7696 1900.0000 -36.7696
37.4767 1900.0000 -37.4767
1.4142 1901.0000 -1.4142
2.1213 1901.0000 -2.1213
2.8284 1901.0000 -2.8284
37.4767 1901.0000 -37.4767
2.1213 1902.0000 -2.1213
2.8284 1902.0000 -2.8284
37.4767 1902.0000 -37.4767
2.1213 1903.0000 -2.1213
2.8284 1903.0000 -2.8284
37.4767 1903.0000 -37.4767
38.1838 1903.0000 -38.1838
1.4142 1904.0000 -1.4142
2.1213 1904.0000 -2.1213
2.8284 1904.0000 -2.8284
37.4767 1904.0000 -37.4767
38.1838 1904.0000 -38.1838
1.4142 1905.0000 -1.4142
2.1213 1905.0000 -2.1213
2.8284 1905.0000 -2.8284
3.5355 1905.0000 -3.5355
37.4767 1905.0000 -37.4767
38.1838 1905.0000 -38.1838
1.4142 1906.0000 -1.4142
2.1213 1906.0000 -2.1213
2.8284 1906.0000 -2.8284
3.5355 1906.0000 -3.5355
37.4767 1906.0000 -37.4767
38.1838 1906.0000 -38.1838
1.4142 1907.0000 -1.4142
2.1213 1907.0000 -2.1213
2.8284 1907.0000 -2.8284
3.5355 1907.0000 -3.5355
37.4767 1907.0000 -37.4767
38.1838 1907.0000 -38.1838
1.4142 1908.0000 -1.4142
2.1213 1908.0000 -2.1213
2.8284 1908.0000 -2.8284
3.5355 1908.0000 -3.5355
37.4767 1908.0000 -37.4767
38.1838 1908.0000 -38.1838
38.8909 1908.0000 -38.8909
1.4142 1909.0000 -1.4142
2.1213 1909.0000 -2.1213
2.8284 1909.0000 -2.8284
3.5355 1909.0000 -3.5355
37.4767 1909.0000 -37.4767
38.1838 1909.0000 -38.1838
38.8909 1909.0000 -38.8909
2.1213 1910.0000 -2.1213
2.8284 1910.0000 -2.8284
38.1838 1910.0000 -38.1838
38.8909 1910.0000 -38.8909
2.1213 1911.0000 -2.1213
2.8284 1911.0000 -2.8284
38.1838 1911.0000 -38.1838
38.8909 1911.0000 -38.8909
1.4142 1912.0000 -1.4142
2.1213 1912.0000 -2.1213
2.8284 1912.0000 -2.8284
38.1838 1912.0000 -38.1838
38.8909 1912.0000 -38.8909
1.4142 1913.0000 -1.4142
2.1213 1913.0000 -2.1213
2.8284 1913.0000 -2.8284
38.1838 1913.0000 -38.1838
38.8909 1913.0000 -38.8909
1.4142 1914.0000 -1.4142
2.1213 1914.0000 -2.1213
2.8284 1914.0000 -2.8284
38.1838 1914.0000 -38.1838
38.8909 1914.0000 -38.8909
39.5980 1914.0000 -39.5980
1.4142 1915.0000 -1.4142
2.1213 1915.0000 -2.1213
2.8284 1915.0000 -2.8284
38.1838 1915.0000 -38.1838
38.8909 1915.0000 -38.8909
39.5980 1915.0000 -39.5980
1.4142 1916.0000 -1.4142
2.1213 1916.0000 -2.1213
2.8284 1916.0000 -2.8284
38.8909 1916.0000 -38.8909
39.5980 1916.0000 -39.5980
1.4142 1917.0000 -1.4142
2.1213 1917.0000 -2.1213
2.8284 1917.0000 -2.8284
38.8909 1917.0000 -38.8909
0.7071 1918.0000 -0.7071
1.4142 1918.0000 -1.4142
2.1213 1918.0000 -2.1213
2.8284 1918.0000 -2.8284
38.8909 1918.0000 -38.8909
0.7071 1919.0000 -0.7071
1.4142 1919.0000 -1.4142
2.1213 1919.0000 -2.1213
2.8284 1919.0000 -2.8284
38.8909 1919.0000 -38.8909
39.5980 1919.0000 -39.5980
0.7071 1920.0000 -0.7071
1.4142 1920.0000 -1.4142
2.1213 1920.0000 -2.1213
2.8284 1920.0000 -2.8284
38.8909 1920.0000 -38.8909
39.5980 1920.0000 -39.5980
0.7071 1921.0000 -0.7071
1.4142 1921.0000 -1.4142
2.1213 1921.0000 -2.1213
38.8909 1921.0000 -38.8909
39.5980 1921.0000 -39.5980
0.7071 1922.0000 -0.7071
1.4142 1922.0000 -1.4142
2.1213 1922.0000 -2.1213
38.8909 1922.0000 -38.8909
39.5980 1922.0000 -39.5980
0.7071 1923.0000 -0.7071
1.4142 1923.0000 -1.4142
2.1213 1923.0000 -2.1213
38.8909 1923.0000 -38.8909
39.5980 1923.0000 -39.5980
0.7071 1924.0000 -0.7071
1.4142 1924.0000 -1.4142
2.1213 1924.0000 -2.1213
38.8909 1924.0000 -38.8909
39.5980 1924.0000 -39.5980
0.7071 1925.0000 -0.7071
1.4142 1925.0000 -1.4142
2.1213 1925.0000 -2.1213
38.8909 1925.0000 -38.8909
39.5980 1925.0000 -39.5980
0.7071 1926.0000 -0.7071
1.4142 1926.0000 -1.4142
2.1213 1926.0000 -2.1213
38.8909 1926.0000 -38.8909
0.7071 1927.0000 -0.7071
1.4142 1927.0000 -1.4142
2.1213 1927.0000 -2.1213
38.8909 1927.0000 -38.8909
39.5980 1927.0000 -39.5980
0.7071 1928.0000 -0.7071
1.4142 1928.0000 -1.4142
38.8909 1928.0000 -38.8909
39.5980 1928.0000 -39.5980
0.7071 1929.0000 -0.7071
1.4142 1929.0000 -1.4142
2.1213 1929.0000 -2.1213
38.8909 1929.0000 -38.8909
39.5980 1929.0000 -39.5980
40.3051 1929.0000 -40.3051
0.7071 1930.0000 -0.7071
1.4142 1930.0000 -1.4142
2.1213 1930.0000 -2.1213
38.8909 1930.0000 -38.8909
39.5980 1930.0000 -39.5980
40.3051 1930.0000 -40.3051
0.7071 1931.0000 -0.7071
1.4142 1931.0000 -1.4142
2.1213 1931.0000 -2.1213
38.8909 1931.0000 -38.8909
39.5980 1931.0000 -39.5980
40.3051 1931.0000 -40.3051
0.7071 1932.0000 -0.7071
1.4142 1932.0000 -1.4142
2.1213 1932.0000 -2.1213
38.8909 1932.0000 -38.8909
39.5980 1932.0000 -39.5980
0.7071 1933.0000 -0.7071
1.4142 1933.0000 -1.4142
38.8909 1933.0000 -38.8909
39.5980 1933.0000 -39.5980
0.7071 1934.0000 -0.7071
1.4142 1934.0000 -1.4142
38.8909 1934.0000 -38.8909
39.5980 1934.0000 -39.5980
0.7071 1935.0000 -0.7071
1.4142 1935.0000 -1.4142
38.8909 1935.0000 -38.8909
0.7071 1936.0000 -0.7071
1.4142 1936.0000 -1.4142
0.7071 1937.0000 -0.7071
1.4142 1937.0000 -1.4142
0.7071 1938.0000 -0.7071
1.4142 1938.0000 -1.4142
38.1838 1938.0000 -38.1838
0.7071 1939.0000 -0.7071
1.4142 1939.0000 -1.4142
37.4767 1939.0000 -37.4767
38.1838 1939.0000 -38.1838
0.7071 1940.0000 -0.7071
1.4142 1940.0000 -1.4142
2.1213 1940.0000 -2.1213
37.4767 1940.0000 -37.4767
38.1838 1940.0000 -38.1838
0.7071 1941.0000 -0.7071
1.4142 1941.0000 -1.4142
2.1213 1941.0000 -2.1213
37.4767 1941.0000 -37.4767
38.1838 1941.0000 -38.1838
0.7071 1942.0000 -0.7071
1.4142 1942.0000 -1.4142
2.1213 1942.0000 -2.1213
36.7696 1942.0000 -36.7696
37.4767 1942.0000 -37.4767
38.1838 1942.0000 -38.1838
0.7071 1943.0000 -0.7071
1.4142 1943.0000 -1.4142
36.7696 1943.0000 -36.7696
37.4767 1943.0000 -37.4767
0.7071 1944.0000 -0.7071
36.7696 1944.0000 -36.7696
37.4767 1944.0000 -37.4767
36.0624 1945.0000 -36.0624
36.7696 1945.0000 -36.7696
37.4767 1945.0000 -37.4767
36.0624 1946.0000 -36.0624
36.7696 1946.0000 -36.7696
37.4767 1946.0000 -37.4767
36.0624 1947.0000 -36.0624
36.7696 1947.0000 -36.7696
37.4767 1947.0000 -37.4767
36.0624 1948.0000 -36.0624
36.7696 1948.0000 -36.7696
36.0624 1949.0000 -36.0624
36.7696 1949.0000 -36.7696
36.0624 1950.0000 -36.0624
36.7696 1950.0000 -36.7696
36.0624 1951.0000 -36.0624
36.7696 1951.0000 -36.7696
36.0624 1952.0000 -36.0624
36.7696 1952.0000 -36.7696
36.0624 1953.0000 -36.0624
36.7696 1953.0000 -36.7696
35.3553 1954.0000 -35.3553
36.0624 1954.0000 -36.0624
36.7696 1954.0000 -36.7696
37.4767 1954.0000 -37.4767
35.3553 1955.0000 -35.3553
36.0624 1955.0000 -36.0624
36.7696 1955.0000 -36.7696
35.3553 1956.0000 -35.3553
36.0624 1956.0000 -36.0624
36.7696 1956.0000 -36.7696
35.3553 1957.0000 -35.3553
36.0624 1957.0000 -36.0624
36.7696 1957.0000 -36.7696
35.3553 1958.0000 -35.3553
36.0624 1958.0000 -36.0624
36.7696 1958.0000 -36.7696
34.6482 1959.0000 -34.6482
35.3553 1959.0000 -35.3553
36.0624 1959.0000 -36.0624
36.7696 1959.0000 -36.7696
37.4767 1959.0000 -37.4767
34.6482 1960.0000 -34.6482
35.3553 1960.0000 -35.3553
36.0624 1960.0000 -36.0624
36.7696 1960.0000 -36.7696
37.4767 1960.0000 -37.4767
34.6482 1961.0000 -34.6482
35.3553 1961.0000 -35.3553
36.0624 1961.0000 -36.0624
36.7696 1961.0000 -36.7696
37.4767 1961.0000 -37.4767
36.0624 1962.0000 -36.0624
36.7696 1962.0000 -36.7696
37.4767 1962.0000 -37.4767
36.7696 1963.0000 -36.7696
37.4767 1963.0000 -37.4767
37.4767 1964.0000 -37.4767
37.4767 1965.0000 -37.4767
38.1838 1965.0000 -38.1838
37.4767 1966.0000 -37.4767
38.1838 1966.0000 -38.1838
37.4767 1967.0000 -37.4767
38.1838 1967.0000 -38.1838
38.1838 1968.0000 -38.1838
38.1838 1969.0000 -38.1838
38.8909 1969.0000 -38.8909
38.1838 1970.0000 -38.1838
38.8909 1970.0000 -38.8909
38.1838 1971.0000 -38.1838
38.8909 1971.0000 -38.8909
38.8909 1972.0000 -38.8909
4.9497 1973.0000 -4.9497
5.6569 1973.0000 -5.6569
6.3640 1973.0000 -6.3640
7.0711 1973.0000 -7.0711
38.8909 1973.0000 -38.8909
39.5980 1973.0000 -39.5980
3.5355 1974.0000 -3.5355
4.2426 1974.0000 -4.2426
4.9497 1974.0000 -4.9497
5.6569 1974.0000 -5.6569
6.3640 1974.0000 -6.3640
7.0711 1974.0000 -7.0711
7.7782 1974.0000 -7.7782
8.4853 1974.0000 -8.4853
38.8909 1974.0000 -38.8909
39.5980 1974.0000 -39.5980
2.8284 1975.0000 -2.8284
3.5355 1975.0000 -3.5355
4.2426 1975.0000 -4.2426
4.9497 1975.0000 -4.9497
5.6569 1975.0000 -5.6569
6.3640 1975.0000 -6.3640
7.0711 1975.0000 -7.0711
7.7782 1975.0000 -7.7782
8.4853 1975.0000 -8.4853
9.1924 1975.0000 -9.1924
38.8909 1975.0000 -38.8909
39.5980 1975.0000 -39.5980
2.1213 1976.0000 -2.1213
2.8284 1976.0000 -2.8284
9.1924 1976.0000 -9.1924
38.8909 1976.0000 -38.8909
39.5980 1976.0000 -39.5980
39.5980 1977.0000 -39.5980
40.3051 1977.0000 -40.3051
39.5980 1978.0000 -39.5980
40.3051 1978.0000 -40.3051
0.7071 1979.0000 -0.7071
4.9497 1979.0000 -4.9497
39.5980 1979.0000 -39.5980
40.3051 1979.0000 -40.3051
0.7071 1980.0000 -0.7071
1.4142 1980.0000 -1.4142
3.5355 1980.0000 -3.5355
4.2426 1980.0000 -4.2426
4.9497 1980.0000 -4.9497
39.5980 1980.0000 -39.5980
40.3051 1980.0000 -40.3051
1.4142 1981.0000 -1.4142
2.1213 1981.0000 -2.1213
2.8284 1981.0000 -2.8284
3.5355 1981.0000 -3.5355
39.5980 1981.0000 -39.5980
40.3051 1981.0000 -40.3051
38.8909 1982.0000 -38.8909
39.5980 1982.0000 -39.5980
40.3051 1982.0000 -40.3051
38.8909 1983.0000 -38.8909
39.5980 1983.0000 -39.5980
40.3051 1983.0000 -40.3051
38.8909 1984.0000 -38.8909
39.5980 1984.0000 -39.5980
38.8909 1985.0000 -38.8909
39.5980 1985.0000 -39.5980
38.8909 1986.0000 -38.8909
38.8909 1987.0000 -38.8909
39.5980 1987.0000 -39.5980
38.1838 1988.0000 -38.1838
38.8909 1988.0000 -38.8909
39.5980 1988.0000 -39.5980
38.1838 1989.0000 -38.1838
38.8909 1989.0000 -38.8909
39.5980 1989.0000 -39.5980
9.1924 1990.0000 -9.1924
38.1838 1990.0000 -38.1838
38.8909 1990.0000 -38.8909
37.4767 1991.0000 -37.4767
38.1838 1991.0000 -38.1838
38.8909 1991.0000 -38.8909
24.0416 1992.0000 -24.0416
24.7487 1992.0000 -24.7487
25.4558 1992.0000 -25.4558
26.1630 1992.0000 -26.1630
36.7696 1992.0000 -36.7696
37.4767 1992.0000 -37.4767
38.1838 1992.0000 -38.1838
38.8909 1992.0000 -38.8909
9.8995 1993.0000 -9.8995
10.6066 1993.0000 -10.6066
11.3137 1993.0000 -11.3137
23.3345 1993.0000 -23.3345
24.0416 1993.0000 -24.0416
24.7487 1993.0000 -24.7487
25.4558 1993.0000 -25.4558
26.1630 1993.0000 -26.1630
36.0624 1993.0000 -36.0624
36.7696 1993.0000 -36.7696
37.4767 1993.0000 -37.4767
38.1838 1993.0000 -38.1838
5.6569 1994.0000 -5.6569
6.3640 1994.0000 -6.3640
9.1924 1994.0000 -9.1924
9.8995 1994.0000 -9.8995
10.6066 1994.0000 -10.6066
11.3137 1994.0000 -11.3137
21.9203 1994.0000 -21.9203
22.6274 1994.0000 -22.6274
23.3345 1994.0000 -23.3345
24.0416 1994.0000 -24.0416
24.7487 1994.0000 -24.7487
25.4558 1994.0000 -25.4558
26.1630 1994.0000 -26.1630
26.8701 1994.0000 -26.8701
29.6985 1994.0000 -29.6985
30.4056 1994.0000 -30.4056
31.1127 1994.0000 -31.1127
33.2340 1994.0000 -33.2340
33.9411 1994.0000 -33.9411
34.6482 1994.0000 -34.6482
35.3553 1994.0000 -35.3553
36.0624 1994.0000 -36.0624
36.7696 1994.0000 -36.7696
37.4767 1994.0000 -37.4767
3.5355 1995.0000 -3.5355
4.2426 1995.0000 -4.2426
4.9497 1995.0000 -4.9497
5.6569 1995.0000 -5.6569
6.3640 1995.0000 -6.3640
7.0711 1995.0000 -7.0711
8.4853 1995.0000 -8.4853
9.1924 1995.0000 -9.1924
9.8995 1995.0000 -9.8995
10.6066 1995.0000 -10.6066
11.3137 1995.0000 -11.3137
12.0208 1995.0000 -12.0208
12.7279 1995.0000 -12.7279
13.4350 1995.0000 -13.4350
14.1421 1995.0000 -14.1421
14.8492 1995.0000 -14.8492
15.5563 1995.0000 -15.5563
16.2635 1995.0000 -16.2635
16.9706 1995.0000 -16.9706
17.6777 1995.0000 -17.6777
18.3848 1995.0000 -18.3848
19.0919 1995.0000 -19.0919
19.7990 1995.0000 -19.7990
20.5061 1995.0000 -20.5061
21.2132 1995.0000 -21.2132
21.9203 1995.0000 -21.9203
22.6274 1995.0000 -22.6274
23.3345 1995.0000 -23.3345
24.0416 1995.0000 -24.0416
26.8701 1995.0000 -26.8701
27.5772 1995.0000 -27.5772
28.2843 1995.0000 -28.2843
28.9914 1995.0000 -28.9914
29.6985 1995.0000 -29.6985
30.4056 1995.0000 -30.4056
31.1127 1995.0000 -31.1127
31.8198 1995.0000 -31.8198
32.5269 1995.0000 -32.5269
33.2340 1995.0000 -33.2340
33.9411 1995.0000 -33.9411
34.6482 1995.0000 -34.6482
35.3553 1995.0000 -35.3553
36.0624 1995.0000 -36.0624
36.7696 1995.0000 -36.7696
0.7071 1996.0000 -0.7071
1.4142 1996.0000 -1.4142
2.1213 1996.0000 -2.1213
2.8284 1996.0000 -2.8284
3.5355 1996.0000 -3.5355
4.2426 1996.0000 -4.2426
4.9497 1996.0000 -4.9497
5.6569 1996.0000 -5.6569
6.3640 1996.0000 -6.3640
7.0711 1996.0000 -7.0711
9.8995 1996.0000 -9.8995
10.6066 1996.0000 -10.6066
11.3137 1996.0000 -11.3137
12.0208 1996.0000 -12.0208
12.7279 1996.0000 -12.7279
13.4350 1996.0000 -13.4350
14.1421 1996.0000 -14.1421
14.8492 1996.0000 -14.8492
15.5563 1996.0000 -15.5563
16.2635 1996.0000 -16.2635
16.9706 1996.0000 -16.9706
17.6777 1996.0000 -17.6777
18.3848 1996.0000 -18.3848
19.0919 1996.0000 -19.0919
19.7990 1996.0000 -19.7990
20.5061 1996.0000 -20.5061
21.2132 1996.0000 -21.2132
21.9203 1996.0000 -21.9203
22.6274 1996.0000 -22.6274
23.3345 1996.0000 -23.3345
28.9914 1996.0000 -28.9914
29.6985 1996.0000 -29.6985
30.4056 1996.0000 -30.4056
31.1127 1996.0000 -31.1127
31.8198 1996.0000 -31.8198
32.5269 1996.0000 -32.5269
33.2340 1996.0000 -33.2340
33.9411 1996.0000 -33.9411
34.6482 1996.0000 -34.6482
35.3553 1996.0000 -35.3553
36.0624 1996.0000 -36.0624
36.7696 1996.0000 -36.7696
0.7071 1997.0000 -0.7071
1.4142 1997.0000 -1.4142
2.1213 1997.0000 -2.1213
2.8284 1997.0000 -2.8284
3.5355 1997.0000 -3.5355
4.2426 1997.0000 -4.2426
4.9497 1997.0000 -4.9497
14.8492 1997.0000 -14.8492
15.5563 1997.0000 -15.5563
16.2635 1997.0000 -16.2635
16.9706 1997.0000 -16.9706
19.0919 1997.0000 -19.0919
33.9411 1997.0000 -33.9411
34.6482 1997.0000 -34.6482
35.3553 1997.0000 -35.3553
36.0624 1997.0000 -36.0624
