ply
format ascii 1.0
element vertex 972
property float x
property float y
property float z
element face 0
property list uchar int vertex_index
end_header
0.7071 1955.0000 0.7071
1.4142 1955.0000 1.4142
0.7071 1956.0000 0.7071
1.4142 1956.0000 1.4142
2.1213 1956.0000 2.1213
2.8284 1956.0000 2.8284
3.5355 1956.0000 3.5355
4.2426 1956.0000 4.2426
4.9497 1956.0000 4.9497
5.6569 1956.0000 5.6569
6.3640 1956.0000 6.3640
7.0711 1956.0000 7.0711
7.7782 1956.0000 7.7782
8.4853 1956.0000 8.4853
9.1924 1956.0000 9.1924
9.8995 1956.0000 9.8995
10.6066 1956.0000 10.6066
11.3137 1956.0000 11.3137
0.7071 1957.0000 0.7071
1.4142 1957.0000 1.4142
2.1213 1957.0000 2.1213
2.8284 1957.0000 2.8284
3.5355 1957.0000 3.5355
4.2426 1957.0000 4.2426
4.9497 1957.0000 4.9497
5.6569 1957.0000 5.6569
6.3640 1957.0000 6.3640
7.0711 1957.0000 7.0711
7.7782 1957.0000 7.7782
8.4853 1957.0000 8.4853
9.1924 1957.0000 9.1924
9.8995 1957.0000 9.8995
10.6066 1957.0000 10.6066
11.3137 1957.0000 11.3137
12.0208 1957.0000 12.0208
12.7279 1957.0000 12.7279
15.5563 1957.0000 15.5563
7.0711 1958.0000 7.0711
7.7782 1958.0000 7.7782
8.4853 1958.0000 8.4853
9.1924 1958.0000 9.1924
9.8995 1958.0000 9.8995
10.6066 1958.0000 10.6066
11.3137 1958.0000 11.3137
12.0208 1958.0000 12.0208
12.7279 1958.0000 12.7279
13.4350 1958.0000 13.4350
14.1421 1958.0000 14.1421
14.8492 1958.0000 14.8492
15.5563 1958.0000 15.5563
16.2635 1958.0000 16.2635
16.9706 1958.0000 16.9706
17.6777 1958.0000 17.6777
18.3848 1958.0000 18.3848
19.0919 1958.0000 19.0919
19.7990 1958.0000 19.7990
20.5061 1958.0000 20.5061
21.2132 1958.0000 21.2132
21.9203 1958.0000 21.9203
22.6274 1958.0000 22.6274
23.3345 1958.0000 23.3345
24.0416 1958.0000 24.0416
24.7487 1958.0000 24.7487
25.4558 1958.0000 25.4558
15.5563 1959.0000 15.5563
16.2635 1959.0000 16.2635
16.9706 1959.0000 16.9706
17.6777 1959.0000 17.6777
18.3848 1959.0000 18.3848
19.0919 1959.0000 19.0919
19.7990 1959.0000 19.7990
20.5061 1959.0000 20.5061
21.2132 1959.0000 21.2132
21.9203 1959.0000 21.9203
22.6274 1959.0000 22.6274
23.3345 1959.0000 23.3345
24.0416 1959.0000 24.0416
24.7487 1959.0000 24.7487
25.4558 1959.0000 25.4558
26.1630 1959.0000 26.1630
26.8701 1959.0000 26.8701
27.5772 1959.0000 27.5772
28.2843 1959.0000 28.2843
28.9914 1959.0000 28.9914
29.6985 1959.0000 29.6985
30.4056 1959.0000 30.4056
31.1127 1959.0000 31.1127
31.8198 1959.0000 31.8198
17.6777 1960.0000 17.6777
18.3848 1960.0000 18.3848
19.0919 1960.0000 19.0919
19.7990 1960.0000 19.7990
20.5061 1960.0000 20.5061
21.9203 1960.0000 21.9203
22.6274 1960.0000 22.6274
23.3345 1960.0000 23.3345
24.0416 1960.0000 24.0416
24.7487 1960.0000 24.7487
25.4558 1960.0000 25.4558
26.1630 1960.0000 26.1630
26.8701 1960.0000 26.8701
27.5772 1960.0000 27.5772
28.2843 1960.0000 28.2843
28.9914 1960.0000 28.9914
29.6985 1960.0000 29.6985
30.4056 1960.0000 30.4056
31.1127 1960.0000 31.1127
31.8198 1960.0000 31.8198
32.5269 1960.0000 32.5269
33.2340 1960.0000 33.2340
33.9411 1960.0000 33.9411
34.6482 1960.0000 34.6482
27.5772 1961.0000 27.5772
28.2843 1961.0000 28.2843
28.9914 1961.0000 28.9914
29.6985 1961.0000 29.6985
30.4056 1961.0000 30.4056
31.1127 1961.0000 31.1127
31.8198 1961.0000 31.8198
32.5269 1961.0000 32.5269
33.2340 1961.0000 33.2340
33.9411 1961.0000 33.9411
34.6482 1961.0000 34.6482
35.3553 1961.0000 35.3553
36.0624 1961.0000 36.0624
36.7696 1961.0000 36.7696
37.4767 1961.0000 37.4767
32.5269 1962.0000 32.5269
33.2340 1962.0000 33.2340
33.9411 1962.0000 33.9411
34.6482 1962.0000 34.6482
35.3553 1962.0000 35.3553
36.0624 1962.0000 36.0624
36.7696 1962.0000 36.7696
37.4767 1962.0000 37.4767
38.1838 1962.0000 38.1838
41.0122 1962.0000 41.0122
34.6482 1963.0000 34.6482
35.3553 1963.0000 35.3553
36.0624 1963.0000 36.0624
36.7696 1963.0000 36.7696
37.4767 1963.0000 37.4767
38.1838 1963.0000 38.1838
38.8909 1963.0000 38.8909
39.5980 1963.0000 39.5980
40.3051 1963.0000 40.3051
41.0122 1963.0000 41.0122
41.7193 1963.0000 41.7193
42.4264 1963.0000 42.4264
43.1335 1963.0000 43.1335
43.8406 1963.0000 43.8406
44.5477 1963.0000 44.5477
45.2548 1963.0000 45.2548
45.9619 1963.0000 45.9619
46.6690 1963.0000 46.6690
47.3762 1963.0000 47.3762
48.0833 1963.0000 48.0833
36.0624 1964.0000 36.0624
36.7696 1964.0000 36.7696
37.4767 1964.0000 37.4767
38.1838 1964.0000 38.1838
38.8909 1964.0000 38.8909
39.5980 1964.0000 39.5980
40.3051 1964.0000 40.3051
41.0122 1964.0000 41.0122
41.7193 1964.0000 41.7193
42.4264 1964.0000 42.4264
43.1335 1964.0000 43.1335
43.8406 1964.0000 43.8406
44.5477 1964.0000 44.5477
45.2548 1964.0000 45.2548
45.9619 1964.0000 45.9619
46.6690 1964.0000 46.6690
47.3762 1964.0000 47.3762
48.0833 1964.0000 48.0833
48.7904 1964.0000 48.7904
49.4975 1964.0000 49.4975
50.2046 1964.0000 50.2046
50.9117 1964.0000 50.9117
30.4056 1965.0000 30.4056
31.1127 1965.0000 31.1127
37.4767 1965.0000 37.4767
38.1838 1965.0000 38.1838
38.8909 1965.0000 38.8909
39.5980 1965.0000 39.5980
40.3051 1965.0000 40.3051
41.0122 1965.0000 41.0122
41.7193 1965.0000 41.7193
42.4264 1965.0000 42.4264
43.1335 1965.0000 43.1335
45.2548 1965.0000 45.2548
45.9619 1965.0000 45.9619
46.6690 1965.0000 46.6690
47.3762 1965.0000 47.3762
48.0833 1965.0000 48.0833
48.7904 1965.0000 48.7904
49.4975 1965.0000 49.4975
50.2046 1965.0000 50.2046
50.9117 1965.0000 50.9117
51.6188 1965.0000 51.6188
52.3259 1965.0000 52.3259
53.0330 1965.0000 53.0330
53.7401 1965.0000 53.7401
31.8198 1966.0000 31.8198
32.5269 1966.0000 32.5269
33.2340 1966.0000 33.2340
33.9411 1966.0000 33.9411
40.3051 1966.0000 40.3051
41.0122 1966.0000 41.0122
41.7193 1966.0000 41.7193
42.4264 1966.0000 42.4264
43.1335 1966.0000 43.1335
49.4975 1966.0000 49.4975
50.2046 1966.0000 50.2046
50.9117 1966.0000 50.9117
51.6188 1966.0000 51.6188
52.3259 1966.0000 52.3259
53.0330 1966.0000 53.0330
53.7401 1966.0000 53.7401
54.4472 1966.0000 54.4472
55.1543 1966.0000 55.1543
55.8614 1966.0000 55.8614
56.5685 1966.0000 56.5685
57.2756 1966.0000 57.2756
67.8823 1966.0000 67.8823
68.5894 1966.0000 68.5894
69.2965 1966.0000 69.2965
18.3848 1967.0000 18.3848
19.0919 1967.0000 19.0919
19.7990 1967.0000 19.7990
20.5061 1967.0000 20.5061
21.2132 1967.0000 21.2132
21.9203 1967.0000 21.9203
22.6274 1967.0000 22.6274
23.3345 1967.0000 23.3345
24.0416 1967.0000 24.0416
24.7487 1967.0000 24.7487
33.2340 1967.0000 33.2340
33.9411 1967.0000 33.9411
34.6482 1967.0000 34.6482
35.3553 1967.0000 35.3553
36.0624 1967.0000 36.0624
36.7696 1967.0000 36.7696
42.4264 1967.0000 42.4264
43.1335 1967.0000 43.1335
43.8406 1967.0000 43.8406
44.5477 1967.0000 44.5477
45.2548 1967.0000 45.2548
52.3259 1967.0000 52.3259
53.0330 1967.0000 53.0330
53.7401 1967.0000 53.7401
54.4472 1967.0000 54.4472
55.1543 1967.0000 55.1543
55.8614 1967.0000 55.8614
56.5685 1967.0000 56.5685
57.2756 1967.0000 57.2756
57.9828 1967.0000 57.9828
58.6899 1967.0000 58.6899
59.3970 1967.0000 59.3970
60.1041 1967.0000 60.1041
60.8112 1967.0000 60.8112
61.5183 1967.0000 61.5183
62.2254 1967.0000 62.2254
62.9325 1967.0000 62.9325
63.6396 1967.0000 63.6396
64.3467 1967.0000 64.3467
65.0538 1967.0000 65.0538
65.7609 1967.0000 65.7609
66.4680 1967.0000 66.4680
67.1751 1967.0000 67.1751
67.8823 1967.0000 67.8823
68.5894 1967.0000 68.5894
69.2965 1967.0000 69.2965
70.0036 1967.0000 70.0036
70.7107 1967.0000 70.7107
19.7990 1968.0000 19.7990
20.5061 1968.0000 20.5061
21.2132 1968.0000 21.2132
21.9203 1968.0000 21.9203
22.6274 1968.0000 22.6274
23.3345 1968.0000 23.3345
24.0416 1968.0000 24.0416
24.7487 1968.0000 24.7487
25.4558 1968.0000 25.4558
26.1630 1968.0000 26.1630
35.3553 1968.0000 35.3553
36.0624 1968.0000 36.0624
36.7696 1968.0000 36.7696
37.4767 1968.0000 37.4767
38.1838 1968.0000 38.1838
38.8909 1968.0000 38.8909
43.8406 1968.0000 43.8406
44.5477 1968.0000 44.5477
45.2548 1968.0000 45.2548
45.9619 1968.0000 45.9619
46.6690 1968.0000 46.6690
47.3762 1968.0000 47.3762
48.0833 1968.0000 48.0833
48.7904 1968.0000 48.7904
49.4975 1968.0000 49.4975
55.1543 1968.0000 55.1543
55.8614 1968.0000 55.8614
56.5685 1968.0000 56.5685
57.2756 1968.0000 57.2756
57.9828 1968.0000 57.9828
58.6899 1968.0000 58.6899
59.3970 1968.0000 59.3970
60.1041 1968.0000 60.1041
60.8112 1968.0000 60.8112
61.5183 1968.0000 61.5183
62.2254 1968.0000 62.2254
62.9325 1968.0000 62.9325
63.6396 1968.0000 63.6396
64.3467 1968.0000 64.3467
65.0538 1968.0000 65.0538
65.7609 1968.0000 65.7609
66.4680 1968.0000 66.4680
67.1751 1968.0000 67.1751
67.8823 1968.0000 67.8823
68.5894 1968.0000 68.5894
69.2965 1968.0000 69.2965
70.0036 1968.0000 70.0036
70.7107 1968.0000 70.7107
71.4178 1968.0000 71.4178
72.1249 1968.0000 72.1249
72.8320 1968.0000 72.8320
22.6274 1969.0000 22.6274
23.3345 1969.0000 23.3345
24.0416 1969.0000 24.0416
24.7487 1969.0000 24.7487
25.4558 1969.0000 25.4558
26.1630 1969.0000 26.1630
26.8701 1969.0000 26.8701
36.7696 1969.0000 36.7696
37.4767 1969.0000 37.4767
38.1838 1969.0000 38.1838
38.8909 1969.0000 38.8909
39.5980 1969.0000 39.5980
44.5477 1969.0000 44.5477
45.2548 1969.0000 45.2548
45.9619 1969.0000 45.9619
46.6690 1969.0000 46.6690
47.3762 1969.0000 47.3762
48.0833 1969.0000 48.0833
48.7904 1969.0000 48.7904
49.4975 1969.0000 49.4975
50.2046 1969.0000 50.2046
50.9117 1969.0000 50.9117
51.6188 1969.0000 51.6188
56.5685 1969.0000 56.5685
57.2756 1969.0000 57.2756
57.9828 1969.0000 57.9828
58.6899 1969.0000 58.6899
59.3970 1969.0000 59.3970
60.1041 1969.0000 60.1041
60.8112 1969.0000 60.8112
61.5183 1969.0000 61.5183
62.2254 1969.0000 62.2254
62.9325 1969.0000 62.9325
63.6396 1969.0000 63.6396
64.3467 1969.0000 64.3467
65.0538 1969.0000 65.0538
65.7609 1969.0000 65.7609
66.4680 1969.0000 66.4680
67.1751 1969.0000 67.1751
67.8823 1969.0000 67.8823
68.5894 1969.0000 68.5894
69.2965 1969.0000 69.2965
70.0036 1969.0000 70.0036
70.7107 1969.0000 70.7107
71.4178 1969.0000 71.4178
72.1249 1969.0000 72.1249
72.8320 1969.0000 72.8320
26.1630 1970.0000 26.1630
26.8701 1970.0000 26.8701
27.5772 1970.0000 27.5772
38.1838 1970.0000 38.1838
38.8909 1970.0000 38.8909
39.5980 1970.0000 39.5980
40.3051 1970.0000 40.3051
41.0122 1970.0000 41.0122
41.7193 1970.0000 41.7193
48.7904 1970.0000 48.7904
49.4975 1970.0000 49.4975
50.2046 1970.0000 50.2046
52.3259 1970.0000 52.3259
53.0330 1970.0000 53.0330
53.7401 1970.0000 53.7401
59.3970 1970.0000 59.3970
60.1041 1970.0000 60.1041
60.8112 1970.0000 60.8112
61.5183 1970.0000 61.5183
62.2254 1970.0000 62.2254
62.9325 1970.0000 62.9325
63.6396 1970.0000 63.6396
70.0036 1970.0000 70.0036
70.7107 1970.0000 70.7107
71.4178 1970.0000 71.4178
72.1249 1970.0000 72.1249
72.8320 1970.0000 72.8320
73.5391 1970.0000 73.5391
26.8701 1971.0000 26.8701
27.5772 1971.0000 27.5772
41.0122 1971.0000 41.0122
41.7193 1971.0000 41.7193
42.4264 1971.0000 42.4264
43.1335 1971.0000 43.1335
53.0330 1971.0000 53.0330
53.7401 1971.0000 53.7401
54.4472 1971.0000 54.4472
55.1543 1971.0000 55.1543
60.1041 1971.0000 60.1041
60.8112 1971.0000 60.8112
61.5183 1971.0000 61.5183
62.2254 1971.0000 62.2254
62.9325 1971.0000 62.9325
63.6396 1971.0000 63.6396
64.3467 1971.0000 64.3467
65.0538 1971.0000 65.0538
70.7107 1971.0000 70.7107
71.4178 1971.0000 71.4178
72.1249 1971.0000 72.1249
72.8320 1971.0000 72.8320
73.5391 1971.0000 73.5391
27.5772 1972.0000 27.5772
28.2843 1972.0000 28.2843
41.7193 1972.0000 41.7193
42.4264 1972.0000 42.4264
43.1335 1972.0000 43.1335
53.0330 1972.0000 53.0330
53.7401 1972.0000 53.7401
54.4472 1972.0000 54.4472
55.1543 1972.0000 55.1543
55.8614 1972.0000 55.8614
56.5685 1972.0000 56.5685
61.5183 1972.0000 61.5183
62.2254 1972.0000 62.2254
62.9325 1972.0000 62.9325
63.6396 1972.0000 63.6396
64.3467 1972.0000 64.3467
65.0538 1972.0000 65.0538
65.7609 1972.0000 65.7609
66.4680 1972.0000 66.4680
71.4178 1972.0000 71.4178
72.1249 1972.0000 72.1249
72.8320 1972.0000 72.8320
73.5391 1972.0000 73.5391
28.2843 1973.0000 28.2843
28.9914 1973.0000 28.9914
42.4264 1973.0000 42.4264
43.1335 1973.0000 43.1335
45.2548 1973.0000 45.2548
45.9619 1973.0000 45.9619
46.6690 1973.0000 46.6690
47.3762 1973.0000 47.3762
53.0330 1973.0000 53.0330
53.7401 1973.0000 53.7401
54.4472 1973.0000 54.4472
55.1543 1973.0000 55.1543
55.8614 1973.0000 55.8614
56.5685 1973.0000 56.5685
57.2756 1973.0000 57.2756
57.9828 1973.0000 57.9828
58.6899 1973.0000 58.6899
59.3970 1973.0000 59.3970
60.1041 1973.0000 60.1041
65.7609 1973.0000 65.7609
66.4680 1973.0000 66.4680
67.1751 1973.0000 67.1751
71.4178 1973.0000 71.4178
72.1249 1973.0000 72.1249
72.8320 1973.0000 72.8320
73.5391 1973.0000 73.5391
28.9914 1974.0000 28.9914
43.8406 1974.0000 43.8406
44.5477 1974.0000 44.5477
45.9619 1974.0000 45.9619
46.6690 1974.0000 46.6690
50.9117 1974.0000 50.9117
51.6188 1974.0000 51.6188
52.3259 1974.0000 52.3259
53.0330 1974.0000 53.0330
55.8614 1974.0000 55.8614
56.5685 1974.0000 56.5685
57.2756 1974.0000 57.2756
57.9828 1974.0000 57.9828
58.6899 1974.0000 58.6899
59.3970 1974.0000 59.3970
60.1041 1974.0000 60.1041
66.4680 1974.0000 66.4680
67.1751 1974.0000 67.1751
71.4178 1974.0000 71.4178
72.1249 1974.0000 72.1249
72.8320 1974.0000 72.8320
73.5391 1974.0000 73.5391
28.9914 1975.0000 28.9914
45.2548 1975.0000 45.2548
51.6188 1975.0000 51.6188
52.3259 1975.0000 52.3259
53.0330 1975.0000 53.0330
58.6899 1975.0000 58.6899
59.3970 1975.0000 59.3970
60.1041 1975.0000 60.1041
67.1751 1975.0000 67.1751
67.8823 1975.0000 67.8823
72.1249 1975.0000 72.1249
72.8320 1975.0000 72.8320
73.5391 1975.0000 73.5391
29.6985 1976.0000 29.6985
51.6188 1976.0000 51.6188
52.3259 1976.0000 52.3259
53.0330 1976.0000 53.0330
57.9828 1976.0000 57.9828
58.6899 1976.0000 58.6899
59.3970 1976.0000 59.3970
60.1041 1976.0000 60.1041
67.1751 1976.0000 67.1751
67.8823 1976.0000 67.8823
72.1249 1976.0000 72.1249
72.8320 1976.0000 72.8320
73.5391 1976.0000 73.5391
29.6985 1977.0000 29.6985
30.4056 1977.0000 30.4056
31.1127 1977.0000 31.1127
52.3259 1977.0000 52.3259
60.1041 1977.0000 60.1041
67.1751 1977.0000 67.1751
67.8823 1977.0000 67.8823
72.1249 1977.0000 72.1249
72.8320 1977.0000 72.8320
73.5391 1977.0000 73.5391
29.6985 1978.0000 29.6985
30.4056 1978.0000 30.4056
31.1127 1978.0000 31.1127
31.8198 1978.0000 31.8198
60.1041 1978.0000 60.1041
67.1751 1978.0000 67.1751
67.8823 1978.0000 67.8823
68.5894 1978.0000 68.5894
71.4178 1978.0000 71.4178
72.1249 1978.0000 72.1249
72.8320 1978.0000 72.8320
73.5391 1978.0000 73.5391
29.6985 1979.0000 29.6985
30.4056 1979.0000 30.4056
31.1127 1979.0000 31.1127
31.8198 1979.0000 31.8198
32.5269 1979.0000 32.5269
33.2340 1979.0000 33.2340
60.1041 1979.0000 60.1041
60.8112 1979.0000 60.8112
67.1751 1979.0000 67.1751
67.8823 1979.0000 67.8823
68.5894 1979.0000 68.5894
71.4178 1979.0000 71.4178
72.1249 1979.0000 72.1249
72.8320 1979.0000 72.8320
73.5391 1979.0000 73.5391
29.6985 1980.0000 29.6985
30.4056 1980.0000 30.4056
31.8198 1980.0000 31.8198
32.5269 1980.0000 32.5269
33.2340 1980.0000 33.2340
33.9411 1980.0000 33.9411
60.1041 1980.0000 60.1041
60.8112 1980.0000 60.8112
67.8823 1980.0000 67.8823
71.4178 1980.0000 71.4178
72.1249 1980.0000 72.1249
72.8320 1980.0000 72.8320
73.5391 1980.0000 73.5391
29.6985 1981.0000 29.6985
33.9411 1981.0000 33.9411
60.1041 1981.0000 60.1041
60.8112 1981.0000 60.8112
67.8823 1981.0000 67.8823
71.4178 1981.0000 71.4178
72.1249 1981.0000 72.1249
72.8320 1981.0000 72.8320
73.5391 1981.0000 73.5391
33.9411 1982.0000 33.9411
34.6482 1982.0000 34.6482
35.3553 1982.0000 35.3553
36.0624 1982.0000 36.0624
60.1041 1982.0000 60.1041
60.8112 1982.0000 60.8112
67.1751 1982.0000 67.1751
67.8823 1982.0000 67.8823
70.7107 1982.0000 70.7107
71.4178 1982.0000 71.4178
72.1249 1982.0000 72.1249
72.8320 1982.0000 72.8320
31.8198 1983.0000 31.8198
32.5269 1983.0000 32.5269
33.2340 1983.0000 33.2340
33.9411 1983.0000 33.9411
34.6482 1983.0000 34.6482
35.3553 1983.0000 35.3553
36.0624 1983.0000 36.0624
36.7696 1983.0000 36.7696
37.4767 1983.0000 37.4767
50.2046 1983.0000 50.2046
50.9117 1983.0000 50.9117
51.6188 1983.0000 51.6188
59.3970 1983.0000 59.3970
60.1041 1983.0000 60.1041
66.4680 1983.0000 66.4680
67.1751 1983.0000 67.1751
67.8823 1983.0000 67.8823
70.7107 1983.0000 70.7107
71.4178 1983.0000 71.4178
72.1249 1983.0000 72.1249
72.8320 1983.0000 72.8320
34.6482 1984.0000 34.6482
35.3553 1984.0000 35.3553
36.7696 1984.0000 36.7696
37.4767 1984.0000 37.4767
38.1838 1984.0000 38.1838
50.2046 1984.0000 50.2046
50.9117 1984.0000 50.9117
59.3970 1984.0000 59.3970
60.1041 1984.0000 60.1041
65.7609 1984.0000 65.7609
66.4680 1984.0000 66.4680
67.1751 1984.0000 67.1751
70.7107 1984.0000 70.7107
71.4178 1984.0000 71.4178
72.1249 1984.0000 72.1249
23.3345 1985.0000 23.3345
33.9411 1985.0000 33.9411
34.6482 1985.0000 34.6482
37.4767 1985.0000 37.4767
38.1838 1985.0000 38.1838
38.8909 1985.0000 38.8909
49.4975 1985.0000 49.4975
50.2046 1985.0000 50.2046
50.9117 1985.0000 50.9117
58.6899 1985.0000 58.6899
59.3970 1985.0000 59.3970
65.7609 1985.0000 65.7609
66.4680 1985.0000 66.4680
67.1751 1985.0000 67.1751
70.0036 1985.0000 70.0036
70.7107 1985.0000 70.7107
71.4178 1985.0000 71.4178
23.3345 1986.0000 23.3345
24.0416 1986.0000 24.0416
38.1838 1986.0000 38.1838
38.8909 1986.0000 38.8909
39.5980 1986.0000 39.5980
40.3051 1986.0000 40.3051
48.0833 1986.0000 48.0833
48.7904 1986.0000 48.7904
49.4975 1986.0000 49.4975
50.2046 1986.0000 50.2046
57.2756 1986.0000 57.2756
57.9828 1986.0000 57.9828
58.6899 1986.0000 58.6899
65.0538 1986.0000 65.0538
65.7609 1986.0000 65.7609
66.4680 1986.0000 66.4680
68.5894 1986.0000 68.5894
69.2965 1986.0000 69.2965
70.0036 1986.0000 70.0036
70.7107 1986.0000 70.7107
71.4178 1986.0000 71.4178
0.7071 1987.0000 0.7071
1.4142 1987.0000 1.4142
23.3345 1987.0000 23.3345
24.0416 1987.0000 24.0416
24.7487 1987.0000 24.7487
32.5269 1987.0000 32.5269
33.2340 1987.0000 33.2340
38.1838 1987.0000 38.1838
38.8909 1987.0000 38.8909
39.5980 1987.0000 39.5980
40.3051 1987.0000 40.3051
41.0122 1987.0000 41.0122
41.7193 1987.0000 41.7193
42.4264 1987.0000 42.4264
43.1335 1987.0000 43.1335
47.3762 1987.0000 47.3762
48.0833 1987.0000 48.0833
48.7904 1987.0000 48.7904
49.4975 1987.0000 49.4975
50.2046 1987.0000 50.2046
55.8614 1987.0000 55.8614
56.5685 1987.0000 56.5685
57.2756 1987.0000 57.2756
57.9828 1987.0000 57.9828
58.6899 1987.0000 58.6899
62.9325 1987.0000 62.9325
63.6396 1987.0000 63.6396
64.3467 1987.0000 64.3467
65.0538 1987.0000 65.0538
65.7609 1987.0000 65.7609
66.4680 1987.0000 66.4680
67.1751 1987.0000 67.1751
67.8823 1987.0000 67.8823
68.5894 1987.0000 68.5894
69.2965 1987.0000 69.2965
70.0036 1987.0000 70.0036
70.7107 1987.0000 70.7107
0.7071 1988.0000 0.7071
1.4142 1988.0000 1.4142
2.1213 1988.0000 2.1213
2.8284 1988.0000 2.8284
3.5355 1988.0000 3.5355
4.2426 1988.0000 4.2426
4.9497 1988.0000 4.9497
5.6569 1988.0000 5.6569
6.3640 1988.0000 6.3640
7.0711 1988.0000 7.0711
7.7782 1988.0000 7.7782
8.4853 1988.0000 8.4853
21.9203 1988.0000 21.9203
22.6274 1988.0000 22.6274
23.3345 1988.0000 23.3345
24.0416 1988.0000 24.0416
24.7487 1988.0000 24.7487
25.4558 1988.0000 25.4558
26.1630 1988.0000 26.1630
31.1127 1988.0000 31.1127
31.8198 1988.0000 31.8198
32.5269 1988.0000 32.5269
33.2340 1988.0000 33.2340
35.3553 1988.0000 35.3553
36.0624 1988.0000 36.0624
36.7696 1988.0000 36.7696
37.4767 1988.0000 37.4767
38.1838 1988.0000 38.1838
38.8909 1988.0000 38.8909
39.5980 1988.0000 39.5980
40.3051 1988.0000 40.3051
41.0122 1988.0000 41.0122
41.7193 1988.0000 41.7193
42.4264 1988.0000 42.4264
43.1335 1988.0000 43.1335
43.8406 1988.0000 43.8406
44.5477 1988.0000 44.5477
45.2548 1988.0000 45.2548
45.9619 1988.0000 45.9619
46.6690 1988.0000 46.6690
47.3762 1988.0000 47.3762
48.0833 1988.0000 48.0833
48.7904 1988.0000 48.7904
49.4975 1988.0000 49.4975
50.2046 1988.0000 50.2046
55.1543 1988.0000 55.1543
55.8614 1988.0000 55.8614
56.5685 1988.0000 56.5685
57.2756 1988.0000 57.2756
57.9828 1988.0000 57.9828
61.5183 1988.0000 61.5183
62.2254 1988.0000 62.2254
62.9325 1988.0000 62.9325
63.6396 1988.0000 63.6396
64.3467 1988.0000 64.3467
65.0538 1988.0000 65.0538
65.7609 1988.0000 65.7609
66.4680 1988.0000 66.4680
67.1751 1988.0000 67.1751
67.8823 1988.0000 67.8823
68.5894 1988.0000 68.5894
69.2965 1988.0000 69.2965
70.0036 1988.0000 70.0036
0.7071 1989.0000 0.7071
1.4142 1989.0000 1.4142
2.1213 1989.0000 2.1213
2.8284 1989.0000 2.8284
3.5355 1989.0000 3.5355
4.2426 1989.0000 4.2426
4.9497 1989.0000 4.9497
5.6569 1989.0000 5.6569
6.3640 1989.0000 6.3640
7.0711 1989.0000 7.0711
7.7782 1989.0000 7.7782
8.4853 1989.0000 8.4853
9.1924 1989.0000 9.1924
9.8995 1989.0000 9.8995
10.6066 1989.0000 10.6066
11.3137 1989.0000 11.3137
12.0208 1989.0000 12.0208
20.5061 1989.0000 20.5061
21.2132 1989.0000 21.2132
21.9203 1989.0000 21.9203
22.6274 1989.0000 22.6274
23.3345 1989.0000 23.3345
24.0416 1989.0000 24.0416
24.7487 1989.0000 24.7487
25.4558 1989.0000 25.4558
26.1630 1989.0000 26.1630
26.8701 1989.0000 26.8701
27.5772 1989.0000 27.5772
28.2843 1989.0000 28.2843
28.9914 1989.0000 28.9914
29.6985 1989.0000 29.6985
30.4056 1989.0000 30.4056
31.1127 1989.0000 31.1127
31.8198 1989.0000 31.8198
32.5269 1989.0000 32.5269
33.2340 1989.0000 33.2340
33.9411 1989.0000 33.9411
34.6482 1989.0000 34.6482
35.3553 1989.0000 35.3553
36.0624 1989.0000 36.0624
36.7696 1989.0000 36.7696
37.4767 1989.0000 37.4767
38.1838 1989.0000 38.1838
38.8909 1989.0000 38.8909
39.5980 1989.0000 39.5980
40.3051 1989.0000 40.3051
41.0122 1989.0000 41.0122
41.7193 1989.0000 41.7193
42.4264 1989.0000 42.4264
43.1335 1989.0000 43.1335
43.8406 1989.0000 43.8406
44.5477 1989.0000 44.5477
45.2548 1989.0000 45.2548
45.9619 1989.0000 45.9619
46.6690 1989.0000 46.6690
47.3762 1989.0000 47.3762
48.0833 1989.0000 48.0833
48.7904 1989.0000 48.7904
49.4975 1989.0000 49.4975
50.2046 1989.0000 50.2046
50.9117 1989.0000 50.9117
54.4472 1989.0000 54.4472
55.1543 1989.0000 55.1543
55.8614 1989.0000 55.8614
56.5685 1989.0000 56.5685
57.2756 1989.0000 57.2756
60.8112 1989.0000 60.8112
61.5183 1989.0000 61.5183
62.2254 1989.0000 62.2254
62.9325 1989.0000 62.9325
63.6396 1989.0000 63.6396
64.3467 1989.0000 64.3467
65.0538 1989.0000 65.0538
65.7609 1989.0000 65.7609
66.4680 1989.0000 66.4680
67.1751 1989.0000 67.1751
67.8823 1989.0000 67.8823
68.5894 1989.0000 68.5894
69.2965 1989.0000 69.2965
0.7071 1990.0000 0.7071
1.4142 1990.0000 1.4142
2.1213 1990.0000 2.1213
2.8284 1990.0000 2.8284
3.5355 1990.0000 3.5355
4.2426 1990.0000 4.2426
4.9497 1990.0000 4.9497
5.6569 1990.0000 5.6569
6.3640 1990.0000 6.3640
7.0711 1990.0000 7.0711
7.7782 1990.0000 7.7782
8.4853 1990.0000 8.4853
9.1924 1990.0000 9.1924
9.8995 1990.0000 9.8995
10.6066 1990.0000 10.6066
11.3137 1990.0000 11.3137
12.0208 1990.0000 12.0208
12.7279 1990.0000 12.7279
13.4350 1990.0000 13.4350
14.1421 1990.0000 14.1421
14.8492 1990.0000 14.8492
15.5563 1990.0000 15.5563
16.2635 1990.0000 16.2635
16.9706 1990.0000 16.9706
17.6777 1990.0000 17.6777
18.3848 1990.0000 18.3848
19.0919 1990.0000 19.0919
19.7990 1990.0000 19.7990
20.5061 1990.0000 20.5061
21.2132 1990.0000 21.2132
21.9203 1990.0000 21.9203
22.6274 1990.0000 22.6274
23.3345 1990.0000 23.3345
24.0416 1990.0000 24.0416
24.7487 1990.0000 24.7487
25.4558 1990.0000 25.4558
26.1630 1990.0000 26.1630
26.8701 1990.0000 26.8701
27.5772 1990.0000 27.5772
28.2843 1990.0000 28.2843
28.9914 1990.0000 28.9914
29.6985 1990.0000 29.6985
30.4056 1990.0000 30.4056
41.7193 1990.0000 41.7193
42.4264 1990.0000 42.4264
43.1335 1990.0000 43.1335
43.8406 1990.0000 43.8406
44.5477 1990.0000 44.5477
45.2548 1990.0000 45.2548
45.9619 1990.0000 45.9619
48.7904 1990.0000 48.7904
49.4975 1990.0000 49.4975
50.2046 1990.0000 50.2046
50.9117 1990.0000 50.9117
51.6188 1990.0000 51.6188
52.3259 1990.0000 52.3259
53.0330 1990.0000 53.0330
53.7401 1990.0000 53.7401
54.4472 1990.0000 54.4472
55.1543 1990.0000 55.1543
55.8614 1990.0000 55.8614
56.5685 1990.0000 56.5685
57.2756 1990.0000 57.2756
57.9828 1990.0000 57.9828
58.6899 1990.0000 58.6899
59.3970 1990.0000 59.3970
60.1041 1990.0000 60.1041
60.8112 1990.0000 60.8112
61.5183 1990.0000 61.5183
62.2254 1990.0000 62.2254
62.9325 1990.0000 62.9325
63.6396 1990.0000 63.6396
64.3467 1990.0000 64.3467
65.0538 1990.0000 65.0538
65.7609 1990.0000 65.7609
66.4680 1990.0000 66.4680
67.1751 1990.0000 67.1751
67.8823 1990.0000 67.8823
68.5894 1990.0000 68.5894
8.4853 1991.0000 8.4853
9.1924 1991.0000 9.1924
9.8995 1991.0000 9.8995
10.6066 1991.0000 10.6066
11.3137 1991.0000 11.3137
12.0208 1991.0000 12.0208
13.4350 1991.0000 13.4350
14.1421 1991.0000 14.1421
14.8492 1991.0000 14.8492
15.5563 1991.0000 15.5563
16.2635 1991.0000 16.2635
16.9706 1991.0000 16.9706
17.6777 1991.0000 17.6777
18.3848 1991.0000 18.3848
19.0919 1991.0000 19.0919
19.7990 1991.0000 19.7990
20.5061 1991.0000 20.5061
21.2132 1991.0000 21.2132
24.7487 1991.0000 24.7487
25.4558 1991.0000 25.4558
26.1630 1991.0000 26.1630
26.8701 1991.0000 26.8701
27.5772 1991.0000 27.5772
53.0330 1991.0000 53.0330
53.7401 1991.0000 53.7401
54.4472 1991.0000 54.4472
55.1543 1991.0000 55.1543
55.8614 1991.0000 55.8614
56.5685 1991.0000 56.5685
57.2756 1991.0000 57.2756
57.9828 1991.0000 57.9828
58.6899 1991.0000 58.6899
59.3970 1991.0000 59.3970
60.1041 1991.0000 60.1041
60.8112 1991.0000 60.8112
61.5183 1991.0000 61.5183
62.2254 1991.0000 62.2254
62.9325 1991.0000 62.9325
63.6396 1991.0000 63.6396
64.3467 1991.0000 64.3467
65.0538 1991.0000 65.0538
57.2756 1992.0000 57.2756
57.9828 1992.0000 57.9828
58.6899 1992.0000 58.6899
59.3970 1992.0000 59.3970
60.1041 1992.0000 60.1041
60.8112 1992.0000 60.8112
61.5183 1992.0000 61.5183
