ply
format ascii 1.0
element vertex 782
property float x
property float y
property float z
element face 0
property list uchar int vertex_index
end_header
-91.9239 1892.0000 -91.9239
-91.2168 1892.0000 -91.2168
-44.5477 1892.0000 -44.5477
-43.8406 1892.0000 -43.8406
-43.1335 1892.0000 -43.1335
-91.9239 1893.0000 -91.9239
-91.2168 1893.0000 -91.2168
-44.5477 1893.0000 -44.5477
-43.8406 1893.0000 -43.8406
-43.1335 1893.0000 -43.1335
-91.9239 1894.0000 -91.9239
-91.2168 1894.0000 -91.2168
-43.8406 1894.0000 -43.8406
-43.1335 1894.0000 -43.1335
-91.9239 1895.0000 -91.9239
-91.2168 1895.0000 -91.2168
-90.5097 1895.0000 -90.5097
-43.8406 1895.0000 -43.8406
-43.1335 1895.0000 -43.1335
-91.9239 1896.0000 -91.9239
-91.2168 1896.0000 -91.2168
-90.5097 1896.0000 -90.5097
-43.8406 1896.0000 -43.8406
-43.1335 1896.0000 -43.1335
-91.9239 1897.0000 -91.9239
-91.2168 1897.0000 -91.2168
-90.5097 1897.0000 -90.5097
-43.8406 1897.0000 -43.8406
-43.1335 1897.0000 -43.1335
-91.9239 1898.0000 -91.9239
-91.2168 1898.0000 -91.2168
-90.5097 1898.0000 -90.5097
-43.8406 1898.0000 -43.8406
-43.1335 1898.0000 -43.1335
-42.4264 1898.0000 -42.4264
-91.9239 1899.0000 -91.9239
-91.2168 1899.0000 -91.2168
-90.5097 1899.0000 -90.5097
-43.1335 1899.0000 -43.1335
-42.4264 1899.0000 -42.4264
-91.9239 1900.0000 -91.9239
-91.2168 1900.0000 -91.2168
-90.5097 1900.0000 -90.5097
-43.1335 1900.0000 -43.1335
-42.4264 1900.0000 -42.4264
-41.7193 1900.0000 -41.7193
-91.2168 1901.0000 -91.2168
-90.5097 1901.0000 -90.5097
-43.1335 1901.0000 -43.1335
-42.4264 1901.0000 -42.4264
-41.7193 1901.0000 -41.7193
-91.2168 1902.0000 -91.2168
-90.5097 1902.0000 -90.5097
-43.1335 1902.0000 -43.1335
-42.4264 1902.0000 -42.4264
-41.7193 1902.0000 -41.7193
-91.2168 1903.0000 -91.2168
-90.5097 1903.0000 -90.5097
-42.4264 1903.0000 -42.4264
-41.7193 1903.0000 -41.7193
-41.0122 1903.0000 -41.0122
-91.2168 1904.0000 -91.2168
-90.5097 1904.0000 -90.5097
-42.4264 1904.0000 -42.4264
-41.7193 1904.0000 -41.7193
-41.0122 1904.0000 -41.0122
-91.2168 1905.0000 -91.2168
-90.5097 1905.0000 -90.5097
-41.7193 1905.0000 -41.7193
-41.0122 1905.0000 -41.0122
-91.2168 1906.0000 -91.2168
-90.5097 1906.0000 -90.5097
-41.7193 1906.0000 -41.7193
-41.0122 1906.0000 -41.0122
-40.3051 1906.0000 -40.3051
-91.2168 1907.0000 -91.2168
-90.5097 1907.0000 -90.5097
-41.7193 1907.0000 -41.7193
-41.0122 1907.0000 -41.0122
-40.3051 1907.0000 -40.3051
-91.2168 1908.0000 -91.2168
-90.5097 1908.0000 -90.5097
-41.0122 1908.0000 -41.0122
-40.3051 1908.0000 -40.3051
-91.2168 1909.0000 -91.2168
-90.5097 1909.0000 -90.5097
-41.0122 1909.0000 -41.0122
-40.3051 1909.0000 -40.3051
-39.5980 1909.0000 -39.5980
-91.2168 1910.0000 -91.2168
-90.5097 1910.0000 -90.5097
-41.0122 1910.0000 -41.0122
-40.3051 1910.0000 -40.3051
-39.5980 1910.0000 -39.5980
-91.2168 1911.0000 -91.2168
-90.5097 1911.0000 -90.5097
-40.3051 1911.0000 -40.3051
-39.5980 1911.0000 -39.5980
-38.8909 1911.0000 -38.8909
-91.2168 1912.0000 -91.2168
-90.5097 1912.0000 -90.5097
-39.5980 1912.0000 -39.5980
-38.8909 1912.0000 -38.8909
-38.1838 1912.0000 -38.1838
-91.2168 1913.0000 -91.2168
-90.5097 1913.0000 -90.5097
-38.8909 1913.0000 -38.8909
-38.1838 1913.0000 -38.1838
-90.5097 1914.0000 -90.5097
-38.1838 1914.0000 -38.1838
-37.4767 1914.0000 -37.4767
-90.5097 1915.0000 -90.5097
-38.1838 1915.0000 -38.1838
-37.4767 1915.0000 -37.4767
-36.7696 1915.0000 -36.7696
-90.5097 1916.0000 -90.5097
-37.4767 1916.0000 -37.4767
-36.7696 1916.0000 -36.7696
-90.5097 1917.0000 -90.5097
-36.7696 1917.0000 -36.7696
-36.0624 1917.0000 -36.0624
-90.5097 1918.0000 -90.5097
-36.0624 1918.0000 -36.0624
-35.3553 1918.0000 -35.3553
-34.6482 1918.0000 -34.6482
-90.5097 1919.0000 -90.5097
-36.0624 1919.0000 -36.0624
-35.3553 1919.0000 -35.3553
-34.6482 1919.0000 -34.6482
-91.2168 1920.0000 -91.2168
-90.5097 1920.0000 -90.5097
-35.3553 1920.0000 -35.3553
-34.6482 1920.0000 -34.6482
-33.9411 1920.0000 -33.9411
-33.2340 1920.0000 -33.2340
-91.2168 1921.0000 -91.2168
-90.5097 1921.0000 -90.5097
-35.3553 1921.0000 -35.3553
-34.6482 1921.0000 -34.6482
-33.9411 1921.0000 -33.9411
-33.2340 1921.0000 -33.2340
-32.5269 1921.0000 -32.5269
-91.2168 1922.0000 -91.2168
-90.5097 1922.0000 -90.5097
-34.6482 1922.0000 -34.6482
-33.9411 1922.0000 -33.9411
-33.2340 1922.0000 -33.2340
-32.5269 1922.0000 -32.5269
-31.8198 1922.0000 -31.8198
-91.2168 1923.0000 -91.2168
-90.5097 1923.0000 -90.5097
-33.9411 1923.0000 -33.9411
-33.2340 1923.0000 -33.2340
-32.5269 1923.0000 -32.5269
-31.8198 1923.0000 -31.8198
-31.1127 1923.0000 -31.1127
-91.2168 1924.0000 -91.2168
-90.5097 1924.0000 -90.5097
-33.2340 1924.0000 -33.2340
-32.5269 1924.0000 -32.5269
-31.8198 1924.0000 -31.8198
-31.1127 1924.0000 -31.1127
-30.4056 1924.0000 -30.4056
-91.2168 1925.0000 -91.2168
-90.5097 1925.0000 -90.5097
-32.5269 1925.0000 -32.5269
-31.8198 1925.0000 -31.8198
-31.1127 1925.0000 -31.1127
-30.4056 1925.0000 -30.4056
-29.6985 1925.0000 -29.6985
-28.9914 1925.0000 -28.9914
-91.9239 1926.0000 -91.9239
-91.2168 1926.0000 -91.2168
-90.5097 1926.0000 -90.5097
-31.8198 1926.0000 -31.8198
-31.1127 1926.0000 -31.1127
-30.4056 1926.0000 -30.4056
-29.6985 1926.0000 -29.6985
-28.9914 1926.0000 -28.9914
-28.2843 1926.0000 -28.2843
-91.9239 1927.0000 -91.9239
-91.2168 1927.0000 -91.2168
-90.5097 1927.0000 -90.5097
-31.1127 1927.0000 -31.1127
-30.4056 1927.0000 -30.4056
-29.6985 1927.0000 -29.6985
-28.9914 1927.0000 -28.9914
-28.2843 1927.0000 -28.2843
-91.9239 1928.0000 -91.9239
-91.2168 1928.0000 -91.2168
-30.4056 1928.0000 -30.4056
-29.6985 1928.0000 -29.6985
-28.9914 1928.0000 -28.9914
-28.2843 1928.0000 -28.2843
-27.5772 1928.0000 -27.5772
-91.9239 1929.0000 -91.9239
-91.2168 1929.0000 -91.2168
-29.6985 1929.0000 -29.6985
-28.9914 1929.0000 -28.9914
-28.2843 1929.0000 -28.2843
-27.5772 1929.0000 -27.5772
-26.8701 1929.0000 -26.8701
-26.1630 1929.0000 -26.1630
-92.6310 1930.0000 -92.6310
-91.9239 1930.0000 -91.9239
-91.2168 1930.0000 -91.2168
-28.9914 1930.0000 -28.9914
-28.2843 1930.0000 -28.2843
-27.5772 1930.0000 -27.5772
-26.8701 1930.0000 -26.8701
-26.1630 1930.0000 -26.1630
-25.4558 1930.0000 -25.4558
-92.6310 1931.0000 -92.6310
-91.9239 1931.0000 -91.9239
-91.2168 1931.0000 -91.2168
-27.5772 1931.0000 -27.5772
-26.8701 1931.0000 -26.8701
-26.1630 1931.0000 -26.1630
-25.4558 1931.0000 -25.4558
-24.7487 1931.0000 -24.7487
-24.0416 1931.0000 -24.0416
-92.6310 1932.0000 -92.6310
-91.9239 1932.0000 -91.9239
-91.2168 1932.0000 -91.2168
-26.8701 1932.0000 -26.8701
-26.1630 1932.0000 -26.1630
-25.4558 1932.0000 -25.4558
-24.7487 1932.0000 -24.7487
-24.0416 1932.0000 -24.0416
-23.3345 1932.0000 -23.3345
-92.6310 1933.0000 -92.6310
-91.9239 1933.0000 -91.9239
-25.4558 1933.0000 -25.4558
-24.7487 1933.0000 -24.7487
-24.0416 1933.0000 -24.0416
-23.3345 1933.0000 -23.3345
-22.6274 1933.0000 -22.6274
-93.3381 1934.0000 -93.3381
-92.6310 1934.0000 -92.6310
-91.9239 1934.0000 -91.9239
-24.7487 1934.0000 -24.7487
-24.0416 1934.0000 -24.0416
-23.3345 1934.0000 -23.3345
-22.6274 1934.0000 -22.6274
-21.9203 1934.0000 -21.9203
-21.2132 1934.0000 -21.2132
-93.3381 1935.0000 -93.3381
-92.6310 1935.0000 -92.6310
-23.3345 1935.0000 -23.3345
-22.6274 1935.0000 -22.6274
-21.9203 1935.0000 -21.9203
-21.2132 1935.0000 -21.2132
-20.5061 1935.0000 -20.5061
-94.0452 1936.0000 -94.0452
-93.3381 1936.0000 -93.3381
-92.6310 1936.0000 -92.6310
-22.6274 1936.0000 -22.6274
-21.9203 1936.0000 -21.9203
-21.2132 1936.0000 -21.2132
-20.5061 1936.0000 -20.5061
-94.7523 1937.0000 -94.7523
-94.0452 1937.0000 -94.0452
-93.3381 1937.0000 -93.3381
-92.6310 1937.0000 -92.6310
-21.9203 1937.0000 -21.9203
-21.2132 1937.0000 -21.2132
-20.5061 1937.0000 -20.5061
-19.7990 1937.0000 -19.7990
-19.0919 1937.0000 -19.0919
-94.7523 1938.0000 -94.7523
-94.0452 1938.0000 -94.0452
-93.3381 1938.0000 -93.3381
-20.5061 1938.0000 -20.5061
-19.7990 1938.0000 -19.7990
-19.0919 1938.0000 -19.0919
-18.3848 1938.0000 -18.3848
-94.7523 1939.0000 -94.7523
-94.0452 1939.0000 -94.0452
-19.7990 1939.0000 -19.7990
-19.0919 1939.0000 -19.0919
-18.3848 1939.0000 -18.3848
-17.6777 1939.0000 -17.6777
-19.0919 1940.0000 -19.0919
-18.3848 1940.0000 -18.3848
-17.6777 1940.0000 -17.6777
-16.9706 1940.0000 -16.9706
-16.2635 1940.0000 -16.2635
-96.1665 1941.0000 -96.1665
-95.4594 1941.0000 -95.4594
-18.3848 1941.0000 -18.3848
-17.6777 1941.0000 -17.6777
-16.9706 1941.0000 -16.9706
-16.2635 1941.0000 -16.2635
-15.5563 1941.0000 -15.5563
-96.8736 1942.0000 -96.8736
-96.1665 1942.0000 -96.1665
-95.4594 1942.0000 -95.4594
-16.9706 1942.0000 -16.9706
-16.2635 1942.0000 -16.2635
-15.5563 1942.0000 -15.5563
-14.8492 1942.0000 -14.8492
-14.1421 1942.0000 -14.1421
-96.8736 1943.0000 -96.8736
-96.1665 1943.0000 -96.1665
-16.2635 1943.0000 -16.2635
-15.5563 1943.0000 -15.5563
-14.8492 1943.0000 -14.8492
-14.1421 1943.0000 -14.1421
-13.4350 1943.0000 -13.4350
-97.5807 1944.0000 -97.5807
-96.8736 1944.0000 -96.8736
-96.1665 1944.0000 -96.1665
-15.5563 1944.0000 -15.5563
-14.8492 1944.0000 -14.8492
-14.1421 1944.0000 -14.1421
-13.4350 1944.0000 -13.4350
-98.2878 1945.0000 -98.2878
-97.5807 1945.0000 -97.5807
-96.8736 1945.0000 -96.8736
-96.1665 1945.0000 -96.1665
-14.8492 1945.0000 -14.8492
-14.1421 1945.0000 -14.1421
-13.4350 1945.0000 -13.4350
-12.7279 1945.0000 -12.7279
-98.2878 1946.0000 -98.2878
-97.5807 1946.0000 -97.5807
-96.8736 1946.0000 -96.8736
-14.1421 1946.0000 -14.1421
-13.4350 1946.0000 -13.4350
-12.7279 1946.0000 -12.7279
-12.0208 1946.0000 -12.0208
-98.9949 1947.0000 -98.9949
-98.2878 1947.0000 -98.2878
-97.5807 1947.0000 -97.5807
-96.8736 1947.0000 -96.8736
-13.4350 1947.0000 -13.4350
-12.7279 1947.0000 -12.7279
-12.0208 1947.0000 -12.0208
-11.3137 1947.0000 -11.3137
-10.6066 1947.0000 -10.6066
-98.9949 1948.0000 -98.9949
-98.2878 1948.0000 -98.2878
-97.5807 1948.0000 -97.5807
-12.7279 1948.0000 -12.7279
-12.0208 1948.0000 -12.0208
-11.3137 1948.0000 -11.3137
-10.6066 1948.0000 -10.6066
-9.8995 1948.0000 -9.8995
-98.9949 1949.0000 -98.9949
-98.2878 1949.0000 -98.2878
-11.3137 1949.0000 -11.3137
-10.6066 1949.0000 -10.6066
-9.8995 1949.0000 -9.8995
-9.1924 1949.0000 -9.1924
-8.4853 1949.0000 -8.4853
-99.7021 1950.0000 -99.7021
-98.9949 1950.0000 -98.9949
-98.2878 1950.0000 -98.2878
-9.8995 1950.0000 -9.8995
-9.1924 1950.0000 -9.1924
-8.4853 1950.0000 -8.4853
-7.7782 1950.0000 -7.7782
-99.7021 1951.0000 -99.7021
-98.9949 1951.0000 -98.9949
-98.2878 1951.0000 -98.2878
-9.1924 1951.0000 -9.1924
-8.4853 1951.0000 -8.4853
-7.7782 1951.0000 -7.7782
-7.0711 1951.0000 -7.0711
-6.3640 1951.0000 -6.3640
-5.6569 1951.0000 -5.6569
-99.7021 1952.0000 -99.7021
-98.9949 1952.0000 -98.9949
-7.7782 1952.0000 -7.7782
-7.0711 1952.0000 -7.0711
-6.3640 1952.0000 -6.3640
-5.6569 1952.0000 -5.6569
-4.9497 1952.0000 -4.9497
-4.2426 1952.0000 -4.2426
-99.7021 1953.0000 -99.7021
-98.9949 1953.0000 -98.9949
-6.3640 1953.0000 -6.3640
-5.6569 1953.0000 -5.6569
-4.9497 1953.0000 -4.9497
-4.2426 1953.0000 -4.2426
-3.5355 1953.0000 -3.5355
-2.8284 1953.0000 -2.8284
-99.7021 1954.0000 -99.7021
-98.9949 1954.0000 -98.9949
-5.6569 1954.0000 -5.6569
-4.9497 1954.0000 -4.9497
-4.2426 1954.0000 -4.2426
-3.5355 1954.0000 -3.5355
-2.8284 1954.0000 -2.8284
-2.1213 1954.0000 -2.1213
-1.4142 1954.0000 -1.4142
-0.7071 1954.0000 -0.7071
-100.4092 1955.0000 -100.4092
-99.7021 1955.0000 -99.7021
-3.5355 1955.0000 -3.5355
-2.8284 1955.0000 -2.8284
-2.1213 1955.0000 -2.1213
-1.4142 1955.0000 -1.4142
-0.7071 1955.0000 -0.7071
0.0000 1955.0000 0.0000
-100.4092 1956.0000 -100.4092
-99.7021 1956.0000 -99.7021
-1.4142 1956.0000 -1.4142
-0.7071 1956.0000 -0.7071
0.0000 1956.0000 0.0000
-101.1163 1957.0000 -101.1163
-100.4092 1957.0000 -100.4092
-99.7021 1957.0000 -99.7021
-101.1163 1958.0000 -101.1163
-100.4092 1958.0000 -100.4092
-99.7021 1958.0000 -99.7021
-101.1163 1959.0000 -101.1163
-100.4092 1959.0000 -100.4092
-99.7021 1959.0000 -99.7021
-101.1163 1960.0000 -101.1163
-100.4092 1960.0000 -100.4092
-99.7021 1960.0000 -99.7021
-101.1163 1961.0000 -101.1163
-100.4092 1961.0000 -100.4092
-99.7021 1961.0000 -99.7021
-101.1163 1962.0000 -101.1163
-100.4092 1962.0000 -100.4092
-99.7021 1962.0000 -99.7021
-101.8234 1963.0000 -101.8234
-101.1163 1963.0000 -101.1163
-100.4092 1963.0000 -100.4092
-99.7021 1963.0000 -99.7021
-101.8234 1964.0000 -101.8234
-101.1163 1964.0000 -101.1163
-100.4092 1964.0000 -100.4092
-101.1163 1965.0000 -101.1163
-100.4092 1965.0000 -100.4092
-101.1163 1966.0000 -101.1163
-100.4092 1966.0000 -100.4092
-101.1163 1967.0000 -101.1163
-100.4092 1967.0000 -100.4092
-101.1163 1968.0000 -101.1163
-100.4092 1968.0000 -100.4092
-101.1163 1969.0000 -101.1163
-100.4092 1969.0000 -100.4092
-101.1163 1970.0000 -101.1163
-100.4092 1970.0000 -100.4092
-101.1163 1971.0000 -101.1163
-100.4092 1971.0000 -100.4092
-101.1163 1972.0000 -101.1163
-100.4092 1972.0000 -100.4092
-99.7021 1972.0000 -99.7021
-101.1163 1973.0000 -101.1163
-100.4092 1973.0000 -100.4092
-99.7021 1973.0000 -99.7021
-101.1163 1974.0000 -101.1163
-100.4092 1974.0000 -100.4092
-99.7021 1974.0000 -99.7021
-101.1163 1975.0000 -101.1163
-100.4092 1975.0000 -100.4092
-99.7021 1975.0000 -99.7021
-101.1163 1976.0000 -101.1163
-100.4092 1976.0000 -100.4092
-99.7021 1976.0000 -99.7021
-100.4092 1977.0000 -100.4092
-99.7021 1977.0000 -99.7021
-98.9949 1977.0000 -98.9949
-100.4092 1978.0000 -100.4092
-99.7021 1978.0000 -99.7021
-98.9949 1978.0000 -98.9949
-100.4092 1979.0000 -100.4092
-99.7021 1979.0000 -99.7021
-98.9949 1979.0000 -98.9949
-100.4092 1980.0000 -100.4092
-99.7021 1980.0000 -99.7021
-98.9949 1980.0000 -98.9949
-98.2878 1980.0000 -98.2878
-100.4092 1981.0000 -100.4092
-99.7021 1981.0000 -99.7021
-98.9949 1981.0000 -98.9949
-98.2878 1981.0000 -98.2878
-99.7021 1982.0000 -99.7021
-98.9949 1982.0000 -98.9949
-98.2878 1982.0000 -98.2878
-99.7021 1983.0000 -99.7021
-98.9949 1983.0000 -98.9949
-98.2878 1983.0000 -98.2878
-97.5807 1983.0000 -97.5807
-98.9949 1984.0000 -98.9949
-98.2878 1984.0000 -98.2878
-97.5807 1984.0000 -97.5807
-97.5807 1985.0000 -97.5807
-96.1665 1986.0000 -96.1665
-95.4594 1986.0000 -95.4594
-94.7523 1986.0000 -94.7523
-94.0452 1986.0000 -94.0452
-93.3381 1986.0000 -93.3381
-57.9828 1986.0000 -57.9828
-57.2756 1986.0000 -57.2756
-56.5685 1986.0000 -56.5685
-55.8614 1986.0000 -55.8614
-55.1543 1986.0000 -55.1543
-54.4472 1986.0000 -54.4472
-53.7401 1986.0000 -53.7401
-53.0330 1986.0000 -53.0330
-34.6482 1986.0000 -34.6482
-33.9411 1986.0000 -33.9411
-30.4056 1986.0000 -30.4056
-29.6985 1986.0000 -29.6985
-95.4594 1987.0000 -95.4594
-94.7523 1987.0000 -94.7523
-94.0452 1987.0000 -94.0452
-93.3381 1987.0000 -93.3381
-92.6310 1987.0000 -92.6310
-89.8026 1987.0000 -89.8026
-89.0955 1987.0000 -89.0955
-88.3883 1987.0000 -88.3883
-58.6899 1987.0000 -58.6899
-57.9828 1987.0000 -57.9828
-57.2756 1987.0000 -57.2756
-56.5685 1987.0000 -56.5685
-55.8614 1987.0000 -55.8614
-55.1543 1987.0000 -55.1543
-54.4472 1987.0000 -54.4472
-53.7401 1987.0000 -53.7401
-53.0330 1987.0000 -53.0330
-52.3259 1987.0000 -52.3259
-51.6188 1987.0000 -51.6188
-50.9117 1987.0000 -50.9117
-50.2046 1987.0000 -50.2046
-49.4975 1987.0000 -49.4975
-48.7904 1987.0000 -48.7904
-48.0833 1987.0000 -48.0833
-47.3762 1987.0000 -47.3762
-46.6690 1987.0000 -46.6690
-45.9619 1987.0000 -45.9619
-45.2548 1987.0000 -45.2548
-44.5477 1987.0000 -44.5477
-43.8406 1987.0000 -43.8406
-43.1335 1987.0000 -43.1335
-42.4264 1987.0000 -42.4264
-41.7193 1987.0000 -41.7193
-41.0122 1987.0000 -41.0122
-40.3051 1987.0000 -40.3051
-39.5980 1987.0000 -39.5980
-38.8909 1987.0000 -38.8909
-38.1838 1987.0000 -38.1838
-37.4767 1987.0000 -37.4767
-36.7696 1987.0000 -36.7696
-36.0624 1987.0000 -36.0624
-35.3553 1987.0000 -35.3553
-34.6482 1987.0000 -34.6482
-33.9411 1987.0000 -33.9411
-33.2340 1987.0000 -33.2340
-31.8198 1987.0000 -31.8198
-31.1127 1987.0000 -31.1127
-30.4056 1987.0000 -30.4056
-29.6985 1987.0000 -29.6985
-28.9914 1987.0000 -28.9914
-28.2843 1987.0000 -28.2843
-27.5772 1987.0000 -27.5772
-26.8701 1987.0000 -26.8701
-26.1630 1987.0000 -26.1630
-25.4558 1987.0000 -25.4558
-24.7487 1987.0000 -24.7487
-24.0416 1987.0000 -24.0416
-23.3345 1987.0000 -23.3345
-22.6274 1987.0000 -22.6274
-21.9203 1987.0000 -21.9203
-21.2132 1987.0000 -21.2132
-20.5061 1987.0000 -20.5061
-19.7990 1987.0000 -19.7990
-19.0919 1987.0000 -19.0919
-18.3848 1987.0000 -18.3848
-17.6777 1987.0000 -17.6777
-16.9706 1987.0000 -16.9706
-16.2635 1987.0000 -16.2635
-15.5563 1987.0000 -15.5563
-14.8492 1987.0000 -14.8492
-14.1421 1987.0000 -14.1421
-11.3137 1987.0000 -11.3137
-1.4142 1987.0000 -1.4142
-0.7071 1987.0000 -0.7071
0.0000 1987.0000 0.0000
-94.7523 1988.0000 -94.7523
-94.0452 1988.0000 -94.0452
-93.3381 1988.0000 -93.3381
-92.6310 1988.0000 -92.6310
-91.9239 1988.0000 -91.9239
-91.2168 1988.0000 -91.2168
-90.5097 1988.0000 -90.5097
-89.8026 1988.0000 -89.8026
-89.0955 1988.0000 -89.0955
-88.3883 1988.0000 -88.3883
-87.6812 1988.0000 -87.6812
-86.9741 1988.0000 -86.9741
-86.2670 1988.0000 -86.2670
-85.5599 1988.0000 -85.5599
-84.8528 1988.0000 -84.8528
-84.1457 1988.0000 -84.1457
-83.4386 1988.0000 -83.4386
-77.7817 1988.0000 -77.7817
-77.0746 1988.0000 -77.0746
-64.3467 1988.0000 -64.3467
-63.6396 1988.0000 -63.6396
-62.9325 1988.0000 -62.9325
-62.2254 1988.0000 -62.2254
-61.5183 1988.0000 -61.5183
-60.8112 1988.0000 -60.8112
-60.1041 1988.0000 -60.1041
-58.6899 1988.0000 -58.6899
-57.9828 1988.0000 -57.9828
-57.2756 1988.0000 -57.2756
-56.5685 1988.0000 -56.5685
-55.8614 1988.0000 -55.8614
-55.1543 1988.0000 -55.1543
-54.4472 1988.0000 -54.4472
-53.7401 1988.0000 -53.7401
-53.0330 1988.0000 -53.0330
-52.3259 1988.0000 -52.3259
-51.6188 1988.0000 -51.6188
-50.9117 1988.0000 -50.9117
-50.2046 1988.0000 -50.2046
-49.4975 1988.0000 -49.4975
-48.7904 1988.0000 -48.7904
-48.0833 1988.0000 -48.0833
-47.3762 1988.0000 -47.3762
-46.6690 1988.0000 -46.6690
-45.9619 1988.0000 -45.9619
-45.2548 1988.0000 -45.2548
-44.5477 1988.0000 -44.5477
-43.8406 1988.0000 -43.8406
-43.1335 1988.0000 -43.1335
-42.4264 1988.0000 -42.4264
-41.7193 1988.0000 -41.7193
-41.0122 1988.0000 -41.0122
-40.3051 1988.0000 -40.3051
-39.5980 1988.0000 -39.5980
-38.8909 1988.0000 -38.8909
-38.1838 1988.0000 -38.1838
-37.4767 1988.0000 -37.4767
-36.7696 1988.0000 -36.7696
-36.0624 1988.0000 -36.0624
-35.3553 1988.0000 -35.3553
-34.6482 1988.0000 -34.6482
-33.9411 1988.0000 -33.9411
-33.2340 1988.0000 -33.2340
-32.5269 1988.0000 -32.5269
-31.8198 1988.0000 -31.8198
-30.4056 1988.0000 -30.4056
-29.6985 1988.0000 -29.6985
-24.0416 1988.0000 -24.0416
-23.3345 1988.0000 -23.3345
-19.7990 1988.0000 -19.7990
-19.0919 1988.0000 -19.0919
-18.3848 1988.0000 -18.3848
-17.6777 1988.0000 -17.6777
-16.9706 1988.0000 -16.9706
-16.2635 1988.0000 -16.2635
-15.5563 1988.0000 -15.5563
-14.8492 1988.0000 -14.8492
-14.1421 1988.0000 -14.1421
-13.4350 1988.0000 -13.4350
-12.7279 1988.0000 -12.7279
-12.0208 1988.0000 -12.0208
-11.3137 1988.0000 -11.3137
-10.6066 1988.0000 -10.6066
-9.8995 1988.0000 -9.8995
-9.1924 1988.0000 -9.1924
-8.4853 1988.0000 -8.4853
-7.7782 1988.0000 -7.7782
-7.0711 1988.0000 -7.0711
-6.3640 1988.0000 -6.3640
-5.6569 1988.0000 -5.6569
-4.9497 1988.0000 -4.9497
-4.2426 1988.0000 -4.2426
-3.5355 1988.0000 -3.5355
-2.8284 1988.0000 -2.8284
-2.1213 1988.0000 -2.1213
-1.4142 1988.0000 -1.4142
-0.7071 1988.0000 -0.7071
0.0000 1988.0000 0.0000
-85.5599 1989.0000 -85.5599
-84.8528 1989.0000 -84.8528
-84.1457 1989.0000 -84.1457
-83.4386 1989.0000 -83.4386
-82.7315 1989.0000 -82.7315
-82.0244 1989.0000 -82.0244
-81.3173 1989.0000 -81.3173
-80.6102 1989.0000 -80.6102
-79.9031 1989.0000 -79.9031
-79.1960 1989.0000 -79.1960
-78.4889 1989.0000 -78.4889
-77.7817 1989.0000 -77.7817
-77.0746 1989.0000 -77.0746
-76.3675 1989.0000 -76.3675
-75.6604 1989.0000 -75.6604
-74.9533 1989.0000 -74.9533
-74.2462 1989.0000 -74.2462
-73.5391 1989.0000 -73.5391
-72.8320 1989.0000 -72.8320
-72.1249 1989.0000 -72.1249
-71.4178 1989.0000 -71.4178
-70.7107 1989.0000 -70.7107
-70.0036 1989.0000 -70.0036
-69.2965 1989.0000 -69.2965
-68.5894 1989.0000 -68.5894
-67.8823 1989.0000 -67.8823
-67.1751 1989.0000 -67.1751
-66.4680 1989.0000 -66.4680
-65.7609 1989.0000 -65.7609
-65.0538 1989.0000 -65.0538
-64.3467 1989.0000 -64.3467
-63.6396 1989.0000 -63.6396
-62.9325 1989.0000 -62.9325
-62.2254 1989.0000 -62.2254
-37.4767 1989.0000 -37.4767
-36.7696 1989.0000 -36.7696
-36.0624 1989.0000 -36.0624
-35.3553 1989.0000 -35.3553
-34.6482 1989.0000 -34.6482
-33.9411 1989.0000 -33.9411
-33.2340 1989.0000 -33.2340
-32.5269 1989.0000 -32.5269
-31.8198 1989.0000 -31.8198
-31.1127 1989.0000 -31.1127
-30.4056 1989.0000 -30.4056
-29.6985 1989.0000 -29.6985
-12.0208 1989.0000 -12.0208
-11.3137 1989.0000 -11.3137
-10.6066 1989.0000 -10.6066
-9.1924 1989.0000 -9.1924
-8.4853 1989.0000 -8.4853
-7.7782 1989.0000 -7.7782
-7.0711 1989.0000 -7.0711
-6.3640 1989.0000 -6.3640
-5.6569 1989.0000 -5.6569
-4.9497 1989.0000 -4.9497
-4.2426 1989.0000 -4.2426
-3.5355 1989.0000 -3.5355
-2.8284 1989.0000 -2.8284
-2.1213 1989.0000 -2.1213
-1.4142 1989.0000 -1.4142
-0.7071 1989.0000 -0.7071
0.0000 1989.0000 0.0000
-81.3173 1990.0000 -81.3173
-80.6102 1990.0000 -80.6102
-79.9031 1990.0000 -79.9031
-79.1960 1990.0000 -79.1960
-73.5391 1990.0000 -73.5391
-72.8320 1990.0000 -72.8320
-72.1249 1990.0000 -72.1249
-71.4178 1990.0000 -71.4178
-70.7107 1990.0000 -70.7107
-70.0036 1990.0000 -70.0036
-33.9411 1990.0000 -33.9411
-33.2340 1990.0000 -33.2340
-32.5269 1990.0000 -32.5269
-31.8198 1990.0000 -31.8198
-31.1127 1990.0000 -31.1127
-30.4056 1990.0000 -30.4056
-12.0208 1990.0000 -12.0208
-11.3137 1990.0000 -11.3137
-10.6066 1990.0000 -10.6066
-9.1924 1990.0000 -9.1924
-8.4853 1990.0000 -8.4853
-7.7782 1990.0000 -7.7782
-7.0711 1990.0000 -7.0711
-6.3640 1990.0000 -6.3640
-5.6569 1990.0000 -5.6569
-4.9497 1990.0000 -4.9497
-4.2426 1990.0000 -4.2426
-3.5355 1990.0000 -3.5355
-2.8284 1990.0000 -2.8284
-2.1213 1990.0000 -2.1213
-1.4142 1990.0000 -1.4142
-0.7071 1990.0000 -0.7071
0.0000 1990.0000 0.0000
-9.1924 1991.0000 -9.1924
-8.4853 1991.0000 -8.4853
-7.7782 1991.0000 -7.7782
-7.0711 1991.0000 -7.0711
