ply
format ascii 1.0
element vertex 530
property float x
property float y
property float z
element face 0
property list uchar int vertex_index
end_header
0.0000 1927.0000 0.0000
0.0000 1928.0000 0.0000
0.0000 1929.0000 0.0000
0.0000 1930.0000 0.0000
0.0000 1931.0000 0.0000
0.0000 1932.0000 0.0000
0.0000 1940.0000 0.0000
0.0000 1941.0000 0.0000
0.0000 1942.0000 0.0000
0.0000 1943.0000 0.0000
-0.7071 1944.0000 0.7071
0.0000 1944.0000 0.0000
-1.4142 1945.0000 1.4142
-0.7071 1945.0000 0.7071
0.0000 1945.0000 0.0000
-1.4142 1946.0000 1.4142
-0.7071 1946.0000 0.7071
0.0000 1946.0000 0.0000
-2.8284 1947.0000 2.8284
-2.1213 1947.0000 2.1213
-1.4142 1947.0000 1.4142
-0.7071 1947.0000 0.7071
-3.5355 1948.0000 3.5355
-2.8284 1948.0000 2.8284
-2.1213 1948.0000 2.1213
-1.4142 1948.0000 1.4142
-4.2426 1949.0000 4.2426
-3.5355 1949.0000 3.5355
-2.8284 1949.0000 2.8284
-2.1213 1949.0000 2.1213
-4.2426 1950.0000 4.2426
-3.5355 1950.0000 3.5355
-2.8284 1950.0000 2.8284
-4.9497 1951.0000 4.9497
-4.2426 1951.0000 4.2426
-3.5355 1951.0000 3.5355
-4.9497 1952.0000 4.9497
-4.2426 1952.0000 4.2426
-3.5355 1952.0000 3.5355
-4.9497 1953.0000 4.9497
-4.2426 1953.0000 4.2426
-5.6569 1954.0000 5.6569
-4.9497 1954.0000 4.9497
-6.3640 1955.0000 6.3640
-5.6569 1955.0000 5.6569
-7.0711 1956.0000 7.0711
-6.3640 1956.0000 6.3640
-5.6569 1956.0000 5.6569
-7.0711 1957.0000 7.0711
-6.3640 1957.0000 6.3640
-7.7782 1958.0000 7.7782
-7.0711 1958.0000 7.0711
-9.1924 1959.0000 9.1924
-8.4853 1959.0000 8.4853
-7.7782 1959.0000 7.7782
-9.8995 1960.0000 9.8995
-9.1924 1960.0000 9.1924
-8.4853 1960.0000 8.4853
-7.7782 1960.0000 7.7782
-10.6066 1961.0000 10.6066
-9.8995 1961.0000 9.8995
-9.1924 1961.0000 9.1924
-8.4853 1961.0000 8.4853
-11.3137 1962.0000 11.3137
-10.6066 1962.0000 10.6066
-9.8995 1962.0000 9.8995
-12.0208 1963.0000 12.0208
-11.3137 1963.0000 11.3137
-10.6066 1963.0000 10.6066
-12.7279 1964.0000 12.7279
-12.0208 1964.0000 12.0208
-11.3137 1964.0000 11.3137
-14.1421 1965.0000 14.1421
-13.4350 1965.0000 13.4350
-12.7279 1965.0000 12.7279
-12.0208 1965.0000 12.0208
-14.8492 1966.0000 14.8492
-14.1421 1966.0000 14.1421
-13.4350 1966.0000 13.4350
-12.7279 1966.0000 12.7279
-16.2635 1967.0000 16.2635
-15.5563 1967.0000 15.5563
-14.8492 1967.0000 14.8492
-14.1421 1967.0000 14.1421
-13.4350 1967.0000 13.4350
-16.9706 1968.0000 16.9706
-16.2635 1968.0000 16.2635
-15.5563 1968.0000 15.5563
-14.8492 1968.0000 14.8492
-19.0919 1969.0000 19.0919
-18.3848 1969.0000 18.3848
-17.6777 1969.0000 17.6777
-16.9706 1969.0000 16.9706
-16.2635 1969.0000 16.2635
-15.5563 1969.0000 15.5563
-20.5061 1970.0000 20.5061
-19.7990 1970.0000 19.7990
-19.0919 1970.0000 19.0919
-18.3848 1970.0000 18.3848
-17.6777 1970.0000 17.6777
-16.9706 1970.0000 16.9706
-16.2635 1970.0000 16.2635
-21.2132 1971.0000 21.2132
-20.5061 1971.0000 20.5061
-19.7990 1971.0000 19.7990
-19.0919 1971.0000 19.0919
-18.3848 1971.0000 18.3848
-17.6777 1971.0000 17.6777
-16.9706 1971.0000 16.9706
-21.9203 1972.0000 21.9203
-21.2132 1972.0000 21.2132
-20.5061 1972.0000 20.5061
-19.7990 1972.0000 19.7990
-19.0919 1972.0000 19.0919
-18.3848 1972.0000 18.3848
-17.6777 1972.0000 17.6777
-10.6066 1972.0000 10.6066
-9.8995 1972.0000 9.8995
-9.1924 1972.0000 9.1924
-8.4853 1972.0000 8.4853
-7.7782 1972.0000 7.7782
-22.6274 1973.0000 22.6274
-21.9203 1973.0000 21.9203
-21.2132 1973.0000 21.2132
-20.5061 1973.0000 20.5061
-19.7990 1973.0000 19.7990
-19.0919 1973.0000 19.0919
-18.3848 1973.0000 18.3848
-22.6274 1974.0000 22.6274
-21.9203 1974.0000 21.9203
-21.2132 1974.0000 21.2132
-20.5061 1974.0000 20.5061
-19.7990 1974.0000 19.7990
-19.0919 1974.0000 19.0919
-13.4350 1974.0000 13.4350
-6.3640 1974.0000 6.3640
-33.9411 1975.0000 33.9411
-23.3345 1975.0000 23.3345
-22.6274 1975.0000 22.6274
-21.9203 1975.0000 21.9203
-21.2132 1975.0000 21.2132
-20.5061 1975.0000 20.5061
-36.7696 1976.0000 36.7696
-36.0624 1976.0000 36.0624
-35.3553 1976.0000 35.3553
-34.6482 1976.0000 34.6482
-33.9411 1976.0000 33.9411
-33.2340 1976.0000 33.2340
-32.5269 1976.0000 32.5269
-28.2843 1976.0000 28.2843
-27.5772 1976.0000 27.5772
-26.8701 1976.0000 26.8701
-23.3345 1976.0000 23.3345
-22.6274 1976.0000 22.6274
-21.9203 1976.0000 21.9203
-4.9497 1976.0000 4.9497
-38.1838 1977.0000 38.1838
-37.4767 1977.0000 37.4767
-36.7696 1977.0000 36.7696
-36.0624 1977.0000 36.0624
-35.3553 1977.0000 35.3553
-34.6482 1977.0000 34.6482
-33.9411 1977.0000 33.9411
-33.2340 1977.0000 33.2340
-32.5269 1977.0000 32.5269
-31.8198 1977.0000 31.8198
-31.1127 1977.0000 31.1127
-30.4056 1977.0000 30.4056
-29.6985 1977.0000 29.6985
-28.9914 1977.0000 28.9914
-28.2843 1977.0000 28.2843
-27.5772 1977.0000 27.5772
-26.8701 1977.0000 26.8701
-26.1630 1977.0000 26.1630
-25.4558 1977.0000 25.4558
-23.3345 1977.0000 23.3345
-5.6569 1977.0000 5.6569
-4.9497 1977.0000 4.9497
-4.2426 1977.0000 4.2426
-0.7071 1977.0000 0.7071
-38.8909 1978.0000 38.8909
-38.1838 1978.0000 38.1838
-37.4767 1978.0000 37.4767
-36.7696 1978.0000 36.7696
-36.0624 1978.0000 36.0624
-35.3553 1978.0000 35.3553
-34.6482 1978.0000 34.6482
-33.9411 1978.0000 33.9411
-33.2340 1978.0000 33.2340
-32.5269 1978.0000 32.5269
-31.8198 1978.0000 31.8198
-31.1127 1978.0000 31.1127
-30.4056 1978.0000 30.4056
-29.6985 1978.0000 29.6985
-28.9914 1978.0000 28.9914
-28.2843 1978.0000 28.2843
-27.5772 1978.0000 27.5772
-26.8701 1978.0000 26.8701
-26.1630 1978.0000 26.1630
-25.4558 1978.0000 25.4558
-24.7487 1978.0000 24.7487
-24.0416 1978.0000 24.0416
-5.6569 1978.0000 5.6569
-4.9497 1978.0000 4.9497
-4.2426 1978.0000 4.2426
-1.4142 1978.0000 1.4142
-0.7071 1978.0000 0.7071
0.0000 1978.0000 0.0000
-39.5980 1979.0000 39.5980
-38.8909 1979.0000 38.8909
-38.1838 1979.0000 38.1838
-37.4767 1979.0000 37.4767
-36.7696 1979.0000 36.7696
-36.0624 1979.0000 36.0624
-35.3553 1979.0000 35.3553
-34.6482 1979.0000 34.6482
-33.9411 1979.0000 33.9411
-33.2340 1979.0000 33.2340
-32.5269 1979.0000 32.5269
-31.8198 1979.0000 31.8198
-31.1127 1979.0000 31.1127
-30.4056 1979.0000 30.4056
-25.4558 1979.0000 25.4558
-24.7487 1979.0000 24.7487
-6.3640 1979.0000 6.3640
-5.6569 1979.0000 5.6569
-1.4142 1979.0000 1.4142
-0.7071 1979.0000 0.7071
0.0000 1979.0000 0.0000
-39.5980 1980.0000 39.5980
-38.8909 1980.0000 38.8909
-38.1838 1980.0000 38.1838
-37.4767 1980.0000 37.4767
-33.9411 1980.0000 33.9411
-33.2340 1980.0000 33.2340
-32.5269 1980.0000 32.5269
-31.8198 1980.0000 31.8198
-31.1127 1980.0000 31.1127
-25.4558 1980.0000 25.4558
-24.7487 1980.0000 24.7487
-16.9706 1980.0000 16.9706
-16.2635 1980.0000 16.2635
0.0000 1980.0000 0.0000
-40.3051 1981.0000 40.3051
-39.5980 1981.0000 39.5980
-38.8909 1981.0000 38.8909
-38.1838 1981.0000 38.1838
-37.4767 1981.0000 37.4767
-33.9411 1981.0000 33.9411
-33.2340 1981.0000 33.2340
-32.5269 1981.0000 32.5269
-31.8198 1981.0000 31.8198
-26.1630 1981.0000 26.1630
-25.4558 1981.0000 25.4558
-24.7487 1981.0000 24.7487
-17.6777 1981.0000 17.6777
-16.9706 1981.0000 16.9706
-16.2635 1981.0000 16.2635
-15.5563 1981.0000 15.5563
-14.8492 1981.0000 14.8492
-40.3051 1982.0000 40.3051
-39.5980 1982.0000 39.5980
-38.8909 1982.0000 38.8909
-38.1838 1982.0000 38.1838
-33.9411 1982.0000 33.9411
-33.2340 1982.0000 33.2340
-32.5269 1982.0000 32.5269
-27.5772 1982.0000 27.5772
-26.8701 1982.0000 26.8701
-26.1630 1982.0000 26.1630
-25.4558 1982.0000 25.4558
-24.7487 1982.0000 24.7487
-24.0416 1982.0000 24.0416
-41.0122 1983.0000 41.0122
-40.3051 1983.0000 40.3051
-39.5980 1983.0000 39.5980
-38.8909 1983.0000 38.8909
-38.1838 1983.0000 38.1838
-34.6482 1983.0000 34.6482
-33.9411 1983.0000 33.9411
-28.2843 1983.0000 28.2843
-27.5772 1983.0000 27.5772
-25.4558 1983.0000 25.4558
-24.7487 1983.0000 24.7487
-24.0416 1983.0000 24.0416
-23.3345 1983.0000 23.3345
-22.6274 1983.0000 22.6274
-9.1924 1983.0000 9.1924
-41.0122 1984.0000 41.0122
-40.3051 1984.0000 40.3051
-39.5980 1984.0000 39.5980
-38.8909 1984.0000 38.8909
-35.3553 1984.0000 35.3553
-34.6482 1984.0000 34.6482
-29.6985 1984.0000 29.6985
-28.9914 1984.0000 28.9914
-28.2843 1984.0000 28.2843
-24.7487 1984.0000 24.7487
-24.0416 1984.0000 24.0416
-23.3345 1984.0000 23.3345
-22.6274 1984.0000 22.6274
-21.9203 1984.0000 21.9203
-17.6777 1984.0000 17.6777
-16.9706 1984.0000 16.9706
-16.2635 1984.0000 16.2635
-15.5563 1984.0000 15.5563
-14.8492 1984.0000 14.8492
-14.1421 1984.0000 14.1421
-9.1924 1984.0000 9.1924
-41.0122 1985.0000 41.0122
-40.3051 1985.0000 40.3051
-39.5980 1985.0000 39.5980
-38.8909 1985.0000 38.8909
-36.0624 1985.0000 36.0624
-35.3553 1985.0000 35.3553
-34.6482 1985.0000 34.6482
-23.3345 1985.0000 23.3345
-22.6274 1985.0000 22.6274
-21.9203 1985.0000 21.9203
-16.9706 1985.0000 16.9706
-16.2635 1985.0000 16.2635
-15.5563 1985.0000 15.5563
-14.8492 1985.0000 14.8492
-14.1421 1985.0000 14.1421
-9.1924 1985.0000 9.1924
-41.0122 1986.0000 41.0122
-40.3051 1986.0000 40.3051
-39.5980 1986.0000 39.5980
-38.8909 1986.0000 38.8909
-36.0624 1986.0000 36.0624
-35.3553 1986.0000 35.3553
-30.4056 1986.0000 30.4056
-15.5563 1986.0000 15.5563
-14.8492 1986.0000 14.8492
-9.8995 1986.0000 9.8995
-9.1924 1986.0000 9.1924
-41.0122 1987.0000 41.0122
-40.3051 1987.0000 40.3051
-39.5980 1987.0000 39.5980
-38.8909 1987.0000 38.8909
-36.0624 1987.0000 36.0624
-31.1127 1987.0000 31.1127
-9.1924 1987.0000 9.1924
-40.3051 1988.0000 40.3051
-39.5980 1988.0000 39.5980
-38.8909 1988.0000 38.8909
-36.0624 1988.0000 36.0624
-31.1127 1988.0000 31.1127
-9.1924 1988.0000 9.1924
-40.3051 1989.0000 40.3051
-39.5980 1989.0000 39.5980
-38.8909 1989.0000 38.8909
-38.1838 1989.0000 38.1838
-36.7696 1989.0000 36.7696
-36.0624 1989.0000 36.0624
-35.3553 1989.0000 35.3553
-31.1127 1989.0000 31.1127
-9.1924 1989.0000 9.1924
-40.3051 1990.0000 40.3051
-39.5980 1990.0000 39.5980
-38.8909 1990.0000 38.8909
-38.1838 1990.0000 38.1838
-37.4767 1990.0000 37.4767
-36.7696 1990.0000 36.7696
-36.0624 1990.0000 36.0624
-35.3553 1990.0000 35.3553
-31.8198 1990.0000 31.8198
-31.1127 1990.0000 31.1127
-23.3345 1990.0000 23.3345
-9.8995 1990.0000 9.8995
-9.1924 1990.0000 9.1924
-8.4853 1990.0000 8.4853
-39.5980 1991.0000 39.5980
-38.8909 1991.0000 38.8909
-38.1838 1991.0000 38.1838
-37.4767 1991.0000 37.4767
-36.7696 1991.0000 36.7696
-36.0624 1991.0000 36.0624
-35.3553 1991.0000 35.3553
-34.6482 1991.0000 34.6482
-31.1127 1991.0000 31.1127
-23.3345 1991.0000 23.3345
-10.6066 1991.0000 10.6066
-9.8995 1991.0000 9.8995
-9.1924 1991.0000 9.1924
-8.4853 1991.0000 8.4853
-7.7782 1991.0000 7.7782
-38.8909 1992.0000 38.8909
-38.1838 1992.0000 38.1838
-37.4767 1992.0000 37.4767
-36.7696 1992.0000 36.7696
-36.0624 1992.0000 36.0624
-35.3553 1992.0000 35.3553
-34.6482 1992.0000 34.6482
-31.1127 1992.0000 31.1127
-23.3345 1992.0000 23.3345
-11.3137 1992.0000 11.3137
-10.6066 1992.0000 10.6066
-9.8995 1992.0000 9.8995
-9.1924 1992.0000 9.1924
-8.4853 1992.0000 8.4853
-7.7782 1992.0000 7.7782
-38.1838 1993.0000 38.1838
-37.4767 1993.0000 37.4767
-36.7696 1993.0000 36.7696
-36.0624 1993.0000 36.0624
-35.3553 1993.0000 35.3553
-34.6482 1993.0000 34.6482
-33.9411 1993.0000 33.9411
-31.8198 1993.0000 31.8198
-31.1127 1993.0000 31.1127
-30.4056 1993.0000 30.4056
-23.3345 1993.0000 23.3345
-22.6274 1993.0000 22.6274
-12.0208 1993.0000 12.0208
-11.3137 1993.0000 11.3137
-10.6066 1993.0000 10.6066
-9.8995 1993.0000 9.8995
-9.1924 1993.0000 9.1924
-8.4853 1993.0000 8.4853
-7.7782 1993.0000 7.7782
-7.0711 1993.0000 7.0711
-6.3640 1993.0000 6.3640
-35.3553 1994.0000 35.3553
-34.6482 1994.0000 34.6482
-33.9411 1994.0000 33.9411
-33.2340 1994.0000 33.2340
-32.5269 1994.0000 32.5269
-31.8198 1994.0000 31.8198
-31.1127 1994.0000 31.1127
-30.4056 1994.0000 30.4056
-23.3345 1994.0000 23.3345
-22.6274 1994.0000 22.6274
-21.9203 1994.0000 21.9203
-12.7279 1994.0000 12.7279
-12.0208 1994.0000 12.0208
-11.3137 1994.0000 11.3137
-10.6066 1994.0000 10.6066
-9.8995 1994.0000 9.8995
-9.1924 1994.0000 9.1924
-8.4853 1994.0000 8.4853
-7.7782 1994.0000 7.7782
-7.0711 1994.0000 7.0711
-6.3640 1994.0000 6.3640
-5.6569 1994.0000 5.6569
-34.6482 1995.0000 34.6482
-33.9411 1995.0000 33.9411
-33.2340 1995.0000 33.2340
-32.5269 1995.0000 32.5269
-31.8198 1995.0000 31.8198
-31.1127 1995.0000 31.1127
-30.4056 1995.0000 30.4056
-29.6985 1995.0000 29.6985
-24.0416 1995.0000 24.0416
-23.3345 1995.0000 23.3345
-22.6274 1995.0000 22.6274
-21.9203 1995.0000 21.9203
-21.2132 1995.0000 21.2132
-19.7990 1995.0000 19.7990
-19.0919 1995.0000 19.0919
-14.1421 1995.0000 14.1421
-13.4350 1995.0000 13.4350
-12.7279 1995.0000 12.7279
-12.0208 1995.0000 12.0208
-11.3137 1995.0000 11.3137
-7.0711 1995.0000 7.0711
-6.3640 1995.0000 6.3640
-5.6569 1995.0000 5.6569
-4.9497 1995.0000 4.9497
-4.2426 1995.0000 4.2426
-33.9411 1996.0000 33.9411
-33.2340 1996.0000 33.2340
-32.5269 1996.0000 32.5269
-31.8198 1996.0000 31.8198
-31.1127 1996.0000 31.1127
-30.4056 1996.0000 30.4056
-29.6985 1996.0000 29.6985
-28.9914 1996.0000 28.9914
-25.4558 1996.0000 25.4558
-24.7487 1996.0000 24.7487
-24.0416 1996.0000 24.0416
-23.3345 1996.0000 23.3345
-22.6274 1996.0000 22.6274
-21.9203 1996.0000 21.9203
-21.2132 1996.0000 21.2132
-20.5061 1996.0000 20.5061
-19.7990 1996.0000 19.7990
-19.0919 1996.0000 19.0919
-18.3848 1996.0000 18.3848
-16.2635 1996.0000 16.2635
-15.5563 1996.0000 15.5563
-14.8492 1996.0000 14.8492
-14.1421 1996.0000 14.1421
-13.4350 1996.0000 13.4350
-12.7279 1996.0000 12.7279
-6.3640 1996.0000 6.3640
-5.6569 1996.0000 5.6569
-4.9497 1996.0000 4.9497
-4.2426 1996.0000 4.2426
-3.5355 1996.0000 3.5355
-2.8284 1996.0000 2.8284
-2.1213 1996.0000 2.1213
-1.4142 1996.0000 1.4142
-0.7071 1996.0000 0.7071
0.0000 1996.0000 0.0000
-26.1630 1997.0000 26.1630
-25.4558 1997.0000 25.4558
-24.7487 1997.0000 24.7487
-24.0416 1997.0000 24.0416
-18.3848 1997.0000 18.3848
-17.6777 1997.0000 17.6777
-16.9706 1997.0000 16.9706
-16.2635 1997.0000 16.2635
-15.5563 1997.0000 15.5563
-14.8492 1997.0000 14.8492
-14.1421 1997.0000 14.1421
-4.9497 1997.0000 4.9497
-4.2426 1997.0000 4.2426
-3.5355 1997.0000 3.5355
-2.8284 1997.0000 2.8284
-2.1213 1997.0000 2.1213
-1.4142 1997.0000 1.4142
-0.7071 1997.0000 0.7071
0.0000 1997.0000 0.0000
-26.8701 1998.0000 26.8701
-26.1630 1998.0000 26.1630
-25.4558 1998.0000 25.4558
-1.4142 1998.0000 1.4142
-0.7071 1998.0000 0.7071
0.0000 1998.0000 0.0000
