ply
format ascii 1.0
element vertex 1812
property float x
property float y
property float z
element face 0
property list uchar int vertex_index
end_header
-25.2800 1217.2800 3.9600
-22.7360 1215.1200 5.2560
-22.7360 1217.2080 -5.8800
17.1075 1202.1825 -22.6800
43.9775 1175.6655 8.0640
-23.4675 1216.5175 6.9300
-21.2415 1214.6275 8.0640
-21.2415 1217.8945 -9.3600
24.2000 1196.2800 -19.8000
38.0400 1179.8160 10.8480
-20.5200 1215.1200 10.2000
-19.2480 1214.0400 10.8480
-19.2480 1218.5040 -12.9600
31.3125 1190.1875 -16.5000
31.3125 1184.5625 13.5000
-16.8125 1213.3125 13.5000
-16.8125 1213.3125 13.5000
-16.8125 1218.9375 -16.5000
38.0400 1184.2800 -12.9600
24.2000 1189.5840 15.9120
-12.7200 1211.3200 16.5600
-13.9920 1212.4000 15.9120
-13.9920 1219.0960 -19.8000
43.9775 1178.9325 -9.3600
17.1075 1194.5595 17.9760
-8.6175 1209.3675 19.1100
-10.8435 1211.2575 17.9760
-10.8435 1218.8805 -22.6800
48.7200 1174.5200 -5.8800
10.4400 1199.1680 19.5840
-4.8800 1207.6800 20.8800
-7.4240 1209.8400 19.5840
-7.4240 1218.1920 -24.9600
51.8625 1171.4175 -2.7000
4.6025 1203.0885 20.6280
-1.8825 1206.4825 21.6000
-3.7905 1208.1025 20.6280
-3.7905 1216.9315 -26.4600
0.0000 1215.0000 -26.0000
47.0000 1171.0000 0.0000
-59.0000 1217.0000 0.0000
-59.0000 1217.0000 0.0000
-59.0000 1217.0000 0.0000
5.6090 1211.9455 -25.4880
46.1610 1171.4085 2.5600
-59.5170 1218.1185 1.6240
-57.8250 1216.5345 2.5600
-57.8250 1217.5155 -2.6720
11.6720 1207.6240 -24.0640
43.8080 1173.3280 5.3600
-56.8160 1218.1280 4.1120
-54.5600 1216.0160 5.3600
-54.5600 1218.1040 -5.7760
17.9430 1202.3985 -21.8960
40.1870 1176.4495 8.2800
-51.5690 1217.2595 7.1880
-49.5950 1215.4115 8.2800
-49.5950 1218.6785 -9.1440
24.1760 1196.6320 -19.1520
35.5440 1180.4640 11.2000
-44.4480 1215.7440 10.5760
-43.3200 1214.6880 11.2000
-43.3200 1219.1520 -12.6080
30.1250 1190.6875 -16.0000
30.1250 1185.0625 14.0000
-36.1250 1213.8125 14.0000
-36.1250 1213.8125 14.0000
-36.1250 1219.4375 -16.0000
35.5440 1184.9280 -12.6080
24.1760 1189.9360 16.5600
-27.2720 1211.6960 17.1840
-28.4000 1212.7520 16.5600
-28.4000 1219.4480 -19.1520
40.1870 1179.7165 -9.1440
17.9430 1194.7755 18.7600
-18.5610 1209.6255 19.8520
-20.5350 1211.4735 18.7600
-20.5350 1219.0965 -21.8960
43.8080 1175.4160 -5.7760
11.6720 1199.2720 20.4800
-10.6640 1207.8320 21.7280
-12.9200 1209.9440 20.4800
-12.9200 1218.2960 -24.0640
46.1610 1172.3895 -2.6720
5.6090 1203.1165 21.6000
-4.2530 1206.5465 22.5360
-5.9450 1208.1305 21.6000
-5.9450 1216.9595 -25.4880
0.0000 1215.0000 -25.0000
47.0000 1171.0000 0.0000
-59.0000 1217.0000 0.0000
-59.0000 1217.0000 0.0000
-59.0000 1217.0000 0.0000
5.6090 1211.9455 -24.5160
46.1610 1171.4085 2.5880
-59.5170 1218.1185 1.6880
-57.8250 1216.5345 2.5880
-57.8250 1217.5155 -2.6440
11.6720 1207.6240 -23.1680
43.8080 1173.3280 5.4640
-56.8160 1218.1280 4.2640
-54.5600 1216.0160 5.4640
-54.5600 1218.1040 -5.6720
17.9430 1202.3985 -21.1120
40.1870 1176.4495 8.4960
-51.5690 1217.2595 7.4460
-49.5950 1215.4115 8.4960
-49.5950 1218.6785 -8.9280
24.1760 1196.6320 -18.5040
35.5440 1180.4640 11.5520
-44.4480 1215.7440 10.9520
-43.3200 1214.6880 11.5520
-43.3200 1219.1520 -12.2560
30.1250 1190.6875 -15.5000
30.1250 1185.0625 14.5000
-36.1250 1213.8125 14.5000
-36.1250 1213.8125 14.5000
-36.1250 1219.4375 -15.5000
35.5440 1184.9280 -12.2560
24.1760 1189.9360 17.2080
-27.2720 1211.6960 17.8080
-28.4000 1212.7520 17.2080
-28.4000 1219.4480 -18.5040
40.1870 1179.7165 -8.9280
17.9430 1194.7755 19.5440
-18.5610 1209.6255 20.5940
-20.5350 1211.4735 19.5440
-20.5350 1219.0965 -21.1120
43.8080 1175.4160 -5.6720
11.6720 1199.2720 21.3760
-10.6640 1207.8320 22.5760
-12.9200 1209.9440 21.3760
-12.9200 1218.2960 -23.1680
46.1610 1172.3895 -2.6440
5.6090 1203.1165 22.5720
-4.2530 1206.5465 23.4720
-5.9450 1208.1305 22.5720
-5.9450 1216.9595 -24.5160
0.0000 1216.0000 -27.0000
48.0000 1171.0000 0.0000
-58.0000 1217.0000 0.0000
-58.0000 1217.0000 0.0000
-58.0000 1217.0000 0.0000
5.6370 1212.9220 -26.4735
47.1330 1171.3680 2.7375
-58.5810 1218.1140 1.7655
-56.8530 1216.4940 2.7375
-56.8530 1217.5840 -2.8215
11.7760 1208.5360 -25.0080
44.7040 1173.2640 5.7600
-55.9680 1218.1120 4.4640
-53.6640 1215.9520 5.7600
-53.6640 1218.2720 -6.0720
18.1590 1203.2140 -22.7745
40.9710 1176.3760 8.9325
-50.8270 1217.2280 7.7985
-48.8110 1215.3380 8.9325
-48.8110 1218.9680 -9.5805
24.5280 1197.3280 -19.9440
36.1920 1180.3920 12.1200
-43.8240 1215.6960 11.4720
-42.6720 1214.6160 12.1200
-42.6720 1219.5760 -13.1760
30.6250 1191.2500 -16.6875
30.6250 1185.0000 15.1875
-35.6250 1213.7500 15.1875
-35.6250 1213.7500 15.1875
-35.6250 1220.0000 -16.6875
36.1920 1185.3520 -13.1760
24.5280 1189.8880 18.0000
-26.8960 1211.6240 18.6480
-28.0480 1212.7040 18.0000
-28.0480 1220.1440 -19.9440
40.9710 1180.0060 -9.5805
18.1590 1194.7440 20.4225
-18.3030 1209.5520 21.5565
-20.3190 1211.4420 20.4225
-20.3190 1219.9120 -22.7745
44.7040 1175.5840 -6.0720
11.7760 1199.2560 22.3200
-10.5120 1207.7680 23.6160
-12.8160 1209.9280 22.3200
-12.8160 1219.2080 -25.0080
47.1330 1172.4580 -2.8215
5.6370 1203.1120 23.5575
-4.1890 1206.5060 24.5295
-5.9170 1208.1260 23.5575
-5.9170 1217.9360 -26.4735
0.0000 1216.0000 -26.0000
48.0000 1171.0000 0.0000
-57.0000 1217.0000 0.0000
-57.0000 1217.0000 0.0000
-57.0000 1217.0000 0.0000
5.5965 1212.9175 -25.4835
47.1285 1171.4365 2.4915
-57.6045 1218.1825 1.5555
-55.8765 1216.5625 2.4915
-55.8765 1217.5435 -2.6315
11.7120 1208.5200 -24.0480
44.6880 1173.4320 5.1920
-55.0560 1218.2800 3.9440
-52.7520 1216.1200 5.1920
-52.7520 1218.2080 -5.7120
18.0855 1203.1825 -21.8645
40.9395 1176.6655 7.9905
-50.0115 1217.5175 6.8985
-47.9955 1215.6275 7.9905
-47.9955 1218.8945 -9.0705
24.4560 1197.2800 -19.1040
36.1440 1180.8160 10.7760
-43.1280 1216.1200 10.1520
-41.9760 1215.0400 10.7760
-41.9760 1219.5040 -12.5360
30.5625 1191.1875 -15.9375
30.5625 1185.5625 13.4375
-35.0625 1214.3125 13.4375
-35.0625 1214.3125 13.4375
-35.0625 1219.9375 -15.9375
36.1440 1185.2800 -12.5360
24.4560 1190.5840 15.8640
-26.4720 1212.3200 16.4880
-27.6240 1213.4000 15.8640
-27.6240 1220.0960 -19.1040
40.9395 1179.9325 -9.0705
18.0855 1195.5595 17.9445
-18.0135 1210.3675 19.0365
-20.0295 1212.2575 17.9445
-20.0295 1219.8805 -21.8645
44.6880 1175.5200 -5.7120
11.7120 1200.1680 19.5680
-10.3440 1208.6800 20.8160
-12.6480 1210.8400 19.5680
-12.6480 1219.1920 -24.0480
47.1285 1172.4175 -2.6315
5.5965 1204.0885 20.6235
-4.1205 1207.4825 21.5595
-5.8485 1209.1025 20.6235
-5.8485 1217.9315 -25.4835
0.0000 1216.0000 -25.0000
52.0000 1171.0000 0.0000
-57.0000 1217.0000 0.0000
-57.0000 1217.0000 0.0000
-57.0000 1217.0000 0.0000
5.8705 1212.9175 -24.5115
51.0345 1171.4365 2.5195
-57.7665 1218.1825 1.6195
-55.8945 1216.5625 2.5195
-55.8945 1217.5435 -2.6035
12.3840 1208.5200 -23.1520
48.3360 1173.4320 5.2960
-55.3120 1218.2800 4.0960
-52.8160 1216.1200 5.2960
-52.8160 1218.2080 -5.6080
19.2435 1203.1825 -21.0805
44.2015 1176.6655 8.2065
-50.3055 1217.5175 7.1565
-48.1215 1215.6275 8.2065
-48.1215 1218.8945 -8.8545
26.1520 1197.2800 -18.4560
38.9280 1180.8160 11.1280
-43.4160 1216.1200 10.5280
-42.1680 1215.0400 11.1280
-42.1680 1219.5040 -12.1840
32.8125 1191.1875 -15.4375
32.8125 1185.5625 13.9375
-35.3125 1214.3125 13.9375
-35.3125 1214.3125 13.9375
-35.3125 1219.9375 -15.4375
38.9280 1185.2800 -12.1840
26.1520 1190.5840 16.5120
-26.6640 1212.3200 17.1120
-27.9120 1213.4000 16.5120
-27.9120 1220.0960 -18.4560
44.2015 1179.9325 -8.8545
19.2435 1195.5595 18.7285
-18.1395 1210.3675 19.7785
-20.3235 1212.2575 18.7285
-20.3235 1219.8805 -21.0805
48.3360 1175.5200 -5.6080
12.3840 1200.1680 20.4640
-10.4080 1208.6800 21.6640
-12.9040 1210.8400 20.4640
-12.9040 1219.1920 -23.1520
51.0345 1172.4175 -2.6035
5.8705 1204.0885 21.5955
-4.1385 1207.4825 22.4955
-6.0105 1209.1025 21.5955
-6.0105 1217.9315 -24.5115
0.0000 1217.0000 -26.0000
52.0000 1171.0000 0.0000
-36.0000 1217.0000 0.0000
-36.0000 1217.0000 0.0000
-36.0000 1217.0000 0.0000
5.0200 1213.8940 -25.4925
50.9400 1171.3960 2.6285
-37.2600 1218.1780 1.6925
-35.3880 1216.5220 2.6285
-35.3880 1217.6120 -2.7125
11.0400 1209.4320 -24.0800
48.0000 1173.3680 5.5280
-36.1600 1218.2640 4.2800
-33.6640 1216.0560 5.5280
-33.6640 1218.3760 -5.8400
17.7000 1203.9980 -21.9275
43.5400 1176.5920 8.5695
-33.1800 1217.4860 7.4775
-30.9960 1215.5540 8.5695
-30.9960 1219.1840 -9.2175
24.6400 1197.9760 -19.2000
37.9200 1180.7440 11.6240
-28.8000 1216.0720 11.0000
-27.5520 1214.9680 11.6240
-27.5520 1219.9280 -12.6800
31.5000 1191.7500 -16.0625
31.5000 1185.5000 14.5625
-23.5000 1214.2500 14.5625
-23.5000 1214.2500 14.5625
-23.5000 1220.5000 -16.0625
37.9200 1185.7040 -12.6800
24.6400 1190.5360 17.2560
-17.7600 1212.2480 17.8800
-19.0080 1213.3520 17.2560
-19.0080 1220.7920 -19.2000
43.5400 1180.2220 -9.2175
17.7000 1195.5280 19.5755
-12.0600 1210.2940 20.6675
-14.2440 1212.2260 19.5755
-14.2440 1220.6960 -21.9275
48.0000 1175.6880 -5.8400
11.0400 1200.1520 21.3920
-6.8800 1208.6160 22.6400
-9.3760 1210.8240 21.3920
-9.3760 1220.1040 -24.0800
50.9400 1172.4860 -2.7125
5.0200 1204.0840 22.5765
-2.7000 1207.4420 23.5125
-4.5720 1209.0980 22.5765
-4.5720 1218.9080 -25.4925
0.0000 1219.0000 -26.0000
53.0000 1171.0000 0.0000
-35.0000 1217.0000 0.0000
-35.0000 1217.0000 0.0000
-35.0000 1217.0000 0.0000
5.0480 1215.8470 -25.4970
51.9120 1171.3150 2.6970
-36.3240 1218.1690 1.7610
-34.4160 1216.4410 2.6970
-34.4160 1217.7490 -2.7530
11.1440 1211.2560 -24.0960
48.8960 1173.2400 5.6960
-35.3120 1218.2320 4.4480
-32.7680 1215.9280 5.6960
-32.7680 1218.7120 -5.9040
17.9160 1205.6290 -21.9590
44.3240 1176.4450 8.8590
-32.4380 1217.4230 7.7670
-30.2120 1215.4070 8.8590
-30.2120 1219.7630 -9.2910
24.9920 1199.3680 -19.2480
38.5680 1180.6000 12.0480
-28.1760 1215.9760 11.4240
-26.9040 1214.8240 12.0480
-26.9040 1220.7760 -12.7520
32.0000 1192.8750 -16.1250
32.0000 1185.3750 15.1250
-23.0000 1214.1250 15.1250
-23.0000 1214.1250 15.1250
-23.0000 1221.6250 -16.1250
38.5680 1186.5520 -12.7520
24.9920 1190.4400 17.9520
-17.3840 1212.1040 18.5760
-18.6560 1213.2560 17.9520
-18.6560 1222.1840 -19.2480
44.3240 1180.8010 -9.2910
17.9160 1195.4650 20.3910
-11.8020 1210.1470 21.4830
-14.0280 1212.1630 20.3910
-14.0280 1222.3270 -21.9590
48.8960 1176.0240 -5.9040
11.1440 1200.1200 22.3040
-6.7280 1208.4880 23.5520
-9.2720 1210.7920 22.3040
-9.2720 1221.9280 -24.0960
51.9120 1172.6230 -2.7530
5.0480 1204.0750 23.5530
-2.6360 1207.3610 24.4890
-4.5440 1209.0890 23.5530
-4.5440 1220.8610 -25.4970
0.0000 1219.0000 -26.0000
53.0000 1171.0000 0.0000
-35.0000 1217.0000 0.0000
-35.0000 1217.0000 0.0000
-35.0000 1217.0000 0.0000
5.0480 1215.8425 -25.4835
51.9120 1171.3835 2.4915
-36.3240 1218.2375 1.5555
-34.4160 1216.5095 2.4915
-34.4160 1217.7085 -2.6315
11.1440 1211.2400 -24.0480
48.8960 1173.4080 5.1920
-35.3120 1218.4000 3.9440
-32.7680 1216.0960 5.1920
-32.7680 1218.6480 -5.7120
17.9160 1205.5975 -21.8645
44.3240 1176.7345 7.9905
-32.4380 1217.7125 6.8985
-30.2120 1215.6965 7.9905
-30.2120 1219.6895 -9.0705
24.9920 1199.3200 -19.1040
38.5680 1181.0240 10.7760
-28.1760 1216.4000 10.1520
-26.9040 1215.2480 10.7760
-26.9040 1220.7040 -12.5360
32.0000 1192.8125 -15.9375
32.0000 1185.9375 13.4375
-23.0000 1214.6875 13.4375
-23.0000 1214.6875 13.4375
-23.0000 1221.5625 -15.9375
38.5680 1186.4800 -12.5360
24.9920 1191.1360 15.8640
-17.3840 1212.8000 16.4880
-18.6560 1213.9520 15.8640
-18.6560 1222.1360 -19.1040
44.3240 1180.7275 -9.0705
17.9160 1196.2805 17.9445
-11.8020 1210.9625 19.0365
-14.0280 1212.9785 17.9445
-14.0280 1222.2955 -21.8645
48.8960 1175.9600 -5.7120
11.1440 1201.0320 19.5680
-6.7280 1209.4000 20.8160
-9.2720 1211.7040 19.5680
-9.2720 1221.9120 -24.0480
51.9120 1172.5825 -2.6315
5.0480 1205.0515 20.6235
-2.6360 1208.3375 21.5595
-4.5440 1210.0655 20.6235
-4.5440 1220.8565 -25.4835
0.0000 1220.0000 -26.0000
48.0000 1172.0000 0.0000
-34.0000 1217.0000 0.0000
-34.0000 1217.0000 0.0000
-34.0000 1217.0000 0.0000
4.6650 1216.8875 -25.4880
47.0250 1172.3195 2.5600
-35.1450 1218.1925 1.6240
-33.4170 1216.4645 2.5600
-33.4170 1217.7725 -2.6720
10.2400 1212.3200 -24.0640
44.3200 1174.2560 5.3600
-34.0800 1218.3200 4.1120
-31.7760 1216.0160 5.3600
-31.7760 1218.8000 -5.7760
16.3950 1206.7025 -21.8960
40.2150 1177.4765 8.2800
-31.2550 1217.6075 7.1880
-29.2390 1215.5915 8.2800
-29.2390 1219.9475 -9.1440
22.8000 1200.4400 -19.1520
35.0400 1181.6480 11.2000
-27.1200 1216.2800 10.5760
-25.9680 1215.1280 11.2000
-25.9680 1221.0800 -12.6080
29.1250 1193.9375 -16.0000
29.1250 1186.4375 14.0000
-22.1250 1214.5625 14.0000
-22.1250 1214.5625 14.0000
-22.1250 1222.0625 -16.0000
35.0400 1187.6000 -12.6080
22.8000 1191.5120 16.5600
-16.7200 1212.6800 17.1840
-17.8720 1213.8320 16.5600
-17.8720 1222.7600 -19.1520
40.2150 1181.8325 -9.1440
16.3950 1196.5385 18.7600
-11.3550 1210.8575 19.8520
-13.3710 1212.8735 18.7600
-13.3710 1223.0375 -21.8960
44.3200 1177.0400 -5.7760
10.2400 1201.1840 20.4800
-6.4800 1209.3200 21.7280
-8.7840 1211.6240 20.4800
-8.7840 1222.7600 -24.0640
47.0250 1173.6275 -2.6720
4.6650 1205.1155 21.6000
-2.5450 1208.2925 22.5360
-4.2730 1210.0205 21.6000
-4.2730 1221.7925 -25.4880
0.0000 1220.0000 -25.0000
48.0000 1172.0000 0.0000
-33.0000 1217.0000 0.0000
-33.0000 1217.0000 0.0000
-33.0000 1217.0000 0.0000
4.6245 1216.8875 -24.5160
47.0205 1172.3195 2.5880
-34.1685 1218.1925 1.6880
-32.4405 1216.4645 2.5880
-32.4405 1217.7725 -2.6440
10.1760 1212.3200 -23.1680
44.3040 1174.2560 5.4640
-33.1680 1218.3200 4.2640
-30.8640 1216.0160 5.4640
-30.8640 1218.8000 -5.6720
16.3215 1206.7025 -21.1120
40.1835 1177.4765 8.4960
-30.4395 1217.6075 7.4460
-28.4235 1215.5915 8.4960
-28.4235 1219.9475 -8.9280
22.7280 1200.4400 -18.5040
34.9920 1181.6480 11.5520
-26.4240 1216.2800 10.9520
-25.2720 1215.1280 11.5520
-25.2720 1221.0800 -12.2560
29.0625 1193.9375 -15.5000
29.0625 1186.4375 14.5000
-21.5625 1214.5625 14.5000
-21.5625 1214.5625 14.5000
-21.5625 1222.0625 -15.5000
34.9920 1187.6000 -12.2560
22.7280 1191.5120 17.2080
-16.2960 1212.6800 17.8080
-17.4480 1213.8320 17.2080
-17.4480 1222.7600 -18.5040
40.1835 1181.8325 -8.9280
16.3215 1196.5385 19.5440
-11.0655 1210.8575 20.5940
-13.0815 1212.8735 19.5440
-13.0815 1223.0375 -21.1120
44.3040 1177.0400 -5.6720
10.1760 1201.1840 21.3760
-6.3120 1209.3200 22.5760
-8.6160 1211.6240 21.3760
-8.6160 1222.7600 -23.1680
47.0205 1173.6275 -2.6440
4.6245 1205.1155 22.5720
-2.4765 1208.2925 23.4720
-4.2045 1210.0205 22.5720
-4.2045 1221.7925 -24.5160
0.0000 1220.0000 -24.0000
49.0000 1172.0000 0.0000
-24.0000 1217.0000 0.0000
-24.0000 1217.0000 0.0000
-24.0000 1217.0000 0.0000
4.3285 1216.8830 -23.5305
47.9565 1172.3880 2.4105
-25.4205 1218.2610 1.5465
-23.6565 1216.5330 2.4105
-23.6565 1217.7320 -2.4945
9.7680 1212.3040 -22.2240
45.0720 1174.4240 5.0640
-25.0240 1218.4880 3.9120
-22.6720 1216.1840 5.0640
-22.6720 1218.7360 -5.3760
15.9495 1206.6710 -20.2335
40.7155 1177.7660 7.8435
-23.1735 1217.8970 6.8355
-21.1155 1215.8810 7.8435
-21.1155 1219.8740 -8.4915
22.5040 1200.3920 -17.7120
35.2560 1182.0720 10.6320
-20.2320 1216.7040 10.0560
-19.0560 1215.5520 10.6320
-19.0560 1221.0080 -11.6880
29.0625 1193.8750 -14.8125
29.0625 1187.0000 13.3125
-16.5625 1215.1250 13.3125
-16.5625 1215.1250 13.3125
-16.5625 1222.0000 -14.8125
35.2560 1187.5280 -11.6880
22.5040 1192.2080 15.7680
-12.5280 1213.3760 16.3440
-13.7040 1214.5280 15.7680
-13.7040 1222.7120 -17.7120
40.7155 1181.7590 -8.4915
15.9495 1197.3540 17.8815
-8.4915 1211.6730 18.8895
-10.5495 1213.6890 17.8815
-10.5495 1223.0060 -20.2335
45.0720 1176.9760 -5.3760
9.7680 1202.0960 19.5360
-4.8160 1210.2320 20.6880
-7.1680 1212.5360 19.5360
-7.1680 1222.7440 -22.2240
47.9565 1173.5870 -2.4945
4.3285 1206.0920 20.6145
-1.8645 1209.2690 21.4785
-3.6285 1210.9970 20.6145
-3.6285 1221.7880 -23.5305
0.0000 1221.0000 -26.0000
49.0000 1172.0000 0.0000
-24.0000 1217.0000 0.0000
-24.0000 1217.0000 0.0000
-24.0000 1217.0000 0.0000
4.3285 1217.8595 -25.4880
47.9565 1172.3475 2.5600
-25.4205 1218.2565 1.6240
-23.6565 1216.4925 2.5600
-23.6565 1217.8005 -2.6720
9.7680 1213.2160 -24.0640
45.0720 1174.3600 5.3600
-25.0240 1218.4720 4.1120
-22.6720 1216.1200 5.3600
-22.6720 1218.9040 -5.7760
15.9495 1207.4865 -21.8960
40.7155 1177.6925 8.2800
-23.1735 1217.8655 7.1880
-21.1155 1215.8075 8.2800
-21.1155 1220.1635 -9.1440
22.5040 1201.0880 -19.1520
35.2560 1182.0000 11.2000
-20.2320 1216.6560 10.5760
-19.0560 1215.4800 11.2000
-19.0560 1221.4320 -12.6080
29.0625 1194.4375 -16.0000
29.0625 1186.9375 14.0000
-16.5625 1215.0625 14.0000
-16.5625 1215.0625 14.0000
-16.5625 1222.5625 -16.0000
35.2560 1187.9520 -12.6080
22.5040 1192.1600 16.5600
-12.5280 1213.3040 17.1840
-13.7040 1214.4800 16.5600
-13.7040 1223.4080 -19.1520
40.7155 1182.0485 -9.1440
15.9495 1197.3225 18.7600
-8.4915 1211.5995 19.8520
-10.5495 1213.6575 18.7600
-10.5495 1223.8215 -21.8960
45.0720 1177.1440 -5.7760
9.7680 1202.0800 20.4800
-4.8160 1210.1680 21.7280
-7.1680 1212.5200 20.4800
-7.1680 1223.6560 -24.0640
47.9565 1173.6555 -2.6720
4.3285 1206.0875 21.6000
-1.8645 1209.2285 22.5360
-3.6285 1210.9925 21.6000
-3.6285 1222.7645 -25.4880
0.0000 1221.0000 -25.0000
50.0000 1172.0000 0.0000
-60.0000 1218.0000 0.0000
-60.0000 1218.0000 0.0000
-60.0000 1218.0000 0.0000
5.8550 1217.8190 -24.5160
49.0950 1172.3430 2.5880
-60.6150 1219.2330 1.6880
-58.8150 1217.4690 2.5880
-58.8150 1218.7770 -2.6440
12.2400 1213.1520 -23.1680
46.5600 1174.3440 5.4640
-57.9200 1219.3840 4.2640
-55.5200 1217.0320 5.4640
-55.5200 1219.8160 -5.6720
18.8850 1207.4130 -21.1120
42.6650 1177.6610 8.4960
-52.6050 1218.6810 7.4460
-50.5050 1216.6230 8.4960
-50.5050 1220.9790 -8.9280
25.5200 1201.0160 -18.5040
37.6800 1181.9520 11.5520
-45.3600 1217.3520 10.9520
-44.1600 1216.1760 11.5520
-44.1600 1222.1280 -12.2560
31.8750 1194.3750 -15.5000
31.8750 1186.8750 14.5000
-36.8750 1215.6250 14.5000
-36.8750 1215.6250 14.5000
-36.8750 1223.1250 -15.5000
37.6800 1187.9040 -12.2560
25.5200 1192.0880 17.2080
-27.8400 1213.7280 17.8080
-29.0400 1214.9040 17.2080
-29.0400 1223.8320 -18.5040
42.6650 1182.0170 -8.9280
18.8850 1197.2490 19.5440
-18.9450 1211.8890 20.5940
-21.0450 1213.9470 19.5440
-21.0450 1224.1110 -21.1120
46.5600 1177.1280 -5.6720
12.2400 1202.0160 21.3760
-10.8800 1210.3360 22.5760
-13.2800 1212.6880 21.3760
-13.2800 1223.8240 -23.1680
49.0950 1173.6510 -2.6440
5.8550 1206.0470 22.5720
-4.3350 1209.2970 23.4720
-6.1350 1211.0610 22.5720
-6.1350 1222.8330 -24.5160
0.0000 1221.0000 -24.0000
50.0000 1172.0000 0.0000
-59.0000 1218.0000 0.0000
-59.0000 1218.0000 0.0000
-59.0000 1218.0000 0.0000
5.8145 1217.8145 -23.5305
49.0905 1172.4115 2.4105
-59.6385 1219.3015 1.5465
-57.8385 1217.5375 2.4105
-57.8385 1218.7365 -2.4945
12.1760 1213.1360 -22.2240
46.5440 1174.5120 5.0640
-57.0080 1219.5520 3.9120
-54.6080 1217.2000 5.0640
-54.6080 1219.7520 -5.3760
18.8115 1207.3815 -20.2335
42.6335 1177.9505 7.8435
-51.7895 1218.9705 6.8355
-49.6895 1216.9125 7.8435
-49.6895 1220.9055 -8.4915
25.4480 1200.9680 -17.7120
37.6320 1182.3760 10.6320
-44.6640 1217.7760 10.0560
-43.4640 1216.6000 10.6320
-43.4640 1222.0560 -11.6880
31.8125 1194.3125 -14.8125
31.8125 1187.4375 13.3125
-36.3125 1216.1875 13.3125
-36.3125 1216.1875 13.3125
-36.3125 1223.0625 -14.8125
37.6320 1187.8320 -11.6880
25.4480 1192.7840 15.7680
-27.4160 1214.4240 16.3440
-28.6160 1215.6000 15.7680
-28.6160 1223.7840 -17.7120
42.6335 1181.9435 -8.4915
18.8115 1198.0645 17.8815
-18.6555 1212.7045 18.8895
-20.7555 1214.7625 17.8815
-20.7555 1224.0795 -20.2335
46.5440 1177.0640 -5.3760
12.1760 1202.9280 19.5360
-10.7120 1211.2480 20.6880
-13.1120 1213.6000 19.5360
-13.1120 1223.8080 -22.2240
49.0905 1173.6105 -2.4945
5.8145 1207.0235 20.6145
-4.2665 1210.2735 21.4785
-6.0665 1212.0375 20.6145
-6.0665 1222.8285 -23.5305
0.0000 1222.0000 -26.0000
51.0000 1172.0000 0.0000
-59.0000 1218.0000 0.0000
-59.0000 1218.0000 0.0000
-59.0000 1218.0000 0.0000
5.8830 1218.7910 -25.4880
50.0670 1172.3710 2.5600
-59.6790 1219.2970 1.6240
-57.8430 1217.4970 2.5600
-57.8430 1218.8050 -2.6720
12.3440 1214.0480 -24.0640
47.4560 1174.4480 5.3600
-57.0720 1219.5360 4.1120
-54.6240 1217.1360 5.3600
-54.6240 1219.9200 -5.7760
19.1010 1208.1970 -21.8960
43.4490 1177.8770 8.2800
-51.8630 1218.9390 7.1880
-49.7210 1216.8390 8.2800
-49.7210 1221.1950 -9.1440
25.8720 1201.6640 -19.1520
38.3280 1182.3040 11.2000
-44.7360 1217.7280 10.5760
-43.5120 1216.5280 11.2000
-43.5120 1222.4800 -12.6080
32.3750 1194.8750 -16.0000
32.3750 1187.3750 14.0000
-36.3750 1216.1250 14.0000
-36.3750 1216.1250 14.0000
-36.3750 1223.6250 -16.0000
38.3280 1188.2560 -12.6080
25.8720 1192.7360 16.5600
-27.4640 1214.3520 17.1840
-28.6880 1215.5520 16.5600
-28.6880 1224.4800 -19.1520
43.4490 1182.2330 -9.1440
19.1010 1198.0330 18.7600
-18.6870 1212.6310 19.8520
-20.8290 1214.7310 18.7600
-20.8290 1224.8950 -21.8960
47.4560 1177.2320 -5.7760
12.3440 1202.9120 20.4800
-10.7280 1211.1840 21.7280
-13.1760 1213.5840 20.4800
-13.1760 1224.7200 -24.0640
50.0670 1173.6790 -2.6720
5.8830 1207.0190 21.6000
-4.2710 1210.2330 22.5360
-6.1070 1212.0330 21.6000
-6.1070 1223.8050 -25.4880
0.0000 1222.0000 -25.0000
51.0000 1172.0000 0.0000
-58.0000 1218.0000 0.0000
-58.0000 1218.0000 0.0000
-58.0000 1218.0000 0.0000
5.8425 1218.7910 -24.5160
50.0625 1172.3710 2.5880
-58.7025 1219.2970 1.6880
-56.8665 1217.4970 2.5880
-56.8665 1218.8050 -2.6440
12.2800 1214.0480 -23.1680
47.4400 1174.4480 5.4640
-56.1600 1219.5360 4.2640
-53.7120 1217.1360 5.4640
-53.7120 1219.9200 -5.6720
19.0275 1208.1970 -21.1120
43.4175 1177.8770 8.4960
-51.0475 1218.9390 7.4460
-48.9055 1216.8390 8.4960
-48.9055 1221.1950 -8.9280
25.8000 1201.6640 -18.5040
38.2800 1182.3040 11.5520
-44.0400 1217.7280 10.9520
-42.8160 1216.5280 11.5520
-42.8160 1222.4800 -12.2560
32.3125 1194.8750 -15.5000
32.3125 1187.3750 14.5000
-35.8125 1216.1250 14.5000
-35.8125 1216.1250 14.5000
-35.8125 1223.6250 -15.5000
38.2800 1188.2560 -12.2560
25.8000 1192.7360 17.2080
-27.0400 1214.3520 17.8080
-28.2640 1215.5520 17.2080
-28.2640 1224.4800 -18.5040
43.4175 1182.2330 -8.9280
19.0275 1198.0330 19.5440
-18.3975 1212.6310 20.5940
-20.5395 1214.7310 19.5440
-20.5395 1224.8950 -21.1120
47.4400 1177.2320 -5.6720
12.2800 1202.9120 21.3760
-10.5600 1211.1840 22.5760
-13.0080 1213.5840 21.3760
-13.0080 1224.7200 -23.1680
50.0625 1173.6790 -2.6440
5.8425 1207.0190 22.5720
-4.2025 1210.2330 23.4720
-6.0385 1212.0330 22.5720
-6.0385 1223.8050 -24.5160
0.0000 1222.0000 -24.0000
52.0000 1172.0000 0.0000
-57.0000 1218.0000 0.0000
-57.0000 1218.0000 0.0000
-57.0000 1218.0000 0.0000
5.8705 1218.7865 -23.5305
51.0345 1172.4395 2.4105
-57.7665 1219.3655 1.5465
-55.8945 1217.5655 2.4105
-55.8945 1218.7645 -2.4945
12.3840 1214.0320 -22.2240
48.3360 1174.6160 5.0640
-55.3120 1219.7040 3.9120
-52.8160 1217.3040 5.0640
-52.8160 1219.8560 -5.3760
19.2435 1208.1655 -20.2335
44.2015 1178.1665 7.8435
-50.3055 1219.2285 6.8355
-48.1215 1217.1285 7.8435
-48.1215 1221.1215 -8.4915
26.1520 1201.6160 -17.7120
38.9280 1182.7280 10.6320
-43.4160 1218.1520 10.0560
-42.1680 1216.9520 10.6320
-42.1680 1222.4080 -11.6880
32.8125 1194.8125 -14.8125
32.8125 1187.9375 13.3125
-35.3125 1216.6875 13.3125
-35.3125 1216.6875 13.3125
-35.3125 1223.5625 -14.8125
38.9280 1188.1840 -11.6880
26.1520 1193.4320 15.7680
-26.6640 1215.0480 16.3440
-27.9120 1216.2480 15.7680
-27.9120 1224.4320 -17.7120
44.2015 1182.1595 -8.4915
19.2435 1198.8485 17.8815
-18.1395 1213.4465 18.8895
-20.3235 1215.5465 17.8815
-20.3235 1224.8635 -20.2335
48.3360 1177.1680 -5.3760
12.3840 1203.8240 19.5360
-10.4080 1212.0960 20.6880
-12.9040 1214.4960 19.5360
-12.9040 1224.7040 -22.2240
51.0345 1173.6385 -2.4945
5.8705 1207.9955 20.6145
-4.1385 1211.2095 21.4785
-6.0105 1213.0095 20.6145
-6.0105 1223.8005 -23.5305
0.0000 1222.0000 -13.0000
52.0000 1172.0000 0.0000
-57.0000 1218.0000 0.0000
-57.0000 1218.0000 0.0000
-57.0000 1218.0000 0.0000
5.8705 1218.7865 -12.7935
51.0345 1172.4395 2.0335
-57.7665 1219.3655 1.5655
-55.8945 1217.5655 2.0335
-55.8945 1218.7645 -1.7815
12.3840 1214.0320 -12.2080
48.3360 1174.6160 4.5280
-55.3120 1219.7040 3.9040
-52.8160 1217.3040 4.5280
-52.8160 1219.8560 -3.5920
19.2435 1208.1655 -11.2945
44.2015 1178.1665 7.3245
-50.3055 1219.2285 6.7785
-48.1215 1217.1285 7.3245
-48.1215 1221.1215 -5.3805
26.1520 1201.6160 -10.1040
38.9280 1182.7280 10.2640
-43.4160 1218.1520 9.9520
-42.1680 1216.9520 10.2640
-42.1680 1222.4080 -7.0960
32.8125 1194.8125 -8.6875
32.8125 1187.9375 13.1875
-35.3125 1216.6875 13.1875
-35.3125 1216.6875 13.1875
-35.3125 1223.5625 -8.6875
38.9280 1188.1840 -7.0960
26.1520 1193.4320 15.9360
-26.6640 1215.0480 16.2480
-27.9120 1216.2480 15.9360
-27.9120 1224.4320 -10.1040
44.2015 1182.1595 -5.3805
19.2435 1198.8485 18.3505
-18.1395 1213.4465 18.8965
-20.3235 1215.5465 18.3505
-20.3235 1224.8635 -11.2945
48.3360 1177.1680 -3.5920
12.3840 1203.8240 20.2720
-10.4080 1212.0960 20.8960
-12.9040 1214.4960 20.2720
-12.9040 1224.7040 -12.2080
51.0345 1173.6385 -1.7815
5.8705 1207.9955 21.5415
-4.1385 1211.2095 22.0095
-6.0105 1213.0095 21.5415
-6.0105 1223.8005 -12.7935
0.0000 1222.0000 -13.0000
49.0000 1173.0000 0.0000
-38.0000 1218.0000 0.0000
-38.0000 1218.0000 0.0000
-38.0000 1218.0000 0.0000
4.8955 1218.8550 -12.7980
48.0195 1173.4160 2.1020
-39.0915 1219.3250 1.6340
-37.3275 1217.5610 2.1020
-37.3275 1218.7600 -1.8220
10.6640 1214.2000 -12.2240
45.2960 1175.5280 4.6960
-37.7920 1219.6400 4.0720
-35.4400 1217.2880 4.6960
-35.4400 1219.8400 -3.6560
16.9785 1208.4550 -11.3260
41.1565 1178.9820 7.6140
-34.5905 1219.1550 7.0680
-32.5325 1217.0970 7.6140
-32.5325 1221.0900 -5.4540
23.5120 1202.0400 -10.1520
35.9280 1183.4240 10.6880
-29.9760 1218.0800 10.3760
-28.8000 1216.9040 10.6880
-28.8000 1222.3600 -7.1680
29.9375 1195.3750 -8.7500
29.9375 1188.5000 13.7500
-24.4375 1216.6250 13.7500
-24.4375 1216.6250 13.7500
-24.4375 1223.5000 -8.7500
35.9280 1188.8800 -7.1680
23.5120 1193.8560 16.6320
-18.4640 1215.0000 16.9440
-19.6400 1216.1760 16.6320
-19.6400 1224.3600 -10.1520
41.1565 1182.9750 -5.4540
16.9785 1199.1380 19.1660
-12.5445 1213.4150 19.7120
-14.6025 1215.4730 19.1660
-14.6025 1224.7900 -11.3260
45.2960 1178.0800 -3.6560
10.6640 1203.9920 21.1840
-7.1680 1212.0800 21.8080
-9.5200 1214.4320 21.1840
-9.5200 1224.6400 -12.2240
48.0195 1174.6150 -1.8220
4.8955 1208.0640 22.5180
-2.8235 1211.2050 22.9860
-4.5875 1212.9690 22.5180
-4.5875 1223.7600 -12.7980
0.0000 1223.0000 -26.0000
49.0000 1173.0000 0.0000
-37.0000 1218.0000 0.0000
-37.0000 1218.0000 0.0000
-37.0000 1218.0000 0.0000
4.8550 1219.8270 -25.4835
48.0150 1173.4440 2.4915
-38.1150 1219.3890 1.5555
-36.3510 1217.5890 2.4915
-36.3510 1218.7880 -2.6315
10.6000 1215.0960 -24.0480
45.2800 1175.6320 5.1920
-36.8800 1219.7920 3.9440
-34.5280 1217.3920 5.1920
-34.5280 1219.9440 -5.7120
16.9050 1209.2390 -21.8645
41.1250 1179.1980 7.9905
-33.7750 1219.4130 6.8985
-31.7170 1217.3130 7.9905
-31.7170 1221.3060 -9.0705
23.4400 1202.6880 -19.1040
35.8800 1183.7760 10.7760
-29.2800 1218.4560 10.1520
-28.1040 1217.2560 10.7760
-28.1040 1222.7120 -12.5360
29.8750 1195.8750 -15.9375
29.8750 1189.0000 13.4375
-23.8750 1217.1250 13.4375
-23.8750 1217.1250 13.4375
-23.8750 1224.0000 -15.9375
35.8800 1189.2320 -12.5360
23.4400 1194.5040 15.8640
-18.0400 1215.6240 16.4880
-19.2160 1216.8240 15.8640
-19.2160 1225.0080 -19.1040
41.1250 1183.1910 -9.0705
16.9050 1199.9220 17.9445
-12.2550 1214.1570 19.0365
-14.3130 1216.2570 17.9445
-14.3130 1225.5740 -21.8645
45.2800 1178.1840 -5.7120
10.6000 1204.8880 19.5680
-7.0000 1212.9280 20.8160
-9.3520 1215.3280 19.5680
-9.3520 1225.5360 -24.0480
48.0150 1174.6430 -2.6315
4.8550 1209.0360 20.6235
-2.7550 1212.1410 21.5595
-4.5190 1213.9410 20.6235
-4.5190 1224.7320 -25.4835
0.0000 1223.0000 -25.0000
49.0000 1173.0000 0.0000
-36.0000 1218.0000 0.0000
-36.0000 1218.0000 0.0000
-36.0000 1218.0000 0.0000
4.8145 1219.8270 -24.5115
48.0105 1173.4440 2.5195
-37.1385 1219.3890 1.6195
-35.3745 1217.5890 2.5195
-35.3745 1218.7880 -2.6035
10.5360 1215.0960 -23.1520
45.2640 1175.6320 5.2960
-35.9680 1219.7920 4.0960
-33.6160 1217.3920 5.2960
-33.6160 1219.9440 -5.6080
16.8315 1209.2390 -21.0805
41.0935 1179.1980 8.2065
-32.9595 1219.4130 7.1565
-30.9015 1217.3130 8.2065
-30.9015 1221.3060 -8.8545
23.3680 1202.6880 -18.4560
35.8320 1183.7760 11.1280
-28.5840 1218.4560 10.5280
-27.4080 1217.2560 11.1280
-27.4080 1222.7120 -12.1840
29.8125 1195.8750 -15.4375
29.8125 1189.0000 13.9375
-23.3125 1217.1250 13.9375
-23.3125 1217.1250 13.9375
-23.3125 1224.0000 -15.4375
35.8320 1189.2320 -12.1840
23.3680 1194.5040 16.5120
-17.6160 1215.6240 17.1120
-18.7920 1216.8240 16.5120
-18.7920 1225.0080 -18.4560
41.0935 1183.1910 -8.8545
16.8315 1199.9220 18.7285
-11.9655 1214.1570 19.7785
-14.0235 1216.2570 18.7285
-14.0235 1225.5740 -21.0805
45.2640 1178.1840 -5.6080
10.5360 1204.8880 20.4640
-6.8320 1212.9280 21.6640
-9.1840 1215.3280 20.4640
-9.1840 1225.5360 -23.1520
48.0105 1174.6430 -2.6035
4.8145 1209.0360 21.5955
-2.6865 1212.1410 22.4955
-4.4505 1213.9410 21.5955
-4.4505 1224.7320 -24.5115
0.0000 1223.0000 -24.0000
50.0000 1173.0000 0.0000
-36.0000 1218.0000 0.0000
-36.0000 1218.0000 0.0000
-36.0000 1218.0000 0.0000
4.8830 1219.8270 -23.5395
48.9870 1173.4440 2.5475
-37.1790 1219.3890 1.6835
-35.3790 1217.5890 2.5475
-35.3790 1218.7880 -2.5755
10.7040 1215.0960 -22.2560
46.1760 1175.6320 5.4000
-36.0320 1219.7920 4.2480
-33.6320 1217.3920 5.4000
-33.6320 1219.9440 -5.5040
17.1210 1209.2390 -20.2965
41.9090 1179.1980 8.4225
-33.0330 1219.4130 7.4145
-30.9330 1217.3130 8.4225
-30.9330 1221.3060 -8.6385
23.7920 1202.6880 -17.8080
36.5280 1183.7760 11.4800
-28.6560 1218.4560 10.9040
-27.4560 1217.2560 11.4800
-27.4560 1222.7120 -11.8320
30.3750 1195.8750 -14.9375
30.3750 1189.0000 14.4375
-23.3750 1217.1250 14.4375
-23.3750 1217.1250 14.4375
-23.3750 1224.0000 -14.9375
36.5280 1189.2320 -11.8320
23.7920 1194.5040 17.1600
-17.6640 1215.6240 17.7360
-18.8640 1216.8240 17.1600
-18.8640 1225.0080 -17.8080
41.9090 1183.1910 -8.6385
17.1210 1199.9220 19.5125
-11.9970 1214.1570 20.5205
-14.0970 1216.2570 19.5125
-14.0970 1225.5740 -20.2965
46.1760 1178.1840 -5.5040
10.7040 1204.8880 21.3600
-6.8480 1212.9280 22.5120
-9.2480 1215.3280 21.3600
-9.2480 1225.5360 -22.2560
48.9870 1174.6430 -2.5755
4.8830 1209.0360 22.5675
-2.6910 1212.1410 23.4315
-4.4910 1213.9410 22.5675
-4.4910 1224.7320 -23.5395
0.0000 1223.0000 -14.0000
50.0000 1173.0000 0.0000
-35.0000 1218.0000 0.0000
-35.0000 1218.0000 0.0000
-35.0000 1218.0000 0.0000
4.8425 1219.8225 -13.7610
48.9825 1173.5125 1.9370
-36.2025 1219.4575 1.4330
-34.4025 1217.6575 1.9370
-34.4025 1218.7475 -1.7690
10.6400 1215.0800 -13.0880
46.1600 1175.8000 4.2560
-35.1200 1219.9600 3.5840
-32.7200 1217.5600 4.2560
-32.7200 1219.8800 -3.6320
17.0475 1209.2075 -12.0470
41.8775 1179.4875 6.8190
-32.2175 1219.7025 6.2310
-30.1175 1217.6025 6.8190
-30.1175 1221.2325 -5.5230
23.7200 1202.6400 -10.7040
36.4800 1184.2000 9.4880
-27.9600 1218.8800 9.1520
-26.7600 1217.6800 9.4880
-26.7600 1222.6400 -7.3760
30.3125 1195.8125 -9.1250
30.3125 1189.5625 12.1250
-22.8125 1217.6875 12.1250
-22.8125 1217.6875 12.1250
-22.8125 1223.9375 -9.1250
36.4800 1189.1600 -7.3760
23.7200 1195.2000 14.5920
-17.2400 1216.3200 14.9280
-18.4400 1217.5200 14.5920
-18.4400 1224.9600 -10.7040
41.8775 1183.1175 -5.5230
17.0475 1200.7375 16.7510
-11.7075 1214.9725 17.3390
-13.8075 1217.0725 16.7510
-13.8075 1225.5425 -12.0470
46.1600 1178.1200 -3.6320
10.6400 1205.8000 18.4640
-6.6800 1213.8400 19.1360
-9.0800 1216.2400 18.4640
-9.0800 1225.5200 -13.0880
48.9825 1174.6025 -1.7690
4.8425 1210.0125 19.5930
-2.6225 1213.1175 20.0970
-4.4225 1214.9175 19.5930
-4.4225 1224.7275 -13.7610
0.0000 1223.0000 -13.0000
51.0000 1173.0000 0.0000
-24.0000 1218.0000 0.0000
-24.0000 1218.0000 0.0000
-24.0000 1218.0000 0.0000
4.4655 1219.8225 -12.7890
49.9095 1173.5125 1.9650
-25.5015 1219.4575 1.4970
-23.6655 1217.6575 1.9650
-23.6655 1218.7475 -1.7410
10.1040 1215.0800 -12.1920
46.8960 1175.8000 4.3600
-25.1520 1219.9600 3.7360
-22.7040 1217.5600 4.3600
-22.7040 1219.8800 -3.5280
16.5285 1209.2075 -11.2630
42.3465 1179.4875 7.0350
-23.3205 1219.7025 6.4890
-21.1785 1217.6025 7.0350
-21.1785 1221.2325 -5.3070
23.3520 1202.6400 -10.0560
36.6480 1184.2000 9.8400
-20.3760 1218.8800 9.5280
-19.1520 1217.6800 9.8400
-19.1520 1222.6400 -7.0240
30.1875 1195.8125 -8.6250
30.1875 1189.5625 12.6250
-16.6875 1217.6875 12.6250
-16.6875 1217.6875 12.6250
-16.6875 1223.9375 -8.6250
36.6480 1189.1600 -7.0240
23.3520 1195.2000 15.2400
-12.6240 1216.3200 15.5520
-13.8480 1217.5200 15.2400
-13.8480 1224.9600 -10.0560
42.3465 1183.1175 -5.3070
16.5285 1200.7375 17.5350
-8.5545 1214.9725 18.0810
-10.6965 1217.0725 17.5350
-10.6965 1225.5425 -11.2630
46.8960 1178.1200 -3.5280
10.1040 1205.8000 19.3600
-4.8480 1213.8400 19.9840
-7.2960 1216.2400 19.3600
-7.2960 1225.5200 -12.1920
49.9095 1174.6025 -1.7410
4.4655 1210.0125 20.5650
-1.8735 1213.1175 21.0330
-3.7095 1214.9175 20.5650
-3.7095 1224.7275 -12.7890
0.0000 1223.0000 -12.0000
51.0000 1173.0000 0.0000
-24.0000 1218.0000 0.0000
-24.0000 1218.0000 0.0000
-24.0000 1218.0000 0.0000
4.4655 1219.8225 -11.8170
49.9095 1173.5125 1.9930
-25.5015 1219.4575 1.5610
-23.6655 1217.6575 1.9930
-23.6655 1218.7475 -1.7130
10.1040 1215.0800 -11.2960
46.8960 1175.8000 4.4640
-25.1520 1219.9600 3.8880
-22.7040 1217.5600 4.4640
-22.7040 1219.8800 -3.4240
16.5285 1209.2075 -10.4790
42.3465 1179.4875 7.2510
-23.3205 1219.7025 6.7470
-21.1785 1217.6025 7.2510
-21.1785 1221.2325 -5.0910
23.3520 1202.6400 -9.4080
36.6480 1184.2000 10.1920
-20.3760 1218.8800 9.9040
-19.1520 1217.6800 10.1920
-19.1520 1222.6400 -6.6720
30.1875 1195.8125 -8.1250
30.1875 1189.5625 13.1250
-16.6875 1217.6875 13.1250
-16.6875 1217.6875 13.1250
-16.6875 1223.9375 -8.1250
36.6480 1189.1600 -6.6720
23.3520 1195.2000 15.8880
-12.6240 1216.3200 16.1760
-13.8480 1217.5200 15.8880
-13.8480 1224.9600 -9.4080
42.3465 1183.1175 -5.0910
16.5285 1200.7375 18.3190
-8.5545 1214.9725 18.8230
-10.6965 1217.0725 18.3190
-10.6965 1225.5425 -10.4790
46.8960 1178.1200 -3.4240
10.1040 1205.8000 20.2560
-4.8480 1213.8400 20.8320
-7.2960 1216.2400 20.2560
-7.2960 1225.5200 -11.2960
49.9095 1174.6025 -1.7130
4.4655 1210.0125 21.5370
-1.8735 1213.1175 21.9690
-3.7095 1214.9175 21.5370
-3.7095 1224.7275 -11.8170
0.0000 1224.0000 -26.0000
52.0000 1173.0000 0.0000
-61.0000 1219.0000 0.0000
-61.0000 1219.0000 0.0000
-61.0000 1219.0000 0.0000
6.0325 1220.7585 -25.4925
51.0525 1173.4675 2.6285
-61.6725 1220.4295 1.6925
-59.8005 1218.5935 2.6285
-59.8005 1219.7925 -2.7125
12.6400 1215.9280 -24.0800
48.4000 1175.7200 5.5280
-58.9600 1220.8560 4.2800
-56.4640 1218.4080 5.5280
-56.4640 1220.9600 -5.8400
19.5375 1209.9495 -21.9275
44.3275 1179.3825 8.5695
-53.5675 1220.4865 7.4775
-51.3835 1218.3445 8.5695
-51.3835 1222.3375 -9.2175
26.4400 1203.2640 -19.2000
39.1200 1184.0800 11.6240
-46.2000 1219.5280 11.0000
-44.9520 1218.3040 11.6240
-44.9520 1223.7600 -12.6800
33.0625 1196.3125 -16.0625
33.0625 1189.4375 14.5625
-37.5625 1218.1875 14.5625
-37.5625 1218.1875 14.5625
-37.5625 1225.0625 -16.0625
39.1200 1189.5360 -12.6800
26.4400 1195.0800 17.2560
-28.3600 1216.6720 17.8800
-29.6080 1217.8960 17.2560
-29.6080 1226.0800 -19.2000
44.3275 1183.3755 -9.2175
19.5375 1200.6325 19.5755
-19.2975 1215.1885 20.6675
-21.4815 1217.3305 19.5755
-21.4815 1226.6475 -21.9275
48.4000 1178.2720 -5.8400
12.6400 1205.7200 21.3920
-11.0800 1213.9440 22.6400
-13.5760 1216.3920 21.3920
-13.5760 1226.6000 -24.0800
51.0525 1174.6665 -2.7125
6.0325 1209.9675 22.5765
-4.4125 1213.1455 23.5125
-6.2845 1214.9815 22.5765
-6.2845 1225.7725 -25.4925
0.0000 1224.0000 -25.0000
52.0000 1173.0000 0.0000
-60.0000 1219.0000 0.0000
-60.0000 1219.0000 0.0000
-60.0000 1219.0000 0.0000
5.9920 1220.7540 -24.5025
51.0480 1173.5360 2.3825
-60.6960 1220.4980 1.4825
-58.8240 1218.6620 2.3825
-58.8240 1219.7520 -2.5225
12.5760 1215.9120 -23.1200
48.3840 1175.8880 4.9600
-58.0480 1221.0240 3.7600
-55.5520 1218.5760 4.9600
-55.5520 1220.8960 -5.4800
19.4640 1209.9180 -21.0175
44.2960 1179.6720 7.6275
-52.7520 1220.7760 6.5775
-50.5680 1218.6340 7.6275
-50.5680 1222.2640 -8.7075
26.3680 1203.2160 -18.3600
39.0720 1184.5040 10.2800
-45.5040 1219.9520 9.6800
-44.2560 1218.7280 10.2800
-44.2560 1223.6880 -12.0400
33.0000 1196.2500 -15.3125
33.0000 1190.0000 12.8125
-37.0000 1218.7500 12.8125
-37.0000 1218.7500 12.8125
-37.0000 1225.0000 -15.3125
39.0720 1189.4640 -12.0400
26.3680 1195.7760 15.1200
-27.9360 1217.3680 15.7200
-29.1840 1218.5920 15.1200
-29.1840 1226.0320 -18.3600
44.2960 1183.3020 -8.7075
19.4640 1201.4480 17.0975
-19.0080 1216.0040 18.1475
-21.1920 1218.1460 17.0975
-21.1920 1226.6160 -21.0175
48.3840 1178.2080 -5.4800
12.5760 1206.6320 18.6400
-10.9120 1214.8560 19.8400
-13.4080 1217.3040 18.6400
-13.4080 1226.5840 -23.1200
51.0480 1174.6260 -2.5225
5.9920 1210.9440 19.6425
-4.3440 1214.1220 20.5425
-6.2160 1215.9580 19.6425
-6.2160 1225.7680 -24.5025
0.0000 1224.0000 -24.0000
50.0000 1174.0000 0.0000
-60.0000 1219.0000 0.0000
-60.0000 1219.0000 0.0000
-60.0000 1219.0000 0.0000
5.8550 1220.8225 -23.5305
49.0950 1174.5125 2.4105
-60.6150 1220.4575 1.5465
-58.8150 1218.6575 2.4105
-58.8150 1219.7475 -2.4945
12.2400 1216.0800 -22.2240
46.5600 1176.8000 5.0640
-57.9200 1220.9600 3.9120
-55.5200 1218.5600 5.0640
-55.5200 1220.8800 -5.3760
18.8850 1210.2075 -20.2335
42.6650 1180.4875 7.8435
-52.6050 1220.7025 6.8355
-50.5050 1218.6025 7.8435
-50.5050 1222.2325 -8.4915
25.5200 1203.6400 -17.7120
37.6800 1185.2000 10.6320
-45.3600 1219.8800 10.0560
-44.1600 1218.6800 10.6320
-44.1600 1223.6400 -11.6880
31.8750 1196.8125 -14.8125
31.8750 1190.5625 13.3125
-36.8750 1218.6875 13.3125
-36.8750 1218.6875 13.3125
-36.8750 1224.9375 -14.8125
37.6800 1190.1600 -11.6880
25.5200 1196.2000 15.7680
-27.8400 1217.3200 16.3440
-29.0400 1218.5200 15.7680
-29.0400 1225.9600 -17.7120
42.6650 1184.1175 -8.4915
18.8850 1201.7375 17.8815
-18.9450 1215.9725 18.8895
-21.0450 1218.0725 17.8815
-21.0450 1226.5425 -20.2335
46.5600 1179.1200 -5.3760
12.2400 1206.8000 19.5360
-10.8800 1214.8400 20.6880
-13.2800 1217.2400 19.5360
-13.2800 1226.5200 -22.2240
49.0950 1175.6025 -2.4945
5.8550 1211.0125 20.6145
-4.3350 1214.1175 21.4785
-6.1350 1215.9175 20.6145
-6.1350 1225.7275 -23.5305
0.0000 1224.0000 -14.0000
50.0000 1174.0000 0.0000
-59.0000 1219.0000 0.0000
-59.0000 1219.0000 0.0000
-59.0000 1219.0000 0.0000
5.8145 1220.8225 -13.7700
49.0905 1174.5125 2.0740
-59.6385 1220.4575 1.5700
-57.8385 1218.6575 2.0740
-57.8385 1219.7475 -1.8500
12.1760 1216.0800 -13.1200
46.5440 1176.8000 4.5920
-57.0080 1220.9600 3.9200
-54.6080 1218.5600 4.5920
-54.6080 1220.8800 -3.7600
18.8115 1210.2075 -12.1100
42.6335 1180.4875 7.3980
-51.7895 1220.7025 6.8100
-49.6895 1218.6025 7.3980
-49.6895 1222.2325 -5.6700
25.4480 1203.6400 -10.8000
37.6320 1185.2000 10.3360
-44.6640 1219.8800 10.0000
-43.4640 1218.6800 10.3360
-43.4640 1223.6400 -7.5200
31.8125 1196.8125 -9.2500
31.8125 1190.5625 13.2500
-36.3125 1218.6875 13.2500
-36.3125 1218.6875 13.2500
-36.3125 1224.9375 -9.2500
37.6320 1190.1600 -7.5200
25.4480 1196.2000 15.9840
-27.4160 1217.3200 16.3200
-28.6160 1218.5200 15.9840
-28.6160 1225.9600 -10.8000
42.6335 1184.1175 -5.6700
18.8115 1201.7375 18.3820
-18.6555 1215.9725 18.9700
-20.7555 1218.0725 18.3820
-20.7555 1226.5425 -12.1100
46.5440 1179.1200 -3.7600
12.1760 1206.8000 20.2880
-10.7120 1214.8400 20.9600
-13.1120 1217.2400 20.2880
-13.1120 1226.5200 -13.1200
49.0905 1175.6025 -1.8500
5.8145 1211.0125 21.5460
-4.2665 1214.1175 22.0500
-6.0665 1215.9175 21.5460
-6.0665 1225.7275 -13.7700
0.0000 1224.0000 -13.0000
51.0000 1174.0000 0.0000
-39.0000 1219.0000 0.0000
-39.0000 1219.0000 0.0000
-39.0000 1219.0000 0.0000
5.0730 1220.8225 -12.7980
49.9770 1174.5125 2.1020
-40.1490 1220.4575 1.6340
-38.3130 1218.6575 2.1020
-38.3130 1219.7475 -1.8220
11.0640 1216.0800 -12.2240
47.1360 1176.8000 4.6960
-38.8320 1220.9600 4.0720
-36.3840 1218.5600 4.6960
-36.3840 1220.8800 -3.6560
17.6310 1210.2075 -11.3260
42.8190 1180.4875 7.6140
-35.5530 1220.7025 7.0680
-33.4110 1218.6025 7.6140
-33.4110 1222.2325 -5.4540
24.4320 1203.6400 -10.1520
37.3680 1185.2000 10.6880
-30.8160 1219.8800 10.3760
-29.5920 1218.6800 10.6880
-29.5920 1223.6400 -7.1680
31.1250 1196.8125 -8.7500
31.1250 1190.5625 13.7500
-25.1250 1218.6875 13.7500
-25.1250 1218.6875 13.7500
-25.1250 1224.9375 -8.7500
37.3680 1190.1600 -7.1680
24.4320 1196.2000 16.6320
-18.9840 1217.3200 16.9440
-20.2080 1218.5200 16.6320
-20.2080 1225.9600 -10.1520
42.8190 1184.1175 -5.4540
17.6310 1201.7375 19.1660
-12.8970 1215.9725 19.7120
-15.0390 1218.0725 19.1660
-15.0390 1226.5425 -11.3260
47.1360 1179.1200 -3.6560
11.0640 1206.8000 21.1840
-7.3680 1214.8400 21.8080
-9.8160 1217.2400 21.1840
-9.8160 1226.5200 -12.2240
49.9770 1175.6025 -1.8220
5.0730 1211.0125 22.5180
-2.9010 1214.1175 22.9860
-4.7370 1215.9175 22.5180
-4.7370 1225.7275 -12.7980
0.0000 1224.0000 -13.0000
51.0000 1174.0000 0.0000
-39.0000 1219.0000 0.0000
-39.0000 1219.0000 0.0000
-39.0000 1219.0000 0.0000
5.0730 1220.8180 -12.7845
49.9770 1174.5810 1.8965
-40.1490 1220.5260 1.4285
-38.3130 1218.7260 1.8965
-38.3130 1219.7070 -1.7005
11.0640 1216.0640 -12.1760
47.1360 1176.9680 4.1920
-38.8320 1221.1280 3.5680
-36.3840 1218.7280 4.1920
-36.3840 1220.8160 -3.4640
17.6310 1210.1760 -11.2315
42.8190 1180.7770 6.7455
-35.5530 1220.9920 6.1995
-33.4110 1218.8920 6.7455
-33.4110 1222.1590 -5.2335
24.4320 1203.5920 -10.0080
37.3680 1185.6240 9.4160
-30.8160 1220.3040 9.1040
-29.5920 1219.1040 9.4160
-29.5920 1223.5680 -6.9520
31.1250 1196.7500 -8.5625
31.1250 1191.1250 12.0625
-25.1250 1219.2500 12.0625
-25.1250 1219.2500 12.0625
-25.1250 1224.8750 -8.5625
37.3680 1190.0880 -6.9520
24.4320 1196.8960 14.5440
-18.9840 1218.0160 14.8560
-20.2080 1219.2160 14.5440
-20.2080 1225.9120 -10.0080
42.8190 1184.0440 -5.2335
17.6310 1202.5530 16.7195
-12.8970 1216.7880 17.2655
-15.0390 1218.8880 16.7195
-15.0390 1226.5110 -11.2315
47.1360 1179.0560 -3.4640
11.0640 1207.7120 18.4480
-7.3680 1215.7520 19.0720
-9.8160 1218.1520 18.4480
-9.8160 1226.5040 -12.1760
49.9770 1175.5620 -1.7005
5.0730 1211.9890 19.5885
-2.9010 1215.0940 20.0565
-4.7370 1216.8940 19.5885
-4.7370 1225.7230 -12.7845
0.0000 1224.0000 -12.0000
52.0000 1174.0000 0.0000
-38.0000 1219.0000 0.0000
-38.0000 1219.0000 0.0000
-38.0000 1219.0000 0.0000
5.1010 1220.8180 -11.8125
50.9490 1174.5810 1.9245
-39.2130 1220.5260 1.4925
-37.3410 1218.7260 1.9245
-37.3410 1219.7070 -1.6725
11.1680 1216.0640 -11.2800
48.0320 1176.9680 4.2960
-37.9840 1221.1280 3.7200
-35.4880 1218.7280 4.2960
-35.4880 1220.8160 -3.3600
17.8470 1210.1760 -10.4475
43.6030 1180.7770 6.9615
-34.8110 1220.9920 6.4575
-32.6270 1218.8920 6.9615
-32.6270 1222.1590 -5.0175
24.7840 1203.5920 -9.3600
38.0160 1185.6240 9.7680
-30.1920 1220.3040 9.4800
-28.9440 1219.1040 9.7680
-28.9440 1223.5680 -6.6000
31.6250 1196.7500 -8.0625
31.6250 1191.1250 12.5625
-24.6250 1219.2500 12.5625
-24.6250 1219.2500 12.5625
-24.6250 1224.8750 -8.0625
38.0160 1190.0880 -6.6000
24.7840 1196.8960 15.1920
-18.6080 1218.0160 15.4800
-19.8560 1219.2160 15.1920
-19.8560 1225.9120 -9.3600
43.6030 1184.0440 -5.0175
17.8470 1202.5530 17.5035
-12.6390 1216.7880 18.0075
-14.8230 1218.8880 17.5035
-14.8230 1226.5110 -10.4475
48.0320 1179.0560 -3.3600
11.1680 1207.7120 19.3440
-7.2160 1215.7520 19.9200
-9.7120 1218.1520 19.3440
-9.7120 1226.5040 -11.2800
50.9490 1175.5620 -1.6725
5.1010 1211.9890 20.5605
-2.8370 1215.0940 20.9925
-4.7090 1216.8940 20.5605
-4.7090 1225.7230 -11.8125
0.0000 1224.0000 -11.0000
52.0000 1174.0000 0.0000
-37.0000 1219.0000 0.0000
-37.0000 1219.0000 0.0000
-37.0000 1219.0000 0.0000
5.0605 1220.8180 -10.8405
50.9445 1174.5810 1.9525
-38.2365 1220.5260 1.5565
-36.3645 1218.7260 1.9525
-36.3645 1219.7070 -1.6445
11.1040 1216.0640 -10.3840
48.0160 1176.9680 4.4000
-37.0720 1221.1280 3.8720
-34.5760 1218.7280 4.4000
-34.5760 1220.8160 -3.2560
17.7735 1210.1760 -9.6635
43.5715 1180.7770 7.1775
-33.9955 1220.9920 6.7155
-31.8115 1218.8920 7.1775
-31.8115 1222.1590 -4.8015
24.7120 1203.5920 -8.7120
37.9680 1185.6240 10.1200
-29.4960 1220.3040 9.8560
-28.2480 1219.1040 10.1200
-28.2480 1223.5680 -6.2480
31.5625 1196.7500 -7.5625
31.5625 1191.1250 13.0625
-24.0625 1219.2500 13.0625
-24.0625 1219.2500 13.0625
-24.0625 1224.8750 -7.5625
37.9680 1190.0880 -6.2480
24.7120 1196.8960 15.8400
-18.1840 1218.0160 16.1040
-19.4320 1219.2160 15.8400
-19.4320 1225.9120 -8.7120
43.5715 1184.0440 -4.8015
17.7735 1202.5530 18.2875
-12.3495 1216.7880 18.7495
-14.5335 1218.8880 18.2875
-14.5335 1226.5110 -9.6635
48.0160 1179.0560 -3.2560
11.1040 1207.7120 20.2400
-7.0480 1215.7520 20.7680
-9.5440 1218.1520 20.2400
-9.5440 1226.5040 -10.3840
50.9445 1175.5620 -1.6445
5.0605 1211.9890 21.5325
-2.7685 1215.0940 21.9285
-4.6405 1216.8940 21.5325
-4.6405 1225.7230 -10.8405
0.0000 1225.0000 -26.0000
50.0000 1175.0000 0.0000
-24.0000 1219.0000 0.0000
-24.0000 1219.0000 0.0000
-24.0000 1219.0000 0.0000
4.3970 1221.8630 -25.4925
48.9330 1175.5170 2.6285
-25.4610 1220.4810 1.6925
-23.6610 1218.6810 2.6285
-23.6610 1219.7710 -2.7125
9.9360 1217.1440 -24.0800
45.9840 1177.8160 5.5280
-25.0880 1221.0480 4.2800
-22.6880 1218.6480 5.5280
-22.6880 1220.9680 -5.8400
16.2390 1211.2810 -21.9275
41.5310 1181.5190 8.5695
-23.2470 1220.8870 7.4775
-21.1470 1218.7870 8.5695
-21.1470 1222.4170 -9.2175
22.9280 1204.7120 -19.2000
35.9520 1186.2480 11.6240
-20.3040 1220.1840 11.0000
-19.1040 1218.9840 11.6240
-19.1040 1223.9440 -12.6800
29.6250 1197.8750 -16.0625
29.6250 1191.6250 14.5625
-16.6250 1219.1250 14.5625
-16.6250 1219.1250 14.5625
-16.6250 1225.3750 -16.0625
35.9520 1191.2080 -12.6800
22.9280 1197.2720 17.2560
-12.5760 1217.8960 17.8800
-13.7760 1219.0960 17.2560
-13.7760 1226.5360 -19.2000
41.5310 1185.1490 -9.2175
16.2390 1202.8110 19.5755
-8.5230 1216.6830 20.6675
-10.6230 1218.7830 19.5755
-10.6230 1227.2530 -21.9275
45.9840 1180.1360 -5.8400
9.9360 1207.8640 21.3920
-4.8320 1215.6720 22.6400
-7.2320 1218.0720 21.3920
-7.2320 1227.3520 -24.0800
48.9330 1176.6070 -2.7125
4.3970 1212.0530 22.5765
-1.8690 1215.0490 23.5125
-3.6690 1216.8490 22.5765
-3.6690 1226.6590 -25.4925
0.0000 1225.0000 -25.0000
50.0000 1175.0000 0.0000
-24.0000 1219.0000 0.0000
-24.0000 1219.0000 0.0000
-24.0000 1219.0000 0.0000
4.3970 1221.8585 -24.5025
48.9330 1175.5855 2.3825
-25.4610 1220.5495 1.4825
-23.6610 1218.7495 2.3825
-23.6610 1219.7305 -2.5225
9.9360 1217.1280 -23.1200
45.9840 1177.9840 4.9600
-25.0880 1221.2160 3.7600
-22.6880 1218.8160 4.9600
-22.6880 1220.9040 -5.4800
16.2390 1211.2495 -21.0175
41.5310 1181.8085 7.6275
-23.2470 1221.1765 6.5775
-21.1470 1219.0765 7.6275
-21.1470 1222.3435 -8.7075
22.9280 1204.6640 -18.3600
35.9520 1186.6720 10.2800
-20.3040 1220.6080 9.6800
-19.1040 1219.4080 10.2800
-19.1040 1223.8720 -12.0400
29.6250 1197.8125 -15.3125
29.6250 1192.1875 12.8125
-16.6250 1219.6875 12.8125
-16.6250 1219.6875 12.8125
-16.6250 1225.3125 -15.3125
35.9520 1191.1360 -12.0400
22.9280 1197.9680 15.1200
-12.5760 1218.5920 15.7200
-13.7760 1219.7920 15.1200
-13.7760 1226.4880 -18.3600
41.5310 1185.0755 -8.7075
16.2390 1203.6265 17.0975
-8.5230 1217.4985 18.1475
-10.6230 1219.5985 17.0975
-10.6230 1227.2215 -21.0175
45.9840 1180.0720 -5.4800
9.9360 1208.7760 18.6400
-4.8320 1216.5840 19.8400
-7.2320 1218.9840 18.6400
-7.2320 1227.3360 -23.1200
48.9330 1176.5665 -2.5225
4.3970 1213.0295 19.6425
-1.8690 1216.0255 20.5425
-3.6690 1217.8255 19.6425
-3.6690 1226.6545 -24.5025
0.0000 1225.0000 -24.0000
51.0000 1175.0000 0.0000
-64.0000 1220.0000 0.0000
-64.0000 1220.0000 0.0000
-64.0000 1220.0000 0.0000
6.0855 1221.8180 -23.5305
50.0895 1175.5810 2.4105
-64.5615 1221.5260 1.5465
-62.7255 1219.7260 2.4105
-62.7255 1220.7070 -2.4945
12.6640 1217.0640 -22.2240
47.5360 1177.9680 5.0640
-61.6320 1222.1280 3.9120
-59.1840 1219.7280 5.0640
-59.1840 1221.8160 -5.3760
19.4685 1211.1760 -20.2335
43.6065 1181.7770 7.8435
-55.9405 1221.9920 6.8355
-53.7985 1219.8920 7.8435
-53.7985 1223.1590 -8.4915
26.2320 1204.5920 -17.7120
38.5680 1186.6240 10.6320
-48.2160 1221.3040 10.0560
-46.9920 1220.1040 10.6320
