ply
format ascii 1.0
element vertex 1809
property float x
property float y
property float z
element face 0
property list uchar int vertex_index
end_header
4.3125 1928.5000 -78.1875
4.3125 1947.8750 43.6875
-28.8125 1978.5000 43.6875
-28.8125 1978.5000 43.6875
-28.8125 1959.1250 -78.1875
3.8400 1927.5840 -60.5040
4.5200 1952.8800 50.1840
-21.7200 1976.9680 53.3520
-21.7680 1977.1840 50.1840
-21.7680 1954.1200 -94.8960
3.2375 1927.1220 -42.8445
4.3275 1957.7350 55.5345
-14.8275 1975.1440 61.0785
-14.9115 1975.5220 55.5345
-14.9115 1949.2650 -109.6305
2.6400 1927.1680 -26.2080
3.6000 1962.2000 59.5680
-8.6000 1973.1360 65.9040
-8.6960 1973.5680 59.5680
-8.6960 1944.8000 -121.3920
2.1825 1927.7760 -11.5935
2.2025 1966.0350 62.1135
-3.5025 1971.0520 66.8655
-3.5745 1971.3760 62.1135
-3.5745 1940.9650 -129.1815
0.0000 1938.0000 -29.0000
2.0000 1929.0000 0.0000
-51.0000 1978.0000 0.0000
-51.0000 1978.0000 0.0000
-51.0000 1978.0000 0.0000
2.2025 1935.6240 -28.6065
2.1825 1931.1550 5.5585
-49.8825 1979.5480 4.5145
-49.8105 1979.2240 5.5585
-49.8105 1975.8450 -4.5785
3.6000 1933.4320 -27.4720
2.6400 1934.3600 12.6080
-46.6400 1980.2640 11.2160
-46.5440 1979.8320 12.6080
-46.5440 1972.6400 -8.9680
4.3275 1931.4780 -25.6655
3.2375 1938.3750 20.6595
-41.7375 1980.2560 19.4415
-41.6535 1979.8780 20.6595
-41.6535 1968.6250 -13.0995
4.5200 1929.8160 -23.2560
3.8400 1942.9600 29.2240
-35.6400 1979.6320 28.5280
-35.5920 1979.4160 29.2240
-35.5920 1964.0400 -16.9040
4.3125 1928.5000 -20.3125
4.3125 1947.8750 37.8125
-28.8125 1978.5000 37.8125
-28.8125 1978.5000 37.8125
-28.8125 1959.1250 -20.3125
3.8400 1927.5840 -16.9040
4.5200 1952.8800 45.9360
-21.7200 1976.9680 46.6320
-21.7680 1977.1840 45.9360
-21.7680 1954.1200 -23.2560
3.2375 1927.1220 -13.0995
4.3275 1957.7350 53.1055
-14.8275 1975.1440 54.3235
-14.9115 1975.5220 53.1055
-14.9115 1949.2650 -25.6655
2.6400 1927.1680 -8.9680
3.6000 1962.2000 58.8320
-8.6000 1973.1360 60.2240
-8.6960 1973.5680 58.8320
-8.6960 1944.8000 -27.4720
2.1825 1927.7760 -4.5785
2.2025 1966.0350 62.6265
-3.5025 1971.0520 63.6705
-3.5745 1971.3760 62.6265
-3.5745 1940.9650 -28.6065
0.0000 1938.0000 -28.0000
3.0000 1929.0000 0.0000
-50.0000 1978.0000 0.0000
-50.0000 1978.0000 0.0000
-50.0000 1978.0000 0.0000
2.2305 1935.6240 -27.6345
3.1545 1931.1550 5.5865
-48.9465 1979.5480 4.5785
-48.8385 1979.2240 5.5865
-48.8385 1975.8450 -4.5505
3.7040 1933.4320 -26.5760
3.5360 1934.3600 12.7120
-45.7920 1980.2640 11.3680
-45.6480 1979.8320 12.7120
-45.6480 1972.6400 -8.8640
4.5435 1931.4780 -24.8815
4.0215 1938.3750 20.8755
-40.9955 1980.2560 19.6995
-40.8695 1979.8780 20.8755
-40.8695 1968.6250 -12.8835
4.8720 1929.8160 -22.6080
4.4880 1942.9600 29.5760
-35.0160 1979.6320 28.9040
-34.9440 1979.4160 29.5760
-34.9440 1964.0400 -16.5520
4.8125 1928.5000 -19.8125
4.8125 1947.8750 38.3125
-28.3125 1978.5000 38.3125
-28.3125 1978.5000 38.3125
-28.3125 1959.1250 -19.8125
4.4880 1927.5840 -16.5520
4.8720 1952.8800 46.5840
-21.3440 1976.9680 47.2560
-21.4160 1977.1840 46.5840
-21.4160 1954.1200 -22.6080
4.0215 1927.1220 -12.8835
4.5435 1957.7350 53.8895
-14.5695 1975.1440 55.0655
-14.6955 1975.5220 53.8895
-14.6955 1949.2650 -24.8815
3.5360 1927.1680 -8.8640
3.7040 1962.2000 59.7280
-8.4480 1973.1360 61.0720
-8.5920 1973.5680 59.7280
-8.5920 1944.8000 -26.5760
3.1545 1927.7760 -4.5505
2.2305 1966.0350 63.5985
-3.4385 1971.0520 64.6065
-3.5465 1971.3760 63.5985
-3.5465 1940.9650 -27.6345
0.0000 1938.0000 -27.0000
3.0000 1929.0000 0.0000
-50.0000 1978.0000 0.0000
-50.0000 1978.0000 0.0000
-50.0000 1978.0000 0.0000
2.2305 1935.6240 -26.6625
3.1545 1931.1550 5.6145
-48.9465 1979.5480 4.6425
-48.8385 1979.2240 5.6145
-48.8385 1975.8450 -4.5225
3.7040 1933.4320 -25.6800
3.5360 1934.3600 12.8160
-45.7920 1980.2640 11.5200
-45.6480 1979.8320 12.8160
-45.6480 1972.6400 -8.7600
4.5435 1931.4780 -24.0975
4.0215 1938.3750 21.0915
-40.9955 1980.2560 19.9575
-40.8695 1979.8780 21.0915
-40.8695 1968.6250 -12.6675
4.8720 1929.8160 -21.9600
4.4880 1942.9600 29.9280
-35.0160 1979.6320 29.2800
-34.9440 1979.4160 29.9280
-34.9440 1964.0400 -16.2000
4.8125 1928.5000 -19.3125
4.8125 1947.8750 38.8125
-28.3125 1978.5000 38.8125
-28.3125 1978.5000 38.8125
-28.3125 1959.1250 -19.3125
4.4880 1927.5840 -16.2000
4.8720 1952.8800 47.2320
-21.3440 1976.9680 47.8800
-21.4160 1977.1840 47.2320
-21.4160 1954.1200 -21.9600
4.0215 1927.1220 -12.6675
4.5435 1957.7350 54.6735
-14.5695 1975.1440 55.8075
-14.6955 1975.5220 54.6735
-14.6955 1949.2650 -24.0975
3.5360 1927.1680 -8.7600
3.7040 1962.2000 60.6240
-8.4480 1973.1360 61.9200
-8.5920 1973.5680 60.6240
-8.5920 1944.8000 -25.6800
3.1545 1927.7760 -4.5225
2.2305 1966.0350 64.5705
-3.4385 1971.0520 65.5425
-3.5465 1971.3760 64.5705
-3.5465 1940.9650 -26.6625
0.0000 1938.0000 -26.0000
55.0000 1929.0000 0.0000
-49.0000 1978.0000 0.0000
-49.0000 1978.0000 0.0000
-49.0000 1978.0000 0.0000
5.7520 1935.6240 -25.6905
53.9280 1931.1550 5.6425
-50.0760 1979.5480 4.7065
-48.0960 1979.2240 5.6425
-48.0960 1975.8450 -4.4945
12.3760 1933.4320 -24.7840
50.9440 1934.3600 12.9200
-48.2080 1980.2640 11.6720
-45.5680 1979.8320 12.9200
-45.5680 1972.6400 -8.6560
19.5240 1931.4780 -23.3135
46.3960 1938.3750 21.3075
-44.0020 1980.2560 20.2155
-41.6920 1979.8780 21.3075
-41.6920 1968.6250 -12.4515
26.8480 1929.8160 -21.3120
40.6320 1942.9600 30.2800
-38.0640 1979.6320 29.6560
-36.7440 1979.4160 30.2800
-36.7440 1964.0400 -15.8480
34.0000 1928.5000 -18.8125
34.0000 1947.8750 39.3125
-31.0000 1978.5000 39.3125
-31.0000 1978.5000 39.3125
-31.0000 1959.1250 -18.8125
40.6320 1927.5840 -15.8480
26.8480 1952.8800 47.8800
-23.4160 1976.9680 48.5040
-24.7360 1977.1840 47.8800
-24.7360 1954.1200 -21.3120
46.3960 1927.1220 -12.4515
19.5240 1957.7350 55.4575
-15.9180 1975.1440 56.5495
-18.2280 1975.5220 55.4575
-18.2280 1949.2650 -23.3135
50.9440 1927.1680 -8.6560
12.3760 1962.2000 61.5200
-9.1120 1973.1360 62.7680
-11.7520 1973.5680 61.5200
-11.7520 1944.8000 -24.7840
53.9280 1927.7760 -4.4945
5.7520 1966.0350 65.5425
-3.6040 1971.0520 66.4785
-5.5840 1971.3760 65.5425
-5.5840 1940.9650 -25.6905
0.0000 1938.0000 -26.0000
55.0000 1929.0000 0.0000
-48.0000 1978.0000 0.0000
-48.0000 1978.0000 0.0000
-48.0000 1978.0000 0.0000
5.7115 1935.6240 -25.6950
53.9235 1931.1550 5.7110
-49.0995 1979.5480 4.7750
-47.1195 1979.2240 5.7110
-47.1195 1975.8450 -4.5350
12.3120 1933.4320 -24.8000
50.9280 1934.3600 13.0880
-47.2960 1980.2640 11.8400
-44.6560 1979.8320 13.0880
-44.6560 1972.6400 -8.7200
19.4505 1931.4780 -23.3450
46.3645 1938.3750 21.5970
-43.1865 1980.2560 20.5050
-40.8765 1979.8780 21.5970
-40.8765 1968.6250 -12.5250
26.7760 1929.8160 -21.3600
40.5840 1942.9600 30.7040
-37.3680 1979.6320 30.0800
-36.0480 1979.4160 30.7040
-36.0480 1964.0400 -15.9200
33.9375 1928.5000 -18.8750
33.9375 1947.8750 39.8750
-30.4375 1978.5000 39.8750
-30.4375 1978.5000 39.8750
-30.4375 1959.1250 -18.8750
40.5840 1927.5840 -15.9200
26.7760 1952.8800 48.5760
-22.9920 1976.9680 49.2000
-24.3120 1977.1840 48.5760
-24.3120 1954.1200 -21.3600
46.3645 1927.1220 -12.5250
19.4505 1957.7350 56.2730
-15.6285 1975.1440 57.3650
-17.9385 1975.5220 56.2730
-17.9385 1949.2650 -23.3450
50.9280 1927.1680 -8.7200
12.3120 1962.2000 62.4320
-8.9440 1973.1360 63.6800
-11.5840 1973.5680 62.4320
-11.5840 1944.8000 -24.8000
53.9235 1927.7760 -4.5350
5.7115 1966.0350 66.5190
-3.5355 1971.0520 67.4550
-5.5155 1971.3760 66.5190
-5.5155 1940.9650 -25.6950
0.0000 1939.0000 -134.0000
56.0000 1929.0000 0.0000
-48.0000 1978.0000 0.0000
-48.0000 1978.0000 0.0000
-48.0000 1978.0000 0.0000
5.7800 1936.6005 -131.1615
54.9000 1931.1145 10.1535
-49.1400 1979.5435 5.3295
-47.1240 1979.1835 10.1535
-47.1240 1975.9135 -11.9735
12.4800 1934.3440 -123.3120
51.8400 1934.2960 20.1680
-47.3600 1980.2480 13.7360
-44.6720 1979.7680 20.1680
-44.6720 1972.8080 -26.9280
19.7400 1932.2935 -111.4505
47.1800 1938.3015 29.8245
-43.2600 1980.2245 24.1965
-40.9080 1979.8045 29.8245
-40.9080 1968.9145 -43.8645
27.2000 1930.5120 -96.5760
41.2800 1942.8880 38.9040
-37.4400 1979.5840 35.6880
-36.0960 1979.3440 38.9040
-36.0960 1964.4640 -61.7840
34.5000 1929.0625 -79.6875
34.5000 1947.8125 47.1875
-30.5000 1978.4375 47.1875
-30.5000 1978.4375 47.1875
-30.5000 1959.6875 -79.6875
41.2800 1928.0080 -61.7840
27.2000 1952.8320 54.4560
-23.0400 1976.8960 57.6720
-24.3840 1977.1360 54.4560
-24.3840 1954.8160 -96.5760
47.1800 1927.4115 -43.8645
19.7400 1957.7035 60.4905
-15.6600 1975.0705 66.1185
-18.0120 1975.4905 60.4905
-18.0120 1950.0805 -111.4505
51.8400 1927.3360 -26.9280
12.4800 1962.1840 65.0720
-8.9600 1973.0720 71.5040
-11.6480 1973.5520 65.0720
-11.6480 1945.7120 -123.3120
54.9000 1927.8445 -11.9735
5.7800 1966.0305 67.9815
-3.5400 1971.0115 72.8055
-5.5560 1971.3715 67.9815
-5.5560 1941.9415 -131.1615
0.0000 1939.0000 -133.0000
57.0000 1929.0000 0.0000
-47.0000 1978.0000 0.0000
-47.0000 1978.0000 0.0000
-47.0000 1978.0000 0.0000
5.8080 1936.6005 -130.1895
55.8720 1931.1145 10.1815
-48.2040 1979.5435 5.3935
-46.1520 1979.1835 10.1815
-46.1520 1975.9135 -11.9455
12.5840 1934.3440 -122.4160
52.7360 1934.2960 20.2720
-46.5120 1980.2480 13.8880
-43.7760 1979.7680 20.2720
-43.7760 1972.8080 -26.8240
19.9560 1932.2935 -110.6665
47.9640 1938.3015 30.0405
-42.5180 1980.2245 24.4545
-40.1240 1979.8045 30.0405
-40.1240 1968.9145 -43.6485
27.5520 1930.5120 -95.9280
41.9280 1942.8880 39.2560
-36.8160 1979.5840 36.0640
-35.4480 1979.3440 39.2560
-35.4480 1964.4640 -61.4320
35.0000 1929.0625 -79.1875
35.0000 1947.8125 47.6875
-30.0000 1978.4375 47.6875
-30.0000 1978.4375 47.6875
-30.0000 1959.6875 -79.1875
41.9280 1928.0080 -61.4320
27.5520 1952.8320 55.1040
-22.6640 1976.8960 58.2960
-24.0320 1977.1360 55.1040
-24.0320 1954.8160 -95.9280
47.9640 1927.4115 -43.6485
19.9560 1957.7035 61.2745
-15.4020 1975.0705 66.8605
-17.7960 1975.4905 61.2745
-17.7960 1950.0805 -110.6665
52.7360 1927.3360 -26.8240
12.5840 1962.1840 65.9680
-8.8080 1973.0720 72.3520
-11.5440 1973.5520 65.9680
-11.5440 1945.7120 -122.4160
55.8720 1927.8445 -11.9455
5.8080 1966.0305 68.9535
-3.4760 1971.0115 73.7415
-5.5280 1971.3715 68.9535
-5.5280 1941.9415 -130.1895
0.0000 1939.0000 -28.0000
57.0000 1929.0000 0.0000
-47.0000 1978.0000 0.0000
-47.0000 1978.0000 0.0000
-47.0000 1978.0000 0.0000
5.8080 1936.6005 -27.6615
55.8720 1931.1145 5.9975
-48.2040 1979.5435 4.9895
-46.1520 1979.1835 5.9975
-46.1520 1975.9135 -4.7935
12.5840 1934.3440 -26.6720
52.7360 1934.2960 13.7200
-46.5120 1980.2480 12.3760
-43.7760 1979.7680 13.7200
-43.7760 1972.8080 -9.2480
19.9560 1932.2935 -25.0705
47.9640 1938.3015 22.6125
-42.5180 1980.2245 21.4365
-40.1240 1979.8045 22.6125
-40.1240 1968.9145 -13.3245
27.5520 1930.5120 -22.8960
41.9280 1942.8880 32.1200
-36.8160 1979.5840 31.4480
-35.4480 1979.3440 32.1200
-35.4480 1964.4640 -16.9840
35.0000 1929.0625 -20.1875
35.0000 1947.8125 41.6875
-30.0000 1978.4375 41.6875
-30.0000 1978.4375 41.6875
-30.0000 1959.6875 -20.1875
41.9280 1928.0080 -16.9840
27.5520 1952.8320 50.7600
-22.6640 1976.8960 51.4320
-24.0320 1977.1360 50.7600
-24.0320 1954.8160 -22.8960
47.9640 1927.4115 -13.3245
19.9560 1957.7035 58.7825
-15.4020 1975.0705 59.9585
-17.7960 1975.4905 58.7825
-17.7960 1950.0805 -25.0705
52.7360 1927.3360 -9.2480
12.5840 1962.1840 65.2000
-8.8080 1973.0720 66.5440
-11.5440 1973.5520 65.2000
-11.5440 1945.7120 -26.6720
55.8720 1927.8445 -4.7935
5.8080 1966.0305 69.4575
-3.4760 1971.0115 70.4655
-5.5280 1971.3715 69.4575
-5.5280 1941.9415 -27.6615
0.0000 1939.0000 -27.0000
1.0000 1930.0000 0.0000
-46.0000 1978.0000 0.0000
-46.0000 1978.0000 0.0000
-46.0000 1978.0000 0.0000
1.9315 1936.6690 -26.6895
1.1835 1932.0910 6.0255
-44.9595 1979.5030 5.0535
-44.9235 1979.1790 6.0255
-44.9235 1975.9090 -4.7655
3.1120 1934.5120 -25.7760
1.6480 1935.2080 13.8240
-42.0160 1980.1840 12.5280
-41.9680 1979.7520 13.8240
-41.9680 1972.7920 -9.1440
3.6705 1932.5830 -24.2865
2.2645 1939.1170 22.8285
-37.5865 1980.1510 21.6945
-37.5445 1979.7730 22.8285
-37.5445 1968.8830 -13.1085
3.7360 1930.9360 -22.2480
2.9040 1943.5840 32.4720
-32.0880 1979.5120 31.8240
-32.0640 1979.2960 32.4720
-32.0640 1964.4160 -16.6320
3.4375 1929.6250 -19.6875
3.4375 1948.3750 42.1875
-25.9375 1978.3750 42.1875
-25.9375 1978.3750 42.1875
-25.9375 1959.6250 -19.6875
2.9040 1928.7040 -16.6320
3.7360 1953.2560 51.4080
-19.5520 1976.8480 52.0560
-19.5760 1977.0640 51.4080
-19.5760 1954.7440 -22.2480
2.2645 1928.2270 -13.1085
3.6705 1957.9930 59.5665
-13.3485 1975.0390 60.7005
-13.3905 1975.4170 59.5665
-13.3905 1950.0070 -24.2865
1.6480 1928.2480 -9.1440
3.1120 1962.3520 66.0960
-7.7440 1973.0560 67.3920
-7.7920 1973.4880 66.0960
-7.7920 1945.6480 -25.7760
1.1835 1928.8210 -4.7655
1.9315 1966.0990 70.4295
-3.1555 1971.0070 71.4015
-3.1915 1971.3310 70.4295
-3.1915 1941.9010 -26.6895
0.0000 1939.0000 -27.0000
1.0000 1930.0000 0.0000
-46.0000 1978.0000 0.0000
-46.0000 1978.0000 0.0000
-46.0000 1978.0000 0.0000
1.9315 1936.6690 -26.6940
1.1835 1932.0910 6.0940
-44.9595 1979.5030 5.1220
-44.9235 1979.1790 6.0940
-44.9235 1975.9090 -4.8060
3.1120 1934.5120 -25.7920
1.6480 1935.2080 13.9920
-42.0160 1980.1840 12.6960
-41.9680 1979.7520 13.9920
-41.9680 1972.7920 -9.2080
3.6705 1932.5830 -24.3180
2.2645 1939.1170 23.1180
-37.5865 1980.1510 21.9840
-37.5445 1979.7730 23.1180
-37.5445 1968.8830 -13.1820
3.7360 1930.9360 -22.2960
2.9040 1943.5840 32.8960
-32.0880 1979.5120 32.2480
-32.0640 1979.2960 32.8960
-32.0640 1964.4160 -16.7040
3.4375 1929.6250 -19.7500
3.4375 1948.3750 42.7500
-25.9375 1978.3750 42.7500
-25.9375 1978.3750 42.7500
-25.9375 1959.6250 -19.7500
2.9040 1928.7040 -16.7040
3.7360 1953.2560 52.1040
-19.5520 1976.8480 52.7520
-19.5760 1977.0640 52.1040
-19.5760 1954.7440 -22.2960
2.2645 1928.2270 -13.1820
3.6705 1957.9930 60.3820
-13.3485 1975.0390 61.5160
-13.3905 1975.4170 60.3820
-13.3905 1950.0070 -24.3180
1.6480 1928.2480 -9.2080
3.1120 1962.3520 67.0080
-7.7440 1973.0560 68.3040
-7.7920 1973.4880 67.0080
-7.7920 1945.6480 -25.7920
1.1835 1928.8210 -4.8060
1.9315 1966.0990 71.4060
-3.1555 1971.0070 72.3780
-3.1915 1971.3310 71.4060
-3.1915 1941.9010 -26.6940
0.0000 1939.0000 -26.0000
2.0000 1930.0000 0.0000
-45.0000 1978.0000 0.0000
-45.0000 1978.0000 0.0000
-45.0000 1978.0000 0.0000
1.9595 1936.6690 -25.7490
2.1555 1932.0910 6.5330
-44.0235 1979.5030 5.5970
-43.9515 1979.1790 6.5330
-43.9515 1975.9090 -5.0210
3.2160 1934.5120 -24.9920
2.5440 1935.2080 15.1040
-41.1680 1980.1840 13.8560
-41.0720 1979.7520 15.1040
-41.0720 1972.7920 -9.4880
3.8865 1932.5830 -23.7230
3.0485 1939.1170 25.0710
-36.8445 1980.1510 23.9790
-36.7605 1979.7730 25.0710
-36.7605 1968.8830 -13.4070
4.0880 1930.9360 -21.9360
3.5520 1943.5840 35.7920
-31.4640 1979.5120 35.1680
-31.4160 1979.2960 35.7920
-31.4160 1964.4160 -16.7840
3.9375 1929.6250 -19.6250
3.9375 1948.3750 46.6250
-25.4375 1978.3750 46.6250
-25.4375 1978.3750 46.6250
-25.4375 1959.6250 -19.6250
3.5520 1928.7040 -16.7840
4.0880 1953.2560 56.9280
-19.1760 1976.8480 57.5520
-19.2240 1977.0640 56.9280
-19.2240 1954.7440 -21.9360
3.0485 1928.2270 -13.4070
3.8865 1957.9930 66.0590
-13.0905 1975.0390 67.1510
-13.1745 1975.4170 66.0590
-13.1745 1950.0070 -23.7230
2.5440 1928.2480 -9.4880
3.2160 1962.3520 73.3760
-7.5920 1973.0560 74.6240
-7.6880 1973.4880 73.3760
-7.6880 1945.6480 -24.9920
2.1555 1928.8210 -5.0210
1.9595 1966.0990 78.2370
-3.0915 1971.0070 79.1730
-3.1635 1971.3310 78.2370
-3.1635 1941.9010 -25.7490
0.0000 1939.0000 -25.0000
2.0000 1930.0000 0.0000
-45.0000 1978.0000 0.0000
-45.0000 1978.0000 0.0000
-45.0000 1978.0000 0.0000
1.9595 1936.6690 -24.7770
2.1555 1932.0910 6.5610
-44.0235 1979.5030 5.6610
-43.9515 1979.1790 6.5610
-43.9515 1975.9090 -4.9930
3.2160 1934.5120 -24.0960
2.5440 1935.2080 15.2080
-41.1680 1980.1840 14.0080
-41.0720 1979.7520 15.2080
-41.0720 1972.7920 -9.3840
3.8865 1932.5830 -22.9390
3.0485 1939.1170 25.2870
-36.8445 1980.1510 24.2370
-36.7605 1979.7730 25.2870
-36.7605 1968.8830 -13.1910
4.0880 1930.9360 -21.2880
3.5520 1943.5840 36.1440
-31.4640 1979.5120 35.5440
-31.4160 1979.2960 36.1440
-31.4160 1964.4160 -16.4320
3.9375 1929.6250 -19.1250
3.9375 1948.3750 47.1250
-25.4375 1978.3750 47.1250
-25.4375 1978.3750 47.1250
-25.4375 1959.6250 -19.1250
3.5520 1928.7040 -16.4320
4.0880 1953.2560 57.5760
-19.1760 1976.8480 58.1760
-19.2240 1977.0640 57.5760
-19.2240 1954.7440 -21.2880
3.0485 1928.2270 -13.1910
3.8865 1957.9930 66.8430
-13.0905 1975.0390 67.8930
-13.1745 1975.4170 66.8430
-13.1745 1950.0070 -22.9390
2.5440 1928.2480 -9.3840
3.2160 1962.3520 74.2720
-7.5920 1973.0560 75.4720
-7.6880 1973.4880 74.2720
-7.6880 1945.6480 -24.0960
2.1555 1928.8210 -4.9930
1.9595 1966.0990 79.2090
-3.0915 1971.0070 80.1090
-3.1635 1971.3310 79.2090
-3.1635 1941.9010 -24.7770
0.0000 1940.0000 -27.0000
3.0000 1930.0000 0.0000
-44.0000 1978.0000 0.0000
-44.0000 1978.0000 0.0000
-44.0000 1978.0000 0.0000
1.9875 1937.6455 -26.7345
3.1275 1932.0505 6.7105
-43.0875 1979.4985 5.7385
-42.9795 1979.1385 6.7105
-42.9795 1975.9775 -5.1705
3.3200 1935.4240 -25.9360
3.4400 1935.1440 15.5040
-40.3200 1980.1680 14.2080
-40.1760 1979.6880 15.5040
-40.1760 1972.9600 -9.7840
4.1025 1933.3985 -24.6015
3.8325 1939.0435 25.7235
-36.1025 1980.1195 24.5895
-35.9765 1979.6995 25.7235
-35.9765 1969.1725 -13.8435
4.4400 1931.6320 -22.7280
4.2000 1943.5120 36.7120
-30.8400 1979.4640 36.0640
-30.7680 1979.2240 36.7120
-30.7680 1964.8400 -17.3520
4.4375 1930.1875 -20.3125
4.4375 1948.3125 47.8125
-24.9375 1978.3125 47.8125
-24.9375 1978.3125 47.8125
-24.9375 1960.1875 -20.3125
4.2000 1929.1280 -17.3520
4.4400 1953.2080 58.3680
-18.8000 1976.7760 59.0160
-18.8720 1977.0160 58.3680
-18.8720 1955.4400 -22.7280
3.8325 1928.5165 -13.8435
4.1025 1957.9615 67.7215
-12.8325 1974.9655 68.8555
-12.9585 1975.3855 67.7215
-12.9585 1950.8225 -24.6015
3.4400 1928.4160 -9.7840
3.3200 1962.3360 75.2160
-7.4400 1972.9920 76.5120
-7.5840 1973.4720 75.2160
-7.5840 1946.5600 -25.9360
3.1275 1928.8895 -5.1705
1.9875 1966.0945 80.1945
-3.0275 1970.9665 81.1665
-3.1355 1971.3265 80.1945
-3.1355 1942.8775 -26.7345
0.0000 1940.0000 -26.0000
55.0000 1930.0000 0.0000
-44.0000 1978.0000 0.0000
-44.0000 1978.0000 0.0000
-44.0000 1978.0000 0.0000
5.5495 1937.6455 -25.7625
53.9055 1932.0505 6.7385
-45.1935 1979.4985 5.8025
-43.2135 1979.1385 6.7385
-43.2135 1975.9775 -5.1425
12.0560 1935.4240 -25.0400
50.8640 1935.1440 15.6080
-43.6480 1980.1680 14.3600
-41.0080 1979.6880 15.6080
-41.0080 1972.9600 -9.6800
19.1565 1933.3985 -23.8175
46.2385 1939.0435 25.9395
-39.9245 1980.1195 24.8475
-37.6145 1979.6995 25.9395
-37.6145 1969.1725 -13.6275
26.4880 1931.6320 -22.0800
40.3920 1943.5120 37.0640
-34.5840 1979.4640 36.4400
-33.2640 1979.2240 37.0640
-33.2640 1964.8400 -17.0000
33.6875 1930.1875 -19.8125
33.6875 1948.3125 48.3125
-28.1875 1978.3125 48.3125
-28.1875 1978.3125 48.3125
-28.1875 1960.1875 -19.8125
40.3920 1929.1280 -17.0000
26.4880 1953.2080 59.0160
-21.2960 1976.7760 59.6400
-22.6160 1977.0160 59.0160
-22.6160 1955.4400 -22.0800
46.2385 1928.5165 -13.6275
19.1565 1957.9615 68.5055
-14.4705 1974.9655 69.5975
-16.7805 1975.3855 68.5055
-16.7805 1950.8225 -23.8175
50.8640 1928.4160 -9.6800
12.0560 1962.3360 76.1120
-8.2720 1972.9920 77.3600
-10.9120 1973.4720 76.1120
-10.9120 1946.5600 -25.0400
53.9055 1928.8895 -5.1425
5.5495 1966.0945 81.1665
-3.2615 1970.9665 82.1025
-5.2415 1971.3265 81.1665
-5.2415 1942.8775 -25.7625
0.0000 1940.0000 -26.0000
55.0000 1930.0000 0.0000
-43.0000 1978.0000 0.0000
-43.0000 1978.0000 0.0000
-43.0000 1978.0000 0.0000
5.5090 1937.6455 -25.7670
53.9010 1932.0505 6.8070
-44.2170 1979.4985 5.8710
-42.2370 1979.1385 6.8070
-42.2370 1975.9775 -5.1830
11.9920 1935.4240 -25.0560
50.8480 1935.1440 15.7760
-42.7360 1980.1680 14.5280
-40.0960 1979.6880 15.7760
-40.0960 1972.9600 -9.7440
19.0830 1933.3985 -23.8490
46.2070 1939.0435 26.2290
-39.1090 1980.1195 25.1370
-36.7990 1979.6995 26.2290
-36.7990 1969.1725 -13.7010
26.4160 1931.6320 -22.1280
40.3440 1943.5120 37.4880
-33.8880 1979.4640 36.8640
-32.5680 1979.2240 37.4880
-32.5680 1964.8400 -17.0720
33.6250 1930.1875 -19.8750
33.6250 1948.3125 48.8750
-27.6250 1978.3125 48.8750
-27.6250 1978.3125 48.8750
-27.6250 1960.1875 -19.8750
40.3440 1929.1280 -17.0720
26.4160 1953.2080 59.7120
-20.8720 1976.7760 60.3360
-22.1920 1977.0160 59.7120
-22.1920 1955.4400 -22.1280
46.2070 1928.5165 -13.7010
19.0830 1957.9615 69.3210
-14.1810 1974.9655 70.4130
-16.4910 1975.3855 69.3210
-16.4910 1950.8225 -23.8490
50.8480 1928.4160 -9.7440
11.9920 1962.3360 77.0240
-8.1040 1972.9920 78.2720
-10.7440 1973.4720 77.0240
-10.7440 1946.5600 -25.0560
53.9010 1928.8895 -5.1830
5.5090 1966.0945 82.1430
-3.1930 1970.9665 83.0790
-5.1730 1971.3265 82.1430
-5.1730 1942.8775 -25.7670
0.0000 1940.0000 -25.0000
56.0000 1930.0000 0.0000
-42.0000 1978.0000 0.0000
-42.0000 1978.0000 0.0000
-42.0000 1978.0000 0.0000
5.5370 1937.6455 -24.7950
54.8730 1932.0505 6.8350
-43.2810 1979.4985 5.9350
-41.2650 1979.1385 6.8350
-41.2650 1975.9775 -5.1550
12.0960 1935.4240 -24.1600
51.7440 1935.1440 15.8800
-41.8880 1980.1680 14.6800
-39.2000 1979.6880 15.8800
-39.2000 1972.9600 -9.6400
19.2990 1933.3985 -23.0650
46.9910 1939.0435 26.4450
-38.3670 1980.1195 25.3950
-36.0150 1979.6995 26.4450
-36.0150 1969.1725 -13.4850
26.7680 1931.6320 -21.4800
40.9920 1943.5120 37.8400
-33.2640 1979.4640 37.2400
-31.9200 1979.2240 37.8400
-31.9200 1964.8400 -16.7200
34.1250 1930.1875 -19.3750
34.1250 1948.3125 49.3750
-27.1250 1978.3125 49.3750
-27.1250 1978.3125 49.3750
-27.1250 1960.1875 -19.3750
40.9920 1929.1280 -16.7200
26.7680 1953.2080 60.3600
-20.4960 1976.7760 60.9600
-21.8400 1977.0160 60.3600
-21.8400 1955.4400 -21.4800
46.9910 1928.5165 -13.4850
19.2990 1957.9615 70.1050
-13.9230 1974.9655 71.1550
-16.2750 1975.3855 70.1050
-16.2750 1950.8225 -23.0650
51.7440 1928.4160 -9.6400
12.0960 1962.3360 77.9200
-7.9520 1972.9920 79.1200
-10.6400 1973.4720 77.9200
-10.6400 1946.5600 -24.1600
54.8730 1928.8895 -5.1550
5.5370 1966.0945 83.1150
-3.1290 1970.9665 84.0150
-5.1450 1971.3265 83.1150
-5.1450 1942.8775 -24.7950
0.0000 1940.0000 -24.0000
56.0000 1930.0000 0.0000
-42.0000 1978.0000 0.0000
-42.0000 1978.0000 0.0000
-42.0000 1978.0000 0.0000
5.5370 1937.6455 -23.8230
54.8730 1932.0505 6.8630
-43.2810 1979.4985 5.9990
-41.2650 1979.1385 6.8630
-41.2650 1975.9775 -5.1270
12.0960 1935.4240 -23.2640
51.7440 1935.1440 15.9840
-41.8880 1980.1680 14.8320
-39.2000 1979.6880 15.9840
-39.2000 1972.9600 -9.5360
19.2990 1933.3985 -22.2810
46.9910 1939.0435 26.6610
-38.3670 1980.1195 25.6530
-36.0150 1979.6995 26.6610
-36.0150 1969.1725 -13.2690
26.7680 1931.6320 -20.8320
40.9920 1943.5120 38.1920
-33.2640 1979.4640 37.6160
-31.9200 1979.2240 38.1920
-31.9200 1964.8400 -16.3680
34.1250 1930.1875 -18.8750
34.1250 1948.3125 49.8750
-27.1250 1978.3125 49.8750
-27.1250 1978.3125 49.8750
-27.1250 1960.1875 -18.8750
40.9920 1929.1280 -16.3680
26.7680 1953.2080 61.0080
-20.4960 1976.7760 61.5840
-21.8400 1977.0160 61.0080
-21.8400 1955.4400 -20.8320
46.9910 1928.5165 -13.2690
19.2990 1957.9615 70.8890
-13.9230 1974.9655 71.8970
-16.2750 1975.3855 70.8890
-16.2750 1950.8225 -22.2810
51.7440 1928.4160 -9.5360
12.0960 1962.3360 78.8160
-7.9520 1972.9920 79.9680
-10.6400 1973.4720 78.8160
-10.6400 1946.5600 -23.2640
54.8730 1928.8895 -5.1270
5.5370 1966.0945 84.0870
-3.1290 1970.9665 84.9510
-5.1450 1971.3265 84.0870
-5.1450 1942.8775 -23.8230
0.0000 1940.0000 -23.0000
57.0000 1930.0000 0.0000
-41.0000 1978.0000 0.0000
-41.0000 1978.0000 0.0000
-41.0000 1978.0000 0.0000
5.5650 1937.6455 -22.8510
55.8450 1932.0505 6.8910
-42.3450 1979.4985 6.0630
-40.2930 1979.1385 6.8910
-40.2930 1975.9775 -5.0990
12.2000 1935.4240 -22.3680
52.6400 1935.1440 16.0880
-41.0400 1980.1680 14.9840
-38.3040 1979.6880 16.0880
-38.3040 1972.9600 -9.4320
19.5150 1933.3985 -21.4970
47.7750 1939.0435 26.8770
-37.6250 1980.1195 25.9110
-35.2310 1979.6995 26.8770
-35.2310 1969.1725 -13.0530
27.1200 1931.6320 -20.1840
41.6400 1943.5120 38.5440
-32.6400 1979.4640 37.9920
-31.2720 1979.2240 38.5440
-31.2720 1964.8400 -16.0160
34.6250 1930.1875 -18.3750
34.6250 1948.3125 50.3750
-26.6250 1978.3125 50.3750
-26.6250 1978.3125 50.3750
-26.6250 1960.1875 -18.3750
41.6400 1929.1280 -16.0160
27.1200 1953.2080 61.6560
-20.1200 1976.7760 62.2080
-21.4880 1977.0160 61.6560
-21.4880 1955.4400 -20.1840
47.7750 1928.5165 -13.0530
19.5150 1957.9615 71.6730
-13.6650 1974.9655 72.6390
-16.0590 1975.3855 71.6730
-16.0590 1950.8225 -21.4970
52.6400 1928.4160 -9.4320
12.2000 1962.3360 79.7120
-7.8000 1972.9920 80.8160
-10.5360 1973.4720 79.7120
-10.5360 1946.5600 -22.3680
55.8450 1928.8895 -5.0990
5.5650 1966.0945 85.0590
-3.0650 1970.9665 85.8870
-5.1170 1971.3265 85.0590
-5.1170 1942.8775 -22.8510
0.0000 1941.0000 -136.0000
57.0000 1930.0000 0.0000
-41.0000 1978.0000 0.0000
-41.0000 1978.0000 0.0000
-41.0000 1978.0000 0.0000
5.5650 1938.6220 -133.2000
55.8450 1932.0100 11.5360
-42.3450 1979.4940 6.6400
-40.2930 1979.0980 11.5360
-40.2930 1976.0460 -12.8800
12.2000 1936.3360 -125.4400
52.6400 1935.0800 23.4880
-41.0400 1980.1520 16.9600
-38.3040 1979.6240 23.4880
-38.3040 1973.1280 -28.4800
19.5150 1934.2140 -113.6800
47.7750 1938.9700 35.4720
-37.6250 1980.0880 29.7600
-35.2310 1979.6260 35.4720
-35.2310 1969.4620 -45.8400
27.1200 1932.3280 -98.8800
41.6400 1943.4400 47.1040
-32.6400 1979.4160 43.8400
-31.2720 1979.1520 47.1040
-31.2720 1965.2640 -64.0000
34.6250 1930.7500 -82.0000
34.6250 1948.2500 58.0000
-26.6250 1978.2500 58.0000
-26.6250 1978.2500 58.0000
-26.6250 1960.7500 -82.0000
41.6400 1929.5520 -64.0000
27.1200 1953.1600 67.7760
-20.1200 1976.7040 71.0400
-21.4880 1976.9680 67.7760
-21.4880 1956.1360 -98.8800
47.7750 1928.8060 -45.8400
19.5150 1957.9300 76.0480
-13.6650 1974.8920 81.7600
-16.0590 1975.3540 76.0480
-16.0590 1951.6380 -113.6800
52.6400 1928.5840 -28.4800
12.2000 1962.3200 82.4320
-7.8000 1972.9280 88.9600
-10.5360 1973.4560 82.4320
-10.5360 1947.4720 -125.4400
55.8450 1928.9580 -12.8800
5.5650 1966.0900 86.5440
-3.0650 1970.9260 91.4400
-5.1170 1971.3220 86.5440
-5.1170 1943.8540 -133.2000
0.0000 1941.0000 -135.0000
1.0000 1931.0000 0.0000
-40.0000 1978.0000 0.0000
-40.0000 1978.0000 0.0000
-40.0000 1978.0000 0.0000
1.6885 1938.6905 -132.2280
1.1565 1932.9865 11.5640
-39.1005 1979.4535 6.7040
-39.0645 1979.0935 11.5640
-39.0645 1976.0415 -12.8520
2.7280 1936.5040 -124.5440
1.5520 1935.9920 23.5920
-36.5440 1980.0880 17.1120
-36.4960 1979.6080 23.5920
-36.4960 1973.1120 -28.3760
3.2295 1934.5035 -112.8960
2.0755 1939.7855 35.6880
-32.6935 1980.0145 30.0180
-32.6515 1979.5945 35.6880
-32.6515 1969.4305 -45.6240
3.3040 1932.7520 -98.2320
2.6160 1944.1360 47.4560
-27.9120 1979.3440 44.2160
-27.8880 1979.1040 47.4560
-27.8880 1965.2160 -63.6480
3.0625 1931.3125 -81.5000
3.0625 1948.8125 58.5000
-22.5625 1978.1875 58.5000
-22.5625 1978.1875 58.5000
-22.5625 1960.6875 -81.5000
2.6160 1930.2480 -63.6480
3.3040 1953.5840 68.4240
-17.0080 1976.6560 71.6640
-17.0320 1976.8960 68.4240
-17.0320 1956.0640 -98.2320
2.0755 1929.6215 -45.6240
3.2295 1958.2195 76.8320
-11.6115 1974.8605 82.5020
-11.6535 1975.2805 76.8320
-11.6535 1951.5645 -112.8960
1.5520 1929.4960 -28.3760
2.7280 1962.4880 83.3280
-6.7360 1972.9120 89.8080
-6.7840 1973.3920 83.3280
-6.7840 1947.4080 -124.5440
1.1565 1929.9345 -12.8520
1.6885 1966.1585 87.5160
-2.7445 1970.9215 92.3760
-2.7805 1971.2815 87.5160
-2.7805 1943.8135 -132.2280
0.0000 1941.0000 -135.0000
2.0000 1931.0000 0.0000
-40.0000 1978.0000 0.0000
-40.0000 1978.0000 0.0000
-40.0000 1978.0000 0.0000
1.7570 1938.6905 -132.2325
2.1330 1932.9865 11.6325
-39.1410 1979.4535 6.7725
-39.0690 1979.0935 11.6325
-39.0690 1976.0415 -12.8925
2.8960 1936.5040 -124.5600
2.4640 1935.9920 23.7600
-36.6080 1980.0880 17.2800
-36.5120 1979.6080 23.7600
-36.5120 1973.1120 -28.4400
3.5190 1934.5035 -112.9275
2.8910 1939.7855 35.9775
-32.7670 1980.0145 30.3075
-32.6830 1979.5945 35.9775
-32.6830 1969.4305 -45.6975
3.7280 1932.7520 -98.2800
3.3120 1944.1360 47.8800
-27.9840 1979.3440 44.6400
-27.9360 1979.1040 47.8800
-27.9360 1965.2160 -63.7200
3.6250 1931.3125 -81.5625
3.6250 1948.8125 59.0625
-22.6250 1978.1875 59.0625
-22.6250 1978.1875 59.0625
-22.6250 1960.6875 -81.5625
3.3120 1930.2480 -63.7200
3.7280 1953.5840 69.1200
-17.0560 1976.6560 72.3600
-17.1040 1976.8960 69.1200
-17.1040 1956.0640 -98.2800
2.8910 1929.6215 -45.6975
3.5190 1958.2195 77.6475
-11.6430 1974.8605 83.3175
-11.7270 1975.2805 77.6475
-11.7270 1951.5645 -112.9275
2.4640 1929.4960 -28.4400
2.8960 1962.4880 84.2400
-6.7520 1972.9120 90.7200
-6.8480 1973.3920 84.2400
-6.8480 1947.4080 -124.5600
2.1330 1929.9345 -12.8925
1.7570 1966.1585 88.4925
-2.7490 1970.9215 93.3525
-2.8210 1971.2815 88.4925
-2.8210 1943.8135 -132.2325
0.0000 1941.0000 -26.0000
2.0000 1931.0000 0.0000
-39.0000 1978.0000 0.0000
-39.0000 1978.0000 0.0000
-39.0000 1978.0000 0.0000
1.7165 1938.6905 -25.7985
2.1285 1932.9865 7.2865
-38.1645 1979.4535 6.3505
-38.0925 1979.0935 7.2865
-38.0925 1976.0415 -5.4665
2.8320 1936.5040 -25.1680
2.4480 1935.9920 16.9520
-35.6960 1980.0880 15.7040
-35.6000 1979.6080 16.9520
-35.6000 1973.1120 -10.1920
3.4455 1934.5035 -24.0695
2.8595 1939.7855 28.2555
-31.9515 1980.0145 27.1635
-31.8675 1979.5945 28.2555
-31.8675 1969.4305 -14.2155
3.6560 1932.7520 -22.4640
3.2640 1944.1360 40.4560
-27.2880 1979.3440 39.8320
-27.2400 1979.1040 40.4560
-27.2400 1965.2160 -17.5760
3.5625 1931.3125 -20.3125
3.5625 1948.8125 52.8125
-22.0625 1978.1875 52.8125
-22.0625 1978.1875 52.8125
-22.0625 1960.6875 -20.3125
3.2640 1930.2480 -17.5760
3.6560 1953.5840 64.5840
-16.6320 1976.6560 65.2080
-16.6800 1976.8960 64.5840
-16.6800 1956.0640 -22.4640
2.8595 1929.6215 -14.2155
3.4455 1958.2195 75.0295
-11.3535 1974.8605 76.1215
-11.4375 1975.2805 75.0295
-11.4375 1951.5645 -24.0695
2.4480 1929.4960 -10.1920
2.8320 1962.4880 83.4080
-6.5840 1972.9120 84.6560
-6.6800 1973.3920 83.4080
-6.6800 1947.4080 -25.1680
2.1285 1929.9345 -5.4665
1.7165 1966.1585 88.9785
-2.6805 1970.9215 89.9145
-2.7525 1971.2815 88.9785
-2.7525 1943.8135 -25.7985
0.0000 1941.0000 -25.0000
3.0000 1931.0000 0.0000
-39.0000 1978.0000 0.0000
-39.0000 1978.0000 0.0000
-39.0000 1978.0000 0.0000
1.7850 1938.6905 -24.8265
3.1050 1932.9865 7.3145
-38.2050 1979.4535 6.4145
-38.0970 1979.0935 7.3145
-38.0970 1976.0415 -5.4385
3.0000 1936.5040 -24.2720
3.3600 1935.9920 17.0560
-35.7600 1980.0880 15.8560
-35.6160 1979.6080 17.0560
-35.6160 1973.1120 -10.0880
3.7350 1934.5035 -23.2855
3.6750 1939.7855 28.4715
-32.0250 1980.0145 27.4215
-31.8990 1979.5945 28.4715
-31.8990 1969.4305 -13.9995
4.0800 1932.7520 -21.8160
3.9600 1944.1360 40.8080
-27.3600 1979.3440 40.2080
-27.2880 1979.1040 40.8080
-27.2880 1965.2160 -17.2240
4.1250 1931.3125 -19.8125
4.1250 1948.8125 53.3125
-22.1250 1978.1875 53.3125
-22.1250 1978.1875 53.3125
-22.1250 1960.6875 -19.8125
3.9600 1930.2480 -17.2240
4.0800 1953.5840 65.2320
-16.6800 1976.6560 65.8320
-16.7520 1976.8960 65.2320
-16.7520 1956.0640 -21.8160
3.6750 1929.6215 -13.9995
3.7350 1958.2195 75.8135
-11.3850 1974.8605 76.8635
-11.5110 1975.2805 75.8135
-11.5110 1951.5645 -23.2855
3.3600 1929.4960 -10.0880
3.0000 1962.4880 84.3040
-6.6000 1972.9120 85.5040
-6.7440 1973.3920 84.3040
-6.7440 1947.4080 -24.2720
3.1050 1929.9345 -5.4385
1.7850 1966.1585 89.9505
-2.6850 1970.9215 90.8505
-2.7930 1971.2815 89.9505
-2.7930 1943.8135 -24.8265
0.0000 1941.0000 -24.0000
3.0000 1931.0000 0.0000
-38.0000 1978.0000 0.0000
-38.0000 1978.0000 0.0000
-38.0000 1978.0000 0.0000
1.7445 1938.6905 -23.8545
3.1005 1932.9865 7.3425
-37.2285 1979.4535 6.4785
-37.1205 1979.0935 7.3425
-37.1205 1976.0415 -5.4105
2.9360 1936.5040 -23.3760
3.3440 1935.9920 17.1600
-34.8480 1980.0880 16.0080
-34.7040 1979.6080 17.1600
-34.7040 1973.1120 -9.9840
3.6615 1934.5035 -22.5015
3.6435 1939.7855 28.6875
-31.2095 1980.0145 27.6795
-31.0835 1979.5945 28.6875
-31.0835 1969.4305 -13.7835
4.0080 1932.7520 -21.1680
3.9120 1944.1360 41.1600
-26.6640 1979.3440 40.5840
-26.5920 1979.1040 41.1600
-26.5920 1965.2160 -16.8720
4.0625 1931.3125 -19.3125
4.0625 1948.8125 53.8125
-21.5625 1978.1875 53.8125
-21.5625 1978.1875 53.8125
-21.5625 1960.6875 -19.3125
3.9120 1930.2480 -16.8720
4.0080 1953.5840 65.8800
-16.2560 1976.6560 66.4560
-16.3280 1976.8960 65.8800
-16.3280 1956.0640 -21.1680
3.6435 1929.6215 -13.7835
3.6615 1958.2195 76.5975
-11.0955 1974.8605 77.6055
-11.2215 1975.2805 76.5975
-11.2215 1951.5645 -22.5015
3.3440 1929.4960 -9.9840
2.9360 1962.4880 85.2000
-6.4320 1972.9120 86.3520
-6.5760 1973.3920 85.2000
-6.5760 1947.4080 -23.3760
3.1005 1929.9345 -5.4105
1.7445 1966.1585 90.9225
-2.6165 1970.9215 91.7865
-2.7245 1971.2815 90.9225
-2.7245 1943.8135 -23.8545
0.0000 1941.0000 -23.0000
55.0000 1931.0000 0.0000
-38.0000 1978.0000 0.0000
-38.0000 1978.0000 0.0000
-38.0000 1978.0000 0.0000
5.3065 1938.6905 -22.8825
53.8785 1932.9865 7.3705
-39.3345 1979.4535 6.5425
-37.3545 1979.0935 7.3705
-37.3545 1976.0415 -5.3825
11.6720 1936.5040 -22.4800
50.7680 1935.9920 17.2640
-38.1760 1980.0880 16.1600
-35.5360 1979.6080 17.2640
-35.5360 1973.1120 -9.8800
18.7155 1934.5035 -21.7175
46.0495 1939.7855 28.9035
-35.0315 1980.0145 27.9375
-32.7215 1979.5945 28.9035
-32.7215 1969.4305 -13.5675
26.0560 1932.7520 -20.5200
40.1040 1944.1360 41.5120
-30.4080 1979.3440 40.9600
-29.0880 1979.1040 41.5120
-29.0880 1965.2160 -16.5200
33.3125 1931.3125 -18.8125
33.3125 1948.8125 54.3125
-24.8125 1978.1875 54.3125
-24.8125 1978.1875 54.3125
-24.8125 1960.6875 -18.8125
40.1040 1930.2480 -16.5200
26.0560 1953.5840 66.5280
-18.7520 1976.6560 67.0800
-20.0720 1976.8960 66.5280
-20.0720 1956.0640 -20.5200
46.0495 1929.6215 -13.5675
18.7155 1958.2195 77.3815
-12.7335 1974.8605 78.3475
-15.0435 1975.2805 77.3815
-15.0435 1951.5645 -21.7175
50.7680 1929.4960 -9.8800
11.6720 1962.4880 86.0960
-7.2640 1972.9120 87.2000
-9.9040 1973.3920 86.0960
-9.9040 1947.4080 -22.4800
53.8785 1929.9345 -5.3825
5.3065 1966.1585 91.8945
-2.8505 1970.9215 92.7225
-4.8305 1971.2815 91.8945
-4.8305 1943.8135 -22.8825
0.0000 1941.0000 -23.0000
55.0000 1931.0000 0.0000
-37.0000 1978.0000 0.0000
-37.0000 1978.0000 0.0000
-37.0000 1978.0000 0.0000
5.2660 1938.6905 -22.8870
53.8740 1932.9865 7.4390
-38.3580 1979.4535 6.6110
-36.3780 1979.0935 7.4390
-36.3780 1976.0415 -5.4230
11.6080 1936.5040 -22.4960
50.7520 1935.9920 17.4320
-37.2640 1980.0880 16.3280
-34.6240 1979.6080 17.4320
-34.6240 1973.1120 -9.9440
18.6420 1934.5035 -21.7490
46.0180 1939.7855 29.1930
-34.2160 1980.0145 28.2270
-31.9060 1979.5945 29.1930
-31.9060 1969.4305 -13.6410
25.9840 1932.7520 -20.5680
40.0560 1944.1360 41.9360
-29.7120 1979.3440 41.3840
-28.3920 1979.1040 41.9360
-28.3920 1965.2160 -16.5920
33.2500 1931.3125 -18.8750
33.2500 1948.8125 54.8750
-24.2500 1978.1875 54.8750
-24.2500 1978.1875 54.8750
-24.2500 1960.6875 -18.8750
40.0560 1930.2480 -16.5920
25.9840 1953.5840 67.2240
-18.3280 1976.6560 67.7760
-19.6480 1976.8960 67.2240
-19.6480 1956.0640 -20.5680
46.0180 1929.6215 -13.6410
18.6420 1958.2195 78.1970
-12.4440 1974.8605 79.1630
-14.7540 1975.2805 78.1970
-14.7540 1951.5645 -21.7490
50.7520 1929.4960 -9.9440
11.6080 1962.4880 87.0080
-7.0960 1972.9120 88.1120
-9.7360 1973.3920 87.0080
-9.7360 1947.4080 -22.4960
53.8740 1929.9345 -5.4230
5.2660 1966.1585 92.8710
-2.7820 1970.9215 93.6990
-4.7620 1971.2815 92.8710
-4.7620 1943.8135 -22.8870
0.0000 1941.0000 -22.0000
56.0000 1931.0000 0.0000
-36.0000 1978.0000 0.0000
-36.0000 1978.0000 0.0000
-36.0000 1978.0000 0.0000
5.2940 1938.6905 -21.9150
54.8460 1932.9865 7.4670
-37.4220 1979.4535 6.6750
-35.4060 1979.0935 7.4670
-35.4060 1976.0415 -5.3950
11.7120 1936.5040 -21.6000
51.6480 1935.9920 17.5360
-36.4160 1980.0880 16.4800
-33.7280 1979.6080 17.5360
-33.7280 1973.1120 -9.8400
18.8580 1934.5035 -20.9650
46.8020 1939.7855 29.4090
-33.4740 1980.0145 28.4850
-31.1220 1979.5945 29.4090
-31.1220 1969.4305 -13.4250
26.3360 1932.7520 -19.9200
40.7040 1944.1360 42.2880
-29.0880 1979.3440 41.7600
-27.7440 1979.1040 42.2880
-27.7440 1965.2160 -16.2400
33.7500 1931.3125 -18.3750
33.7500 1948.8125 55.3750
-23.7500 1978.1875 55.3750
-23.7500 1978.1875 55.3750
-23.7500 1960.6875 -18.3750
40.7040 1930.2480 -16.2400
26.3360 1953.5840 67.8720
-17.9520 1976.6560 68.4000
-19.2960 1976.8960 67.8720
-19.2960 1956.0640 -19.9200
46.8020 1929.6215 -13.4250
18.8580 1958.2195 78.9810
-12.1860 1974.8605 79.9050
-14.5380 1975.2805 78.9810
-14.5380 1951.5645 -20.9650
51.6480 1929.4960 -9.8400
11.7120 1962.4880 87.9040
-6.9440 1972.9120 88.9600
-9.6320 1973.3920 87.9040
-9.6320 1947.4080 -21.6000
54.8460 1929.9345 -5.3950
5.2940 1966.1585 93.8430
-2.7180 1970.9215 94.6350
-4.7340 1971.2815 93.8430
-4.7340 1943.8135 -21.9150
0.0000 1942.0000 -137.0000
57.0000 1931.0000 0.0000
-36.0000 1978.0000 0.0000
-36.0000 1978.0000 0.0000
-36.0000 1978.0000 0.0000
5.3625 1939.6670 -134.2170
55.8225 1932.9460 12.1930
-37.4625 1979.4490 7.2610
-35.4105 1979.0530 12.1930
-35.4105 1976.1100 -13.3130
11.8800 1937.4160 -126.4960
52.5600 1935.9280 25.0640
-36.4800 1980.0720 18.4880
-33.7440 1979.5440 25.0640
-33.7440 1973.2800 -29.2240
19.1475 1935.3190 -114.7790
47.6175 1939.7120 38.1510
-33.5475 1979.9830 32.3970
-31.1535 1979.5210 38.1510
-31.1535 1969.7200 -46.7910
26.7600 1933.4480 -100.0080
41.4000 1944.0640 50.9920
-29.1600 1979.2960 47.7040
-27.7920 1979.0320 50.9920
-27.7920 1965.6400 -65.0720
34.3125 1931.8750 -83.1250
34.3125 1948.7500 63.1250
-23.8125 1978.1250 63.1250
-23.8125 1978.1250 63.1250
-23.8125 1961.2500 -83.1250
41.4000 1930.6720 -65.0720
26.7600 1953.5360 74.0880
-18.0000 1976.5840 77.3760
-19.3680 1976.8480 74.0880
-19.3680 1956.7600 -100.0080
47.6175 1929.9110 -46.7910
19.1475 1958.1880 83.4190
-12.2175 1974.7870 89.1730
-14.6115 1975.2490 83.4190
-14.6115 1952.3800 -114.7790
52.5600 1929.6640 -29.2240
11.8800 1962.4720 90.6560
-6.9600 1972.8480 97.2320
-9.6960 1973.3760 90.6560
-9.6960 1948.3200 -126.4960
55.8225 1930.0030 -13.3130
5.3625 1966.1540 95.3370
-2.7225 1970.8810 100.2690
-4.7745 1971.2770 95.3370
-4.7745 1944.7900 -134.2170
0.0000 1942.0000 -136.0000
57.0000 1931.0000 0.0000
-35.0000 1978.0000 0.0000
-35.0000 1978.0000 0.0000
-35.0000 1978.0000 0.0000
5.3220 1939.6670 -133.2450
55.8180 1932.9460 12.2210
-36.4860 1979.4490 7.3250
-34.4340 1979.0530 12.2210
-34.4340 1976.1100 -13.2850
11.8160 1937.4160 -125.6000
52.5440 1935.9280 25.1680
-35.5680 1980.0720 18.6400
-32.8320 1979.5440 25.1680
-32.8320 1973.2800 -29.1200
19.0740 1935.3190 -113.9950
47.5860 1939.7120 38.3670
-32.7320 1979.9830 32.6550
-30.3380 1979.5210 38.3670
-30.3380 1969.7200 -46.5750
26.6880 1933.4480 -99.3600
41.3520 1944.0640 51.3440
-28.4640 1979.2960 48.0800
-27.0960 1979.0320 51.3440
-27.0960 1965.6400 -64.7200
34.2500 1931.8750 -82.6250
34.2500 1948.7500 63.6250
-23.2500 1978.1250 63.6250
-23.2500 1978.1250 63.6250
-23.2500 1961.2500 -82.6250
41.3520 1930.6720 -64.7200
26.6880 1953.5360 74.7360
-17.5760 1976.5840 78.0000
-18.9440 1976.8480 74.7360
-18.9440 1956.7600 -99.3600
47.5860 1929.9110 -46.5750
19.0740 1958.1880 84.2030
-11.9280 1974.7870 89.9150
-14.3220 1975.2490 84.2030
-14.3220 1952.3800 -113.9950
52.5440 1929.6640 -29.1200
11.8160 1962.4720 91.5520
-6.7920 1972.8480 98.0800
-9.5280 1973.3760 91.5520
-9.5280 1948.3200 -125.6000
55.8180 1930.0030 -13.2850
5.3220 1966.1540 96.3090
-2.6540 1970.8810 101.2050
-4.7060 1971.2770 96.3090
-4.7060 1944.7900 -133.2450
0.0000 1942.0000 -135.0000
1.0000 1932.0000 0.0000
-35.0000 1978.0000 0.0000
-35.0000 1978.0000 0.0000
-35.0000 1978.0000 0.0000
1.4860 1939.7355 -132.2730
1.1340 1933.9225 12.2490
-34.2180 1979.4085 7.3890
-34.1820 1979.0485 12.2490
-34.1820 1976.1055 -13.2570
2.4080 1937.5840 -124.7040
1.4720 1936.8400 25.2720
-31.9840 1980.0080 18.7920
-31.9360 1979.5280 25.2720
-31.9360 1973.2640 -29.0160
2.8620 1935.6085 -113.2110
1.9180 1940.5275 38.5830
-28.6160 1979.9095 32.9130
-28.5740 1979.4895 38.5830
-28.5740 1969.6885 -46.3590
2.9440 1933.8720 -98.7120
2.3760 1944.7600 51.6960
-24.4320 1979.2240 48.4560
-24.4080 1978.9840 51.6960
-24.4080 1965.5920 -64.3680
2.7500 1932.4375 -82.1250
2.7500 1949.3125 64.1250
-19.7500 1978.0625 64.1250
-19.7500 1978.0625 64.1250
-19.7500 1961.1875 -82.1250
2.3760 1931.3680 -64.3680
2.9440 1953.9600 75.3840
-14.8880 1976.5360 78.6240
-14.9120 1976.7760 75.3840
-14.9120 1956.6880 -98.7120
1.9180 1930.7265 -46.3590
2.8620 1958.4775 84.9870
-10.1640 1974.7555 90.6570
-10.2060 1975.1755 84.9870
-10.2060 1952.3065 -113.2110
1.4720 1930.5760 -29.0160
2.4080 1962.6400 92.4480
-5.8960 1972.8320 98.9280
-5.9440 1973.3120 92.4480
-5.9440 1948.2560 -124.7040
1.1340 1930.9795 -13.2570
1.4860 1966.2225 97.2810
-2.4020 1970.8765 102.1410
-2.4380 1971.2365 97.2810
-2.4380 1944.7495 -132.2730
0.0000 1942.0000 -135.0000
1.0000 1932.0000 0.0000
-34.0000 1978.0000 0.0000
-34.0000 1978.0000 0.0000
-34.0000 1978.0000 0.0000
1.4455 1939.7355 -132.2775
1.1295 1933.9225 12.3175
-33.2415 1979.4085 7.4575
-33.2055 1979.0485 12.3175
-33.2055 1976.1055 -13.2975
2.3440 1937.5840 -124.7200
1.4560 1936.8400 25.4400
-31.0720 1980.0080 18.9600
-31.0240 1979.5280 25.4400
-31.0240 1973.2640 -29.0800
2.7885 1935.6085 -113.2425
1.8865 1940.5275 38.8725
-27.8005 1979.9095 33.2025
-27.7585 1979.4895 38.8725
-27.7585 1969.6885 -46.4325
2.8720 1933.8720 -98.7600
2.3280 1944.7600 52.1200
-23.7360 1979.2240 48.8800
-23.7120 1978.9840 52.1200
-23.7120 1965.5920 -64.4400
2.6875 1932.4375 -82.1875
2.6875 1949.3125 64.6875
-19.1875 1978.0625 64.6875
-19.1875 1978.0625 64.6875
-19.1875 1961.1875 -82.1875
2.3280 1931.3680 -64.4400
2.8720 1953.9600 76.0800
-14.4640 1976.5360 79.3200
-14.4880 1976.7760 76.0800
-14.4880 1956.6880 -98.7600
1.8865 1930.7265 -46.4325
2.7885 1958.4775 85.8025
-9.8745 1974.7555 91.4725
-9.9165 1975.1755 85.8025
-9.9165 1952.3065 -113.2425
1.4560 1930.5760 -29.0800
2.3440 1962.6400 93.3600
-5.7280 1972.8320 99.8400
-5.7760 1973.3120 93.3600
-5.7760 1948.2560 -124.7200
1.1295 1930.9795 -13.2975
1.4455 1966.2225 98.2575
-2.3335 1970.8765 103.1175
-2.3695 1971.2365 98.2575
-2.3695 1944.7495 -132.2775
0.0000 1942.0000 -24.0000
2.0000 1932.0000 0.0000
-34.0000 1978.0000 0.0000
-34.0000 1978.0000 0.0000
-34.0000 1978.0000 0.0000
1.5140 1939.7355 -23.8905
2.1060 1933.9225 7.8905
-33.2820 1979.4085 7.0265
-33.2100 1979.0485 7.8905
-33.2100 1976.1055 -5.7345
2.5120 1937.5840 -23.5040
2.3680 1936.8400 18.5040
-31.1360 1980.0080 17.3520
-31.0400 1979.5280 18.5040
-31.0400 1973.2640 -10.4960
3.0780 1935.6085 -22.7535
2.7020 1940.5275 31.0035
-27.8740 1979.9095 29.9955
-27.7900 1979.4895 31.0035
-27.7900 1969.6885 -14.3715
3.2960 1933.8720 -21.5520
3.0240 1944.7600 44.5520
-23.8080 1979.2240 43.9760
-23.7600 1978.9840 44.5520
-23.7600 1965.5920 -17.4480
3.2500 1932.4375 -19.8125
3.2500 1949.3125 58.3125
-19.2500 1978.0625 58.3125
-19.2500 1978.0625 58.3125
-19.2500 1961.1875 -19.8125
3.0240 1931.3680 -17.4480
3.2960 1953.9600 71.4480
-14.5120 1976.5360 72.0240
-14.5600 1976.7760 71.4480
-14.5600 1956.6880 -21.5520
2.7020 1930.7265 -14.3715
3.0780 1958.4775 83.1215
-9.9060 1974.7555 84.1295
-9.9900 1975.1755 83.1215
-9.9900 1952.3065 -22.7535
2.3680 1930.5760 -10.4960
2.5120 1962.6400 92.4960
-5.7440 1972.8320 93.6480
-5.8400 1973.3120 92.4960
-5.8400 1948.2560 -23.5040
2.1060 1930.9795 -5.7345
1.5140 1966.2225 98.7345
-2.3380 1970.8765 99.5985
-2.4100 1971.2365 98.7345
-2.4100 1944.7495 -23.8905
0.0000 1942.0000 -23.0000
2.0000 1932.0000 0.0000
-8.0000 1978.0000 0.0000
-8.0000 1978.0000 0.0000
-8.0000 1978.0000 0.0000
0.4610 1939.7355 -22.9185
1.9890 1933.9225 7.9185
-7.8930 1979.4085 7.0905
-7.8210 1979.0485 7.9185
-7.8210 1976.1055 -5.7065
0.8480 1937.5840 -22.6080
1.9520 1936.8400 18.6080
-7.4240 1980.0080 17.5040
-7.3280 1979.5280 18.6080
-7.3280 1973.2640 -10.3920
1.1670 1935.6085 -21.9695
1.8830 1940.5275 31.2195
-6.6710 1979.9095 30.2535
-6.5870 1979.4895 31.2195
-6.5870 1969.6885 -14.1555
1.4240 1933.8720 -20.9040
1.7760 1944.7600 44.9040
-5.7120 1979.2240 44.3520
-5.6640 1978.9840 44.9040
-5.6640 1965.5920 -17.0960
1.6250 1932.4375 -19.3125
1.6250 1949.3125 58.8125
-4.6250 1978.0625 58.8125
-4.6250 1978.0625 58.8125
-4.6250 1961.1875 -19.3125
1.7760 1931.3680 -17.0960
1.4240 1953.9600 72.0960
-3.4880 1976.5360 72.6480
-3.5360 1976.7760 72.0960
-3.5360 1956.6880 -20.9040
1.8830 1930.7265 -14.1555
1.1670 1958.4775 83.9055
-2.3790 1974.7555 84.8715
-2.4630 1975.1755 83.9055
-2.4630 1952.3065 -21.9695
1.9520 1930.5760 -10.3920
0.8480 1962.6400 93.3920
-1.3760 1972.8320 94.4960
-1.4720 1973.3120 93.3920
-1.4720 1948.2560 -22.6080
1.9890 1930.9795 -5.7065
0.4610 1966.2225 99.7065
-0.5570 1970.8765 100.5345
-0.6290 1971.2365 99.7065
-0.6290 1944.7495 -22.9185
0.0000 1942.0000 -22.0000
3.0000 1932.0000 0.0000
-8.0000 1978.0000 0.0000
-8.0000 1978.0000 0.0000
-8.0000 1978.0000 0.0000
0.5295 1939.7355 -21.9465
2.9655 1933.9225 7.9465
-7.9335 1979.4085 7.1545
-7.8255 1979.0485 7.9465
-7.8255 1976.1055 -5.6785
1.0160 1937.5840 -21.7120
2.8640 1936.8400 18.7120
-7.4880 1980.0080 17.6560
-7.3440 1979.5280 18.7120
-7.3440 1973.2640 -10.2880
1.4565 1935.6085 -21.1855
2.6985 1940.5275 31.4355
-6.7445 1979.9095 30.5115
-6.6185 1979.4895 31.4355
-6.6185 1969.6885 -13.9395
1.8480 1933.8720 -20.2560
2.4720 1944.7600 45.2560
-5.7840 1979.2240 44.7280
-5.7120 1978.9840 45.2560
-5.7120 1965.5920 -16.7440
2.1875 1932.4375 -18.8125
2.1875 1949.3125 59.3125
-4.6875 1978.0625 59.3125
-4.6875 1978.0625 59.3125
-4.6875 1961.1875 -18.8125
2.4720 1931.3680 -16.7440
1.8480 1953.9600 72.7440
-3.5360 1976.5360 73.2720
-3.6080 1976.7760 72.7440
-3.6080 1956.6880 -20.2560
2.6985 1930.7265 -13.9395
1.4565 1958.4775 84.6895
-2.4105 1974.7555 85.6135
-2.5365 1975.1755 84.6895
-2.5365 1952.3065 -21.1855
2.8640 1930.5760 -10.2880
1.0160 1962.6400 94.2880
-1.3920 1972.8320 95.3440
-1.5360 1973.3120 94.2880
-1.5360 1948.2560 -21.7120
2.9655 1930.9795 -5.6785
0.5295 1966.2225 100.6785
-0.5615 1970.8765 101.4705
-0.6695 1971.2365 100.6785
-0.6695 1944.7495 -21.9465
0.0000 1942.0000 -21.0000
55.0000 1932.0000 0.0000
-7.0000 1978.0000 0.0000
-7.0000 1978.0000 0.0000
-7.0000 1978.0000 0.0000
4.0510 1939.7310 -20.6730
53.7390 1933.9910 3.3850
-9.0630 1979.4770 2.6290
-7.0830 1979.1170 3.3850
-7.0830 1976.0650 -2.9370
9.6880 1937.5680 -19.7440
50.2720 1937.0080 7.5600
-9.9040 1980.1760 6.5520
-7.2640 1979.6960 7.5600
-7.2640 1973.2000 -5.8960
16.4370 1935.5770 -18.2910
45.0730 1940.8170 12.2550
-9.7510 1980.1990 11.3730
-7.4410 1979.7790 12.2550
-7.4410 1969.6150 -8.7990
23.8240 1933.8240 -16.3920
38.6160 1945.1840 17.2000
-8.8320 1979.6480 16.6960
-7.5120 1979.4080 17.2000
-7.5120 1965.5200 -11.5680
31.3750 1932.3750 -14.1250
31.3750 1949.8750 22.1250
-7.3750 1978.6250 22.1250
-7.3750 1978.6250 22.1250
-7.3750 1961.1250 -14.1250
38.6160 1931.2960 -11.5680
23.8240 1954.6560 26.7600
-5.6080 1977.2320 27.2640
-6.9280 1977.4720 26.7600
-6.9280 1956.6400 -16.3920
45.0730 1930.6530 -8.7990
16.4370 1959.2930 30.8350
-3.7590 1975.5710 31.7170
-6.0690 1975.9910 30.8350
-6.0690 1952.2750 -18.2910
50.2720 1930.5120 -5.8960
9.6880 1963.5520 34.0800
-2.0560 1973.7440 35.0880
-4.6960 1974.2240 34.0800
-4.6960 1948.2400 -19.7440
53.7390 1930.9390 -2.9370
4.0510 1967.1990 36.2250
-0.7270 1971.8530 36.9810
-2.7070 1972.2130 36.2250
-2.7070 1944.7450 -20.6730
0.0000 1942.0000 -21.0000
55.0000 1932.0000 0.0000
-7.0000 1978.0000 0.0000
-7.0000 1978.0000 0.0000
-7.0000 1978.0000 0.0000
4.0510 1939.7310 -20.6775
53.7390 1933.9910 3.4535
-9.0630 1979.4770 2.6975
-7.0830 1979.1170 3.4535
-7.0830 1976.0650 -2.9775
9.6880 1937.5680 -19.7600
50.2720 1937.0080 7.7280
-9.9040 1980.1760 6.7200
-7.2640 1979.6960 7.7280
-7.2640 1973.2000 -5.9600
16.4370 1935.5770 -18.3225
45.0730 1940.8170 12.5445
-9.7510 1980.1990 11.6625
-7.4410 1979.7790 12.5445
-7.4410 1969.6150 -8.8725
23.8240 1933.8240 -16.4400
38.6160 1945.1840 17.6240
-8.8320 1979.6480 17.1200
-7.5120 1979.4080 17.6240
-7.5120 1965.5200 -11.6400
31.3750 1932.3750 -14.1875
31.3750 1949.8750 22.6875
-7.3750 1978.6250 22.6875
-7.3750 1978.6250 22.6875
-7.3750 1961.1250 -14.1875
38.6160 1931.2960 -11.6400
23.8240 1954.6560 27.4560
-5.6080 1977.2320 27.9600
-6.9280 1977.4720 27.4560
