ply
format ascii 1.0
element vertex 1803
property float x
property float y
property float z
element face 0
property list uchar int vertex_index
end_header
-22.7990 1761.9845 9.2535
-20.4890 1763.7065 11.9415
-20.4890 1767.3365 -20.3655
24.9760 1780.4320 -45.7440
39.3840 1787.0080 15.2080
-19.9680 1759.9840 13.6720
-18.6480 1760.9680 15.2080
-18.6480 1765.9280 -28.9360
32.3750 1786.3125 -37.5625
32.3750 1780.0625 18.0625
-16.3750 1758.1875 18.0625
-16.3750 1758.1875 18.0625
-16.3750 1764.4375 -37.5625
39.3840 1791.9680 -28.9360
24.9760 1772.9920 20.4720
-12.3920 1756.6160 22.0080
-13.7120 1755.6320 20.4720
-13.7120 1763.0720 -45.7440
45.5770 1796.9815 -20.3655
17.6130 1766.2735 22.4035
-8.3910 1755.2905 25.0915
-10.7010 1753.5685 22.4035
-10.7010 1762.0385 -52.9795
50.5280 1800.9360 -12.3520
10.7120 1760.3840 23.8240
-4.7440 1754.2320 26.8960
-7.3840 1752.2640 23.8240
-7.3840 1761.5440 -58.7680
53.8110 1803.4145 -5.3965
4.6990 1755.8005 24.7005
-1.8230 1753.4615 27.0045
-3.8030 1751.9855 24.7005
-3.8030 1761.7955 -62.6085
0.0000 1764.0000 -64.0000
56.0000 1804.0000 0.0000
-25.0000 1770.0000 0.0000
-25.0000 1770.0000 0.0000
-25.0000 1770.0000 0.0000
4.8485 1766.5465 -62.6130
54.7965 1802.2795 4.3730
-26.6805 1767.4855 2.0690
-24.6645 1768.9255 4.3730
-24.6645 1770.1245 -5.4370
11.0080 1770.5120 -58.7840
51.4720 1798.5360 8.4640
-26.3840 1765.0640 5.3920
-23.6960 1766.9840 8.4640
-23.6960 1769.5360 -12.4160
18.0495 1775.4855 -53.0110
46.4555 1793.2465 12.2310
-24.5035 1762.7685 9.5430
-22.1515 1764.4485 12.2310
-22.1515 1768.4415 -20.4390
25.5440 1781.0560 -45.7920
40.1760 1786.8880 15.6320
-21.4320 1760.6320 14.0960
-20.0880 1761.5920 15.6320
-20.0880 1767.0480 -29.0080
33.0625 1786.8125 -37.6250
33.0625 1779.9375 18.6250
-17.5625 1758.6875 18.6250
-17.5625 1758.6875 18.6250
-17.5625 1765.5625 -37.6250
40.1760 1792.3440 -29.0080
25.5440 1772.8720 21.1680
-13.2880 1756.9680 22.7040
-14.6320 1756.0080 21.1680
-14.6320 1764.1920 -45.7920
46.4555 1797.2395 -20.4390
18.0495 1766.1685 23.2190
-9.0015 1755.5065 25.9070
-11.3535 1753.8265 23.2190
-11.3535 1763.1435 -53.0110
51.4720 1801.0880 -12.4160
11.0080 1760.3040 24.7360
-5.0960 1754.3360 27.8080
-7.7840 1752.4160 24.7360
-7.7840 1762.6240 -58.7840
54.7965 1803.4785 -5.4370
4.8485 1755.7555 25.6770
-1.9645 1753.4895 27.9810
-3.9805 1752.0495 25.6770
-3.9805 1762.8405 -62.6130
0.0000 1765.0000 -64.0000
57.0000 1804.0000 0.0000
-24.0000 1770.0000 0.0000
-24.0000 1770.0000 0.0000
-24.0000 1770.0000 0.0000
4.8765 1767.5185 -62.6040
55.7685 1802.3075 4.2360
-25.7445 1767.5495 1.9320
-23.6925 1768.9535 4.2360
-23.6925 1770.1525 -5.3560
11.1120 1771.4080 -58.7520
52.3680 1798.6400 8.1280
-25.5360 1765.2160 5.0560
-22.8000 1767.0880 8.1280
-22.8000 1769.6400 -12.2880
18.2655 1776.2695 -52.9480
47.2395 1793.4625 11.6520
-23.7615 1763.0265 8.9640
-21.3675 1764.6645 11.6520
-21.3675 1768.6575 -20.2920
25.8960 1781.7040 -45.6960
40.8240 1787.2400 14.7840
-20.8080 1761.0080 13.2480
-19.4400 1761.9440 14.7840
-19.4400 1767.4000 -28.8640
33.5625 1787.3125 -37.5000
33.5625 1780.4375 17.5000
-17.0625 1759.1875 17.5000
-17.0625 1759.1875 17.5000
-17.0625 1766.0625 -37.5000
40.8240 1792.6960 -28.8640
25.8960 1773.5200 19.7760
-12.9120 1757.5920 21.3120
-14.2800 1756.6560 19.7760
-14.2800 1764.8400 -45.6960
47.2395 1797.4555 -20.2920
18.2655 1766.9525 21.5880
-8.7435 1756.2485 24.2760
-11.1375 1754.6105 21.5880
-11.1375 1763.9275 -52.9480
52.3680 1801.1920 -12.2880
11.1120 1761.2000 22.9120
-4.9440 1755.1840 25.9840
-7.6800 1753.3120 22.9120
-7.6800 1763.5200 -58.7520
55.7685 1803.5065 -5.3560
4.8765 1756.7275 23.7240
-1.9005 1754.4255 26.0280
-3.9525 1753.0215 23.7240
-3.9525 1763.8125 -62.6040
0.0000 1765.0000 -63.0000
55.0000 1805.0000 0.0000
-23.0000 1770.0000 0.0000
-23.0000 1770.0000 0.0000
-23.0000 1770.0000 0.0000
4.6990 1767.5870 -61.6320
53.8110 1803.2840 4.2640
-24.6870 1767.5090 1.9960
-22.7070 1768.9490 4.2640
-22.7070 1770.1480 -5.3280
10.7120 1771.5760 -57.8560
50.5280 1799.5520 8.2320
-24.4960 1765.1520 5.2080
-21.8560 1767.0720 8.2320
-21.8560 1769.6240 -12.1840
17.6130 1776.5590 -52.1640
45.5770 1794.2780 11.8680
-22.7990 1762.9530 9.2220
-20.4890 1764.6330 11.8680
-20.4890 1768.6260 -20.0760
24.9760 1782.1280 -45.0480
39.3840 1787.9360 15.1360
-19.9680 1760.9360 13.6240
-18.6480 1761.8960 15.1360
-18.6480 1767.3520 -28.5120
32.3750 1787.8750 -37.0000
32.3750 1781.0000 18.0000
-16.3750 1759.1250 18.0000
-16.3750 1759.1250 18.0000
-16.3750 1766.0000 -37.0000
39.3840 1793.3920 -28.5120
24.9760 1773.9440 20.4240
-12.3920 1757.5440 21.9360
-13.7120 1756.5840 20.4240
-13.7120 1764.7680 -45.0480
45.5770 1798.2710 -20.0760
17.6130 1767.2420 22.3720
-8.3910 1756.2170 25.0180
-10.7010 1754.5370 22.3720
-10.7010 1763.8540 -52.1640
50.5280 1802.1040 -12.1840
10.7120 1761.3680 23.8080
-4.7440 1755.1680 26.8320
-7.3840 1753.2480 23.8080
-7.3840 1763.4560 -57.8560
53.8110 1804.4830 -5.3280
4.6990 1756.7960 24.6960
-1.8230 1754.4210 26.9640
-3.8030 1752.9810 24.6960
-3.8030 1763.7720 -61.6320
0.0000 1765.0000 -63.0000
56.0000 1805.0000 0.0000
-25.0000 1771.0000 0.0000
-25.0000 1771.0000 0.0000
-25.0000 1771.0000 0.0000
4.8485 1767.5465 -61.6365
54.7965 1803.2795 4.3325
-26.6805 1768.4855 2.0645
-24.6645 1769.9255 4.3325
-24.6645 1771.1245 -5.3685
11.0080 1771.5120 -57.8720
51.4720 1799.5360 8.4000
-26.3840 1766.0640 5.3760
-23.6960 1767.9840 8.4000
-23.6960 1770.5360 -12.2480
18.0495 1776.4855 -52.1955
46.4555 1794.2465 12.1575
-24.5035 1763.7685 9.5115
-22.1515 1765.4485 12.1575
-22.1515 1769.4415 -20.1495
25.5440 1782.0560 -45.0960
40.1760 1787.8880 15.5600
-21.4320 1761.6320 14.0480
-20.0880 1762.5920 15.5600
-20.0880 1768.0480 -28.5840
33.0625 1787.8125 -37.0625
33.0625 1780.9375 18.5625
-17.5625 1759.6875 18.5625
-17.5625 1759.6875 18.5625
-17.5625 1766.5625 -37.0625
40.1760 1793.3440 -28.5840
25.5440 1773.8720 21.1200
-13.2880 1757.9680 22.6320
-14.6320 1757.0080 21.1200
-14.6320 1765.1920 -45.0960
46.4555 1798.2395 -20.1495
18.0495 1767.1685 23.1875
-9.0015 1756.5065 25.8335
-11.3535 1754.8265 23.1875
-11.3535 1764.1435 -52.1955
51.4720 1802.0880 -12.2480
11.0080 1761.3040 24.7200
-5.0960 1755.3360 27.7440
-7.7840 1753.4160 24.7200
-7.7840 1763.6240 -57.8720
54.7965 1804.4785 -5.3685
4.8485 1756.7555 25.6725
-1.9645 1754.4895 27.9405
-3.9805 1753.0495 25.6725
-3.9805 1763.8405 -61.6365
0.0000 1766.0000 -64.0000
57.0000 1805.0000 0.0000
-24.0000 1771.0000 0.0000
-24.0000 1771.0000 0.0000
-24.0000 1771.0000 0.0000
4.8765 1768.5185 -62.6040
55.7685 1803.3075 4.2360
-25.7445 1768.5495 1.9320
-23.6925 1769.9535 4.2360
-23.6925 1771.1525 -5.3560
11.1120 1772.4080 -58.7520
52.3680 1799.6400 8.1280
-25.5360 1766.2160 5.0560
-22.8000 1768.0880 8.1280
-22.8000 1770.6400 -12.2880
18.2655 1777.2695 -52.9480
47.2395 1794.4625 11.6520
-23.7615 1764.0265 8.9640
-21.3675 1765.6645 11.6520
-21.3675 1769.6575 -20.2920
25.8960 1782.7040 -45.6960
40.8240 1788.2400 14.7840
-20.8080 1762.0080 13.2480
-19.4400 1762.9440 14.7840
-19.4400 1768.4000 -28.8640
33.5625 1788.3125 -37.5000
33.5625 1781.4375 17.5000
-17.0625 1760.1875 17.5000
-17.0625 1760.1875 17.5000
-17.0625 1767.0625 -37.5000
40.8240 1793.6960 -28.8640
25.8960 1774.5200 19.7760
-12.9120 1758.5920 21.3120
-14.2800 1757.6560 19.7760
-14.2800 1765.8400 -45.6960
47.2395 1798.4555 -20.2920
18.2655 1767.9525 21.5880
-8.7435 1757.2485 24.2760
-11.1375 1755.6105 21.5880
-11.1375 1764.9275 -52.9480
52.3680 1802.1920 -12.2880
11.1120 1762.2000 22.9120
-4.9440 1756.1840 25.9840
-7.6800 1754.3120 22.9120
-7.6800 1764.5200 -58.7520
55.7685 1804.5065 -5.3560
4.8765 1757.7275 23.7240
-1.9005 1755.4255 26.0280
-3.9525 1754.0215 23.7240
-3.9525 1764.8125 -62.6040
0.0000 1766.0000 -63.0000
56.0000 1806.0000 0.0000
-23.0000 1771.0000 0.0000
-23.0000 1771.0000 0.0000
-23.0000 1771.0000 0.0000
4.7675 1768.5870 -61.6320
54.7875 1804.2840 4.2640
-24.7275 1768.5090 1.9960
-22.7115 1769.9490 4.2640
-22.7115 1771.1480 -5.3280
10.8800 1772.5760 -57.8560
51.4400 1800.5520 8.2320
-24.5600 1766.1520 5.2080
-21.8720 1768.0720 8.2320
-21.8720 1770.6240 -12.1840
17.9025 1777.5590 -52.1640
46.3925 1795.2780 11.8680
-22.8725 1763.9530 9.2220
-20.5205 1765.6330 11.8680
-20.5205 1769.6260 -20.0760
25.4000 1783.1280 -45.0480
40.0800 1788.9360 15.1360
-20.0400 1761.9360 13.6240
-18.6960 1762.8960 15.1360
-18.6960 1768.3520 -28.5120
32.9375 1788.8750 -37.0000
32.9375 1782.0000 18.0000
-16.4375 1760.1250 18.0000
-16.4375 1760.1250 18.0000
-16.4375 1767.0000 -37.0000
40.0800 1794.3920 -28.5120
25.4000 1774.9440 20.4240
-12.4400 1758.5440 21.9360
-13.7840 1757.5840 20.4240
-13.7840 1765.7680 -45.0480
46.3925 1799.2710 -20.0760
17.9025 1768.2420 22.3720
-8.4225 1757.2170 25.0180
-10.7745 1755.5370 22.3720
-10.7745 1764.8540 -52.1640
51.4400 1803.1040 -12.1840
10.8800 1762.3680 23.8080
-4.7600 1756.1680 26.8320
-7.4480 1754.2480 23.8080
-7.4480 1764.4560 -57.8560
54.7875 1805.4830 -5.3280
4.7675 1757.7960 24.6960
-1.8275 1755.4210 26.9640
-3.8435 1753.9810 24.6960
-3.8435 1764.7720 -61.6320
0.0000 1767.0000 -64.0000
57.0000 1806.0000 0.0000
-25.0000 1772.0000 0.0000
-25.0000 1772.0000 0.0000
-25.0000 1772.0000 0.0000
4.9170 1769.5230 -62.6130
55.7730 1804.2390 4.3730
-26.7210 1769.4810 2.0690
-24.6690 1770.8850 4.3730
-24.6690 1772.1930 -5.4370
11.1760 1773.4240 -58.7840
52.3840 1800.4720 8.4640
-26.4480 1767.0480 5.3920
-23.7120 1768.9200 8.4640
-23.7120 1771.7040 -12.4160
18.3390 1778.3010 -53.0110
47.2710 1795.1730 12.2310
-24.5770 1764.7370 9.5430
-22.1830 1766.3750 12.2310
-22.1830 1770.7310 -20.4390
25.9680 1783.7520 -45.7920
40.8720 1788.8160 15.6320
-21.5040 1762.5840 14.0960
-20.1360 1763.5200 15.6320
-20.1360 1769.4720 -29.0080
33.6250 1789.3750 -37.6250
33.6250 1781.8750 18.6250
-17.6250 1760.6250 18.6250
-17.6250 1760.6250 18.6250
-17.6250 1768.1250 -37.6250
40.8720 1794.7680 -29.0080
25.9680 1774.8240 21.1680
-13.3360 1758.8960 22.7040
-14.7040 1757.9600 21.1680
-14.7040 1766.8880 -45.7920
47.2710 1799.5290 -20.4390
18.3390 1768.1370 23.2190
-9.0330 1757.4330 25.9070
-11.4270 1755.7950 23.2190
-11.4270 1765.9590 -53.0110
52.3840 1803.2560 -12.4160
11.1760 1762.2880 24.7360
-5.1120 1756.2720 27.8080
-7.8480 1754.4000 24.7360
-7.8480 1765.5360 -58.7840
55.7730 1805.5470 -5.4370
4.9170 1757.7510 25.6770
-1.9690 1755.4490 27.9810
-4.0210 1754.0450 25.6770
-4.0210 1765.8170 -62.6130
0.0000 1767.0000 -63.0000
56.0000 1807.0000 0.0000
-25.0000 1772.0000 0.0000
-25.0000 1772.0000 0.0000
-25.0000 1772.0000 0.0000
4.8485 1769.5870 -61.6275
54.7965 1805.2840 4.1955
-26.6805 1769.5090 1.9275
-24.6645 1770.9490 4.1955
-24.6645 1772.1480 -5.2875
11.0080 1773.5760 -57.8400
51.4720 1801.5520 8.0640
-26.3840 1767.1520 5.0400
-23.6960 1769.0720 8.0640
-23.6960 1771.6240 -12.1200
18.0495 1778.5590 -52.1325
46.4555 1796.2780 11.5785
-24.5035 1764.9530 8.9325
-22.1515 1766.6330 11.5785
-22.1515 1770.6260 -20.0025
25.5440 1784.1280 -45.0000
40.1760 1789.9360 14.7120
-21.4320 1762.9360 13.2000
-20.0880 1763.8960 14.7120
-20.0880 1769.3520 -28.4400
33.0625 1789.8750 -36.9375
33.0625 1783.0000 17.4375
-17.5625 1761.1250 17.4375
-17.5625 1761.1250 17.4375
-17.5625 1768.0000 -36.9375
40.1760 1795.3920 -28.4400
25.5440 1775.9440 19.7280
-13.2880 1759.5440 21.2400
-14.6320 1758.5840 19.7280
-14.6320 1766.7680 -45.0000
46.4555 1800.2710 -20.0025
18.0495 1769.2420 21.5565
-9.0015 1758.2170 24.2025
-11.3535 1756.5370 21.5565
-11.3535 1765.8540 -52.1325
51.4720 1804.1040 -12.1200
11.0080 1763.3680 22.8960
-5.0960 1757.1680 25.9200
-7.7840 1755.2480 22.8960
-7.7840 1765.4560 -57.8400
54.7965 1806.4830 -5.2875
4.8485 1758.7960 23.7195
-1.9645 1756.4210 25.9875
-3.9805 1754.9810 23.7195
-3.9805 1765.7720 -61.6275
0.0000 1768.0000 -63.0000
57.0000 1807.0000 0.0000
-24.0000 1772.0000 0.0000
-24.0000 1772.0000 0.0000
-24.0000 1772.0000 0.0000
4.8765 1770.5635 -61.6320
55.7685 1805.2435 4.2640
-25.7445 1769.5045 1.9960
-23.6925 1770.9085 4.2640
-23.6925 1772.2165 -5.3280
11.1120 1774.4880 -57.8560
52.3680 1801.4880 8.2320
-25.5360 1767.1360 5.2080
-22.8000 1769.0080 8.2320
-22.8000 1771.7920 -12.1840
18.2655 1779.3745 -52.1640
47.2395 1796.2045 11.8680
-23.7615 1764.9215 9.2220
-21.3675 1766.5595 11.8680
-21.3675 1770.9155 -20.0760
25.8960 1784.8240 -45.0480
40.8240 1789.8640 15.1360
-20.8080 1762.8880 13.6240
-19.4400 1763.8240 15.1360
-19.4400 1769.7760 -28.5120
33.5625 1790.4375 -37.0000
33.5625 1782.9375 18.0000
-17.0625 1761.0625 18.0000
-17.0625 1761.0625 18.0000
-17.0625 1768.5625 -37.0000
40.8240 1795.8160 -28.5120
25.8960 1775.8960 20.4240
-12.9120 1759.4720 21.9360
-14.2800 1758.5360 20.4240
-14.2800 1767.4640 -45.0480
47.2395 1800.5605 -20.0760
18.2655 1769.2105 22.3720
-8.7435 1758.1435 25.0180
-11.1375 1756.5055 22.3720
-11.1375 1766.6695 -52.1640
52.3680 1804.2720 -12.1840
11.1120 1763.3520 23.8080
-4.9440 1757.1040 26.8320
-7.6800 1755.2320 23.8080
-7.6800 1766.3680 -57.8560
55.7685 1806.5515 -5.3280
4.8765 1758.7915 24.6960
-1.9005 1756.3805 26.9640
-3.9525 1754.9765 24.6960
-3.9525 1766.7485 -61.6320
0.0000 1769.0000 -63.0000
56.0000 1808.0000 0.0000
-23.0000 1772.0000 0.0000
-23.0000 1772.0000 0.0000
-23.0000 1772.0000 0.0000
4.7675 1771.6085 -61.6365
54.7875 1806.1795 4.3325
-24.7275 1769.4595 2.0645
-22.7115 1770.8635 4.3325
-22.7115 1772.2805 -5.3685
10.8800 1775.5680 -57.8720
51.4400 1802.3360 8.4000
-24.5600 1767.0560 5.3760
-21.8720 1768.9280 8.4000
-21.8720 1771.9440 -12.2480
17.9025 1780.4795 -52.1955
46.3925 1796.9465 12.1575
-22.8725 1764.8165 9.5115
-20.5205 1766.4545 12.1575
-20.5205 1771.1735 -20.1495
25.4000 1785.9440 -45.0960
40.0800 1790.4880 15.5600
-20.0400 1762.7680 14.0480
-18.6960 1763.7040 15.5600
-18.6960 1770.1520 -28.5840
32.9375 1791.5625 -37.0625
32.9375 1783.4375 18.5625
-16.4375 1760.9375 18.5625
-16.4375 1760.9375 18.5625
-16.4375 1769.0625 -37.0625
40.0800 1796.9360 -28.5840
25.4000 1776.2720 21.1200
-12.4400 1759.3520 22.6320
-13.7840 1758.4160 21.1200
-13.7840 1768.0880 -45.0960
46.3925 1801.6655 -20.1495
17.9025 1769.4685 23.1875
-8.4225 1758.0385 25.8335
-10.7745 1756.4005 23.1875
-10.7745 1767.4115 -52.1955
51.4400 1805.3520 -12.2480
10.8800 1763.5040 24.7200
-4.7600 1757.0240 27.7440
-7.4480 1755.1520 24.7200
-7.4480 1767.2160 -57.8720
54.7875 1807.5965 -5.3685
4.7675 1758.8555 25.6725
-1.8275 1756.3355 27.9405
-3.8435 1754.9315 25.6725
-3.8435 1767.6845 -61.6365
0.0000 1770.0000 -63.0000
57.0000 1808.0000 0.0000
-25.0000 1773.0000 0.0000
-25.0000 1773.0000 0.0000
-25.0000 1773.0000 0.0000
4.9170 1772.5400 -61.6275
55.7730 1806.2030 4.1955
-26.7210 1770.5000 1.9275
-24.6690 1771.8680 4.1955
-24.6690 1773.2850 -5.2875
11.1760 1776.4000 -57.8400
52.3840 1802.4240 8.0640
-26.4480 1768.1200 5.0400
-23.7120 1769.9440 8.0640
-23.7120 1772.9600 -12.1200
18.3390 1781.1900 -52.1325
47.2710 1797.1310 11.5785
-24.5770 1765.8900 8.9325
-22.1830 1767.4860 11.5785
-22.1830 1772.2050 -20.0025
25.9680 1786.5200 -45.0000
40.8720 1790.7920 14.7120
-21.5040 1763.8400 13.2000
-20.1360 1764.7520 14.7120
-20.1360 1771.2000 -28.4400
33.6250 1792.0000 -36.9375
33.6250 1783.8750 17.4375
-17.6250 1762.0000 17.4375
-17.6250 1762.0000 17.4375
-17.6250 1770.1250 -36.9375
40.8720 1797.2400 -28.4400
25.9680 1776.8480 19.7280
-13.3360 1760.4000 21.2400
-14.7040 1759.4880 19.7280
-14.7040 1769.1600 -45.0000
47.2710 1801.8500 -20.0025
18.3390 1770.1790 21.5565
-9.0330 1759.0700 24.2025
-11.4270 1757.4740 21.5565
-11.4270 1768.4850 -52.1325
52.3840 1805.4400 -12.1200
11.1760 1764.3360 22.8960
-5.1120 1758.0400 25.9200
-7.8480 1756.2160 22.8960
-7.8480 1768.2800 -57.8400
55.7730 1807.6200 -5.2875
4.9170 1759.7870 23.7195
-1.9690 1757.3400 25.9875
-4.0210 1755.9720 23.7195
-4.0210 1768.7250 -61.6275
0.0000 1770.0000 -63.0000
56.0000 1809.0000 0.0000
-24.0000 1773.0000 0.0000
-24.0000 1773.0000 0.0000
-24.0000 1773.0000 0.0000
4.8080 1772.6085 -61.6320
54.7920 1807.1795 4.2640
-25.7040 1770.4595 1.9960
-23.6880 1771.8635 4.2640
-23.6880 1773.2805 -5.3280
10.9440 1776.5680 -57.8560
51.4560 1803.3360 8.2320
-25.4720 1768.0560 5.2080
-22.7840 1769.9280 8.2320
-22.7840 1772.9440 -12.1840
17.9760 1781.4795 -52.1640
46.4240 1797.9465 11.8680
-23.6880 1765.8165 9.2220
-21.3360 1767.4545 11.8680
-21.3360 1772.1735 -20.0760
25.4720 1786.9440 -45.0480
40.1280 1791.4880 15.1360
-20.7360 1763.7680 13.6240
-19.3920 1764.7040 15.1360
-19.3920 1771.1520 -28.5120
33.0000 1792.5625 -37.0000
33.0000 1784.4375 18.0000
-17.0000 1761.9375 18.0000
-17.0000 1761.9375 18.0000
-17.0000 1770.0625 -37.0000
40.1280 1797.9360 -28.5120
25.4720 1777.2720 20.4240
-12.8640 1760.3520 21.9360
-14.2080 1759.4160 20.4240
-14.2080 1769.0880 -45.0480
46.4240 1802.6655 -20.0760
17.9760 1770.4685 22.3720
-8.7120 1759.0385 25.0180
-11.0640 1757.4005 22.3720
-11.0640 1768.4115 -52.1640
51.4560 1806.3520 -12.1840
10.9440 1764.5040 23.8080
-4.9280 1758.0240 26.8320
-7.6160 1756.1520 23.8080
-7.6160 1768.2160 -57.8560
54.7920 1808.5965 -5.3280
4.8080 1759.8555 24.6960
-1.8960 1757.3355 26.9640
-3.9120 1755.9315 24.6960
-3.9120 1768.6845 -61.6320
0.0000 1771.0000 -63.0000
57.0000 1809.0000 0.0000
-23.0000 1773.0000 0.0000
-23.0000 1773.0000 0.0000
-23.0000 1773.0000 0.0000
4.8360 1773.5850 -61.6365
55.7640 1807.1390 4.3325
-24.7680 1770.4550 2.0645
-22.7160 1771.8230 4.3325
-22.7160 1773.3490 -5.3685
11.0480 1777.4800 -57.8720
52.3520 1803.2720 8.4000
-24.6240 1768.0400 5.3760
-21.8880 1769.8640 8.4000
-21.8880 1773.1120 -12.2480
18.1920 1782.2950 -52.1955
47.2080 1797.8730 12.1575
-22.9460 1765.7850 9.5115
-20.5520 1767.3810 12.1575
-20.5520 1772.4630 -20.1495
25.8240 1787.6400 -45.0960
40.7760 1791.4160 15.5600
-20.1120 1763.7200 14.0480
-18.7440 1764.6320 15.5600
-18.7440 1771.5760 -28.5840
33.5000 1793.1250 -37.0625
33.5000 1784.3750 18.5625
-16.5000 1761.8750 18.5625
-16.5000 1761.8750 18.5625
-16.5000 1770.6250 -37.0625
40.7760 1798.3600 -28.5840
25.8240 1777.2240 21.1200
-12.4880 1760.2800 22.6320
-13.8560 1759.3680 21.1200
-13.8560 1769.7840 -45.0960
47.2080 1802.9550 -20.1495
18.1920 1770.4370 23.1875
-8.4540 1758.9650 25.8335
-10.8480 1757.3690 23.1875
-10.8480 1769.2270 -52.1955
52.3520 1806.5200 -12.2480
11.0480 1764.4880 24.7200
-4.7760 1757.9600 27.7440
-7.5120 1756.1360 24.7200
-7.5120 1769.1280 -57.8720
55.7640 1808.6650 -5.3685
4.8360 1759.8510 25.6725
-1.8320 1757.2950 27.9405
-3.8840 1755.9270 25.6725
-3.8840 1769.6610 -61.6365
0.0000 1771.0000 -62.0000
56.0000 1810.0000 0.0000
-22.0000 1773.0000 0.0000
-22.0000 1773.0000 0.0000
-22.0000 1773.0000 0.0000
4.7270 1773.6490 -60.6510
54.7830 1808.1840 4.1550
-23.7510 1770.4830 1.9230
-21.7350 1771.8870 4.1550
-21.7350 1773.3040 -5.2190
10.8160 1777.6320 -56.9280
51.4240 1804.3520 8.0000
-23.6480 1768.1440 5.0240
-20.9600 1770.0160 8.0000
-20.9600 1773.0320 -11.9520
17.8290 1782.5530 -51.3170
46.3610 1798.9780 11.5050
-22.0570 1766.0010 8.9010
-19.7050 1767.6390 11.5050
-19.7050 1772.3580 -19.7130
25.3280 1788.0160 -44.3040
40.0320 1792.5360 14.6400
-19.3440 1764.0720 13.1520
-18.0000 1765.0080 14.6400
-18.0000 1771.4560 -28.0160
32.8750 1793.6250 -36.3750
32.8750 1785.5000 17.3750
-15.8750 1762.3750 17.3750
-15.8750 1762.3750 17.3750
-15.8750 1770.5000 -36.3750
40.0320 1798.9840 -28.0160
25.3280 1778.3440 19.6800
-12.0160 1760.9280 21.1680
-13.3600 1759.9920 19.6800
-13.3600 1769.6640 -44.3040
46.3610 1803.6970 -19.7130
17.8290 1771.5420 21.5250
-8.1330 1759.7490 24.1290
-10.4850 1758.1110 21.5250
-10.4850 1769.1220 -51.3170
51.4240 1807.3680 -11.9520
10.8160 1765.5680 22.8800
-4.5920 1758.8560 25.8560
-7.2800 1756.9840 22.8800
-7.2800 1769.0480 -56.9280
54.7830 1809.6010 -5.2190
4.7270 1760.8960 23.7150
-1.7590 1758.2670 25.9470
-3.7750 1756.8630 23.7150
-3.7750 1769.6160 -60.6510
0.0000 1772.0000 -63.0000
57.0000 1810.0000 0.0000
-25.0000 1774.0000 0.0000
-25.0000 1774.0000 0.0000
-25.0000 1774.0000 0.0000
4.9170 1774.5850 -61.6320
55.7730 1808.1390 4.2640
-26.7210 1771.4550 1.9960
-24.6690 1772.8230 4.2640
-24.6690 1774.3490 -5.3280
11.1760 1778.4800 -57.8560
52.3840 1804.2720 8.2320
-26.4480 1769.0400 5.2080
-23.7120 1770.8640 8.2320
-23.7120 1774.1120 -12.1840
18.3390 1783.2950 -52.1640
47.2710 1798.8730 11.8680
-24.5770 1766.7850 9.2220
-22.1830 1768.3810 11.8680
-22.1830 1773.4630 -20.0760
25.9680 1788.6400 -45.0480
40.8720 1792.4160 15.1360
-21.5040 1764.7200 13.6240
-20.1360 1765.6320 15.1360
-20.1360 1772.5760 -28.5120
33.6250 1794.1250 -37.0000
33.6250 1785.3750 18.0000
-17.6250 1762.8750 18.0000
-17.6250 1762.8750 18.0000
-17.6250 1771.6250 -37.0000
40.8720 1799.3600 -28.5120
25.9680 1778.2240 20.4240
-13.3360 1761.2800 21.9360
-14.7040 1760.3680 20.4240
-14.7040 1770.7840 -45.0480
47.2710 1803.9550 -20.0760
18.3390 1771.4370 22.3720
-9.0330 1759.9650 25.0180
-11.4270 1758.3690 22.3720
-11.4270 1770.2270 -52.1640
52.3840 1807.5200 -12.1840
11.1760 1765.4880 23.8080
-5.1120 1758.9600 26.8320
-7.8480 1757.1360 23.8080
-7.8480 1770.1280 -57.8560
55.7730 1809.6650 -5.3280
4.9170 1760.8510 24.6960
-1.9690 1758.2950 26.9640
-4.0210 1756.9270 24.6960
-4.0210 1770.6610 -61.6320
0.0000 1772.0000 -62.0000
56.0000 1811.0000 0.0000
-25.0000 1774.0000 0.0000
-25.0000 1774.0000 0.0000
-25.0000 1774.0000 0.0000
4.8485 1774.6535 -60.6600
54.7965 1809.1155 4.2920
-26.6805 1771.4145 2.0600
-24.6645 1772.8185 4.2920
-24.6645 1774.3445 -5.3000
11.0080 1778.6480 -56.9600
51.4720 1805.1840 8.3360
-26.3840 1768.9760 5.3600
-23.6960 1770.8480 8.3360
-23.6960 1774.0960 -12.0800
18.0495 1783.5845 -51.3800
46.4555 1799.6885 12.0840
-24.5035 1766.7115 9.4800
-22.1515 1768.3495 12.0840
-22.1515 1773.4315 -19.8600
25.5440 1789.0640 -44.4000
40.1760 1793.1120 15.4880
-21.4320 1764.6480 14.0000
-20.0880 1765.5840 15.4880
-20.0880 1772.5280 -28.1600
33.0625 1794.6875 -36.5000
33.0625 1785.9375 18.5000
-17.5625 1762.8125 18.5000
-17.5625 1762.8125 18.5000
-17.5625 1771.5625 -36.5000
40.1760 1800.0560 -28.1600
25.5440 1778.6480 21.0720
-13.2880 1761.2320 22.5600
-14.6320 1760.2960 21.0720
-14.6320 1770.7120 -44.4000
46.4555 1804.7705 -19.8600
18.0495 1771.7265 23.1560
-9.0015 1759.9335 25.7600
-11.3535 1758.2955 23.1560
-11.3535 1770.1535 -51.3800
51.4720 1808.4320 -12.0800
11.0080 1765.6560 24.7040
-5.0960 1758.9440 27.6800
-7.7840 1757.0720 24.7040
-7.7840 1770.0640 -56.9600
54.7965 1810.6415 -5.3000
4.8485 1760.9195 25.6680
-1.9645 1758.2905 27.9000
-3.9805 1756.8865 25.6680
-3.9805 1770.6205 -60.6600
0.0000 1773.0000 -63.0000
57.0000 1811.0000 0.0000
-24.0000 1774.0000 0.0000
-24.0000 1774.0000 0.0000
-24.0000 1774.0000 0.0000
4.8765 1775.6255 -61.6275
55.7685 1809.1435 4.1955
-25.7445 1771.4785 1.9275
-23.6925 1772.8465 4.1955
-23.6925 1774.3725 -5.2875
11.1120 1779.5440 -57.8400
52.3680 1805.2880 8.0640
-25.5360 1769.1280 5.0400
-22.8000 1770.9520 8.0640
-22.8000 1774.2000 -12.1200
18.2655 1784.3685 -52.1325
47.2395 1799.9045 11.5785
-23.7615 1766.9695 8.9325
-21.3675 1768.5655 11.5785
-21.3675 1773.6475 -20.0025
25.8960 1789.7120 -45.0000
40.8240 1793.4640 14.7120
-20.8080 1765.0240 13.2000
-19.4400 1765.9360 14.7120
-19.4400 1772.8800 -28.4400
33.5625 1795.1875 -36.9375
33.5625 1786.4375 17.4375
-17.0625 1763.3125 17.4375
-17.0625 1763.3125 17.4375
-17.0625 1772.0625 -36.9375
40.8240 1800.4080 -28.4400
25.8960 1779.2960 19.7280
-12.9120 1761.8560 21.2400
-14.2800 1760.9440 19.7280
-14.2800 1771.3600 -45.0000
47.2395 1804.9865 -20.0025
18.2655 1772.5105 21.5565
-8.7435 1760.6755 24.2025
-11.1375 1759.0795 21.5565
-11.1375 1770.9375 -52.1325
52.3680 1808.5360 -12.1200
11.1120 1766.5520 22.8960
-4.9440 1759.7920 25.9200
-7.6800 1757.9680 22.8960
-7.6800 1770.9600 -57.8400
55.7685 1810.6695 -5.2875
4.8765 1761.8915 23.7195
-1.9005 1759.2265 25.9875
-3.9525 1757.8585 23.7195
-3.9525 1771.5925 -61.6275
0.0000 1773.0000 -62.0000
58.0000 1811.0000 0.0000
-23.0000 1774.0000 0.0000
-23.0000 1774.0000 0.0000
-23.0000 1774.0000 0.0000
4.9045 1775.6255 -60.6555
56.7405 1809.1435 4.2235
-24.8085 1771.4785 1.9915
-22.7205 1772.8465 4.2235
-22.7205 1774.3725 -5.2595
11.2160 1779.5440 -56.9440
53.2640 1805.2880 8.1680
-24.6880 1769.1280 5.1920
-21.9040 1770.9520 8.1680
-21.9040 1774.2000 -12.0160
18.4815 1784.3685 -51.3485
48.0235 1799.9045 11.7945
-23.0195 1766.9695 9.1905
-20.5835 1768.5655 11.7945
-20.5835 1773.6475 -19.7865
26.2480 1789.7120 -44.3520
41.4720 1793.4640 15.0640
-20.1840 1765.0240 13.5760
-18.7920 1765.9360 15.0640
-18.7920 1772.8800 -28.0880
34.0625 1795.1875 -36.4375
34.0625 1786.4375 17.9375
-16.5625 1763.3125 17.9375
-16.5625 1763.3125 17.9375
-16.5625 1772.0625 -36.4375
41.4720 1800.4080 -28.0880
26.2480 1779.2960 20.3760
-12.5360 1761.8560 21.8640
-13.9280 1760.9440 20.3760
-13.9280 1771.3600 -44.3520
48.0235 1804.9865 -19.7865
18.4815 1772.5105 22.3405
-8.4855 1760.6755 24.9445
-10.9215 1759.0795 22.3405
-10.9215 1770.9375 -51.3485
53.2640 1808.5360 -12.0160
11.2160 1766.5520 23.7920
-4.7920 1759.7920 26.7680
-7.5760 1757.9680 23.7920
-7.5760 1770.9600 -56.9440
56.7405 1810.6695 -5.2595
4.9045 1761.8915 24.6915
-1.8365 1759.2265 26.9235
-3.9245 1757.8585 24.6915
-3.9245 1771.5925 -60.6555
0.0000 1773.0000 -62.0000
56.0000 1812.0000 0.0000
-22.0000 1774.0000 0.0000
-22.0000 1774.0000 0.0000
-22.0000 1774.0000 0.0000
4.7270 1775.6895 -60.6510
54.7830 1810.1885 4.1550
-23.7510 1771.5065 1.9230
-21.7350 1772.9105 4.1550
-21.7350 1774.3275 -5.2190
10.8160 1779.6960 -56.9280
51.4240 1806.3680 8.0000
-23.6480 1769.2320 5.0240
-20.9600 1771.1040 8.0000
-20.9600 1774.1200 -11.9520
17.8290 1784.6265 -51.3170
46.3610 1801.0095 11.5050
-22.0570 1767.1855 8.9010
-19.7050 1768.8235 11.5050
-19.7050 1773.5425 -19.7130
25.3280 1790.0880 -44.3040
40.0320 1794.5840 14.6400
-19.3440 1765.3760 13.1520
-18.0000 1766.3120 14.6400
-18.0000 1772.7600 -28.0160
32.8750 1795.6875 -36.3750
32.8750 1787.5625 17.3750
-15.8750 1763.8125 17.3750
-15.8750 1763.8125 17.3750
-15.8750 1771.9375 -36.3750
40.0320 1801.0320 -28.0160
25.3280 1780.4160 19.6800
-12.0160 1762.5040 21.1680
-13.3600 1761.5680 19.6800
-13.3600 1771.2400 -44.3040
46.3610 1805.7285 -19.7130
17.8290 1773.6155 21.5250
-8.1330 1761.4595 24.1290
-10.4850 1759.8215 21.5250
-10.4850 1770.8325 -51.3170
51.4240 1809.3840 -11.9520
10.8160 1767.6320 22.8800
-4.5920 1760.6880 25.8560
-7.2800 1758.8160 22.8800
-7.2800 1770.8800 -56.9280
54.7830 1811.6055 -5.2190
4.7270 1762.9365 23.7150
-1.7590 1760.1985 25.9470
-3.7750 1758.7945 23.7150
-3.7750 1771.5475 -60.6510
0.0000 1774.0000 -63.0000
57.0000 1812.0000 0.0000
-24.0000 1775.0000 0.0000
-24.0000 1775.0000 0.0000
-24.0000 1775.0000 0.0000
4.8765 1776.6255 -61.6320
55.7685 1810.1435 4.2640
-25.7445 1772.4785 1.9960
-23.6925 1773.8465 4.2640
-23.6925 1775.3725 -5.3280
11.1120 1780.5440 -57.8560
52.3680 1806.2880 8.2320
-25.5360 1770.1280 5.2080
-22.8000 1771.9520 8.2320
-22.8000 1775.2000 -12.1840
18.2655 1785.3685 -52.1640
47.2395 1800.9045 11.8680
-23.7615 1767.9695 9.2220
-21.3675 1769.5655 11.8680
-21.3675 1774.6475 -20.0760
25.8960 1790.7120 -45.0480
40.8240 1794.4640 15.1360
-20.8080 1766.0240 13.6240
-19.4400 1766.9360 15.1360
-19.4400 1773.8800 -28.5120
33.5625 1796.1875 -37.0000
33.5625 1787.4375 18.0000
-17.0625 1764.3125 18.0000
-17.0625 1764.3125 18.0000
-17.0625 1773.0625 -37.0000
40.8240 1801.4080 -28.5120
25.8960 1780.2960 20.4240
-12.9120 1762.8560 21.9360
-14.2800 1761.9440 20.4240
-14.2800 1772.3600 -45.0480
47.2395 1805.9865 -20.0760
18.2655 1773.5105 22.3720
-8.7435 1761.6755 25.0180
-11.1375 1760.0795 22.3720
-11.1375 1771.9375 -52.1640
52.3680 1809.5360 -12.1840
11.1120 1767.5520 23.8080
-4.9440 1760.7920 26.8320
-7.6800 1758.9680 23.8080
-7.6800 1771.9600 -57.8560
55.7685 1811.6695 -5.3280
4.8765 1762.8915 24.6960
-1.9005 1760.2265 26.9640
-3.9525 1758.8585 24.6960
-3.9525 1772.5925 -61.6320
0.0000 1774.0000 -62.0000
58.0000 1812.0000 0.0000
-23.0000 1775.0000 0.0000
-23.0000 1775.0000 0.0000
-23.0000 1775.0000 0.0000
4.9045 1776.6210 -60.6510
56.7405 1810.2120 4.1550
-24.8085 1772.5470 1.9230
-22.7205 1773.9150 4.1550
-22.7205 1775.3320 -5.2190
11.2160 1780.5280 -56.9280
53.2640 1806.4560 8.0000
-24.6880 1770.2960 5.0240
-21.9040 1772.1200 8.0000
-21.9040 1775.1360 -11.9520
18.4815 1785.3370 -51.3170
48.0235 1801.1940 11.5050
-23.0195 1768.2590 8.9010
-20.5835 1769.8550 11.5050
-20.5835 1774.5740 -19.7130
26.2480 1790.6640 -44.3040
41.4720 1794.8880 14.6400
-20.1840 1766.4480 13.1520
-18.7920 1767.3600 14.6400
-18.7920 1773.8080 -28.0160
34.0625 1796.1250 -36.3750
34.0625 1788.0000 17.3750
-16.5625 1764.8750 17.3750
-16.5625 1764.8750 17.3750
-16.5625 1773.0000 -36.3750
41.4720 1801.3360 -28.0160
26.2480 1780.9920 19.6800
-12.5360 1763.5520 21.1680
-13.9280 1762.6400 19.6800
-13.9280 1772.3120 -44.3040
48.0235 1805.9130 -19.7130
18.4815 1774.3260 21.5250
-8.4855 1762.4910 24.1290
-10.9215 1760.8950 21.5250
-10.9215 1771.9060 -51.3170
53.2640 1809.4720 -11.9520
11.2160 1768.4640 22.8800
-4.7920 1761.7040 25.8560
-7.5760 1759.8800 22.8800
-7.5760 1771.9440 -56.9280
56.7405 1811.6290 -5.2190
4.9045 1763.8680 23.7150
-1.8365 1761.2030 25.9470
-3.9245 1759.8350 23.7150
-3.9245 1772.5880 -60.6510
0.0000 1774.0000 -61.0000
56.0000 1813.0000 0.0000
-22.0000 1775.0000 0.0000
-22.0000 1775.0000 0.0000
-22.0000 1775.0000 0.0000
4.7270 1776.6895 -59.6790
54.7830 1811.1885 4.1830
-23.7510 1772.5065 1.9870
-21.7350 1773.9105 4.1830
-21.7350 1775.3275 -5.1910
10.8160 1780.6960 -56.0320
51.4240 1807.3680 8.1040
-23.6480 1770.2320 5.1760
-20.9600 1772.1040 8.1040
-20.9600 1775.1200 -11.8480
17.8290 1785.6265 -50.5330
46.3610 1802.0095 11.7210
-22.0570 1768.1855 9.1590
-19.7050 1769.8235 11.7210
-19.7050 1774.5425 -19.4970
25.3280 1791.0880 -43.6560
40.0320 1795.5840 14.9920
-19.3440 1766.3760 13.5280
-18.0000 1767.3120 14.9920
-18.0000 1773.7600 -27.6640
32.8750 1796.6875 -35.8750
32.8750 1788.5625 17.8750
-15.8750 1764.8125 17.8750
-15.8750 1764.8125 17.8750
-15.8750 1772.9375 -35.8750
40.0320 1802.0320 -27.6640
25.3280 1781.4160 20.3280
-12.0160 1763.5040 21.7920
-13.3600 1762.5680 20.3280
-13.3600 1772.2400 -43.6560
46.3610 1806.7285 -19.4970
17.8290 1774.6155 22.3090
-8.1330 1762.4595 24.8710
-10.4850 1760.8215 22.3090
-10.4850 1771.8325 -50.5330
51.4240 1810.3840 -11.8480
10.8160 1768.6320 23.7760
-4.5920 1761.6880 26.7040
-7.2800 1759.8160 23.7760
-7.2800 1771.8800 -56.0320
54.7830 1812.6055 -5.1910
4.7270 1763.9365 24.6870
-1.7590 1761.1985 26.8830
-3.7750 1759.7945 24.6870
-3.7750 1772.5475 -59.6790
0.0000 1775.0000 -63.0000
57.0000 1813.0000 0.0000
-24.0000 1776.0000 0.0000
-24.0000 1776.0000 0.0000
-24.0000 1776.0000 0.0000
4.8765 1777.6210 -61.6275
55.7685 1811.2120 4.1955
-25.7445 1773.5470 1.9275
-23.6925 1774.9150 4.1955
-23.6925 1776.3320 -5.2875
11.1120 1781.5280 -57.8400
52.3680 1807.4560 8.0640
-25.5360 1771.2960 5.0400
-22.8000 1773.1200 8.0640
-22.8000 1776.1360 -12.1200
18.2655 1786.3370 -52.1325
47.2395 1802.1940 11.5785
-23.7615 1769.2590 8.9325
-21.3675 1770.8550 11.5785
-21.3675 1775.5740 -20.0025
25.8960 1791.6640 -45.0000
40.8240 1795.8880 14.7120
-20.8080 1767.4480 13.2000
-19.4400 1768.3600 14.7120
-19.4400 1774.8080 -28.4400
33.5625 1797.1250 -36.9375
33.5625 1789.0000 17.4375
-17.0625 1765.8750 17.4375
-17.0625 1765.8750 17.4375
-17.0625 1774.0000 -36.9375
40.8240 1802.3360 -28.4400
25.8960 1781.9920 19.7280
-12.9120 1764.5520 21.2400
-14.2800 1763.6400 19.7280
-14.2800 1773.3120 -45.0000
47.2395 1806.9130 -20.0025
18.2655 1775.3260 21.5565
-8.7435 1763.4910 24.2025
-11.1375 1761.8950 21.5565
-11.1375 1772.9060 -52.1325
52.3680 1810.4720 -12.1200
11.1120 1769.4640 22.8960
-4.9440 1762.7040 25.9200
-7.6800 1760.8800 22.8960
-7.6800 1772.9440 -57.8400
55.7685 1812.6290 -5.2875
4.8765 1764.8680 23.7195
-1.9005 1762.2030 25.9875
-3.9525 1760.8350 23.7195
-3.9525 1773.5880 -61.6275
0.0000 1775.0000 -62.0000
58.0000 1813.0000 0.0000
-24.0000 1776.0000 0.0000
-24.0000 1776.0000 0.0000
-24.0000 1776.0000 0.0000
4.9450 1777.6210 -60.6555
56.7450 1811.2120 4.2235
-25.7850 1773.5470 1.9915
-23.6970 1774.9150 4.2235
-23.6970 1776.3320 -5.2595
11.2800 1781.5280 -56.9440
53.2800 1807.4560 8.1680
-25.6000 1771.2960 5.1920
-22.8160 1773.1200 8.1680
-22.8160 1776.1360 -12.0160
18.5550 1786.3370 -51.3485
48.0550 1802.1940 11.7945
-23.8350 1769.2590 9.1905
-21.3990 1770.8550 11.7945
-21.3990 1775.5740 -19.7865
26.3200 1791.6640 -44.3520
41.5200 1795.8880 15.0640
-20.8800 1767.4480 13.5760
-19.4880 1768.3600 15.0640
-19.4880 1774.8080 -28.0880
34.1250 1797.1250 -36.4375
34.1250 1789.0000 17.9375
-17.1250 1765.8750 17.9375
-17.1250 1765.8750 17.9375
-17.1250 1774.0000 -36.4375
41.5200 1802.3360 -28.0880
26.3200 1781.9920 20.3760
-12.9600 1764.5520 21.8640
-14.3520 1763.6400 20.3760
-14.3520 1773.3120 -44.3520
48.0550 1806.9130 -19.7865
18.5550 1775.3260 22.3405
-8.7750 1763.4910 24.9445
-11.2110 1761.8950 22.3405
-11.2110 1772.9060 -51.3485
53.2800 1810.4720 -12.0160
11.2800 1769.4640 23.7920
-4.9600 1762.7040 26.7680
-7.7440 1760.8800 23.7920
-7.7440 1772.9440 -56.9440
56.7450 1812.6290 -5.2595
4.9450 1764.8680 24.6915
-1.9050 1762.2030 26.9235
-3.9930 1760.8350 24.6915
-3.9930 1773.5880 -60.6555
0.0000 1775.0000 -61.0000
56.0000 1814.0000 0.0000
-23.0000 1776.0000 0.0000
-23.0000 1776.0000 0.0000
-23.0000 1776.0000 0.0000
4.7675 1777.6850 -59.6745
54.7875 1812.2570 4.1145
-24.7275 1773.5750 1.9185
-22.7115 1774.9790 4.1145
-22.7115 1776.2870 -5.1505
10.8800 1781.6800 -56.0160
51.4400 1808.5360 7.9360
-24.5600 1771.4000 5.0080
-21.8720 1773.2720 7.9360
-21.8720 1776.0560 -11.7840
17.9025 1786.5950 -50.5015
46.3925 1803.2990 11.4315
-22.8725 1769.4750 8.8695
-20.5205 1771.1130 11.4315
-20.5205 1775.4690 -19.4235
25.4000 1792.0400 -43.6080
40.0800 1797.0080 14.5680
-20.0400 1767.8000 13.1040
-18.6960 1768.7360 14.5680
-18.6960 1774.6880 -27.5920
32.9375 1797.6250 -35.8125
32.9375 1790.1250 17.3125
-16.4375 1766.3750 17.3125
-16.4375 1766.3750 17.3125
-16.4375 1773.8750 -35.8125
40.0800 1802.9600 -27.5920
25.4000 1783.1120 19.6320
-12.4400 1765.2000 21.0960
-13.7840 1764.2640 19.6320
-13.7840 1773.1920 -43.6080
46.3925 1807.6550 -19.4235
17.9025 1776.4310 21.4935
-8.4225 1764.2750 24.0555
-10.7745 1762.6370 21.4935
-10.7745 1772.8010 -50.5015
51.4400 1811.3200 -11.7840
10.8800 1770.5440 22.8640
-4.7600 1763.6000 25.7920
-7.4480 1761.7280 22.8640
-7.4480 1772.8640 -56.0160
54.7875 1813.5650 -5.1505
4.7675 1765.9130 23.7105
-1.8275 1763.1750 25.9065
-3.8435 1761.7710 23.7105
-3.8435 1773.5430 -59.6745
0.0000 1776.0000 -62.0000
57.0000 1814.0000 0.0000
-22.0000 1776.0000 0.0000
-22.0000 1776.0000 0.0000
-22.0000 1776.0000 0.0000
4.7955 1778.6615 -60.6555
55.7595 1812.2165 4.2235
-23.7915 1773.5705 1.9915
-21.7395 1774.9385 4.2235
-21.7395 1776.3555 -5.2595
10.9840 1782.5920 -56.9440
52.3360 1808.4720 8.1680
-23.7120 1771.3840 5.1920
-20.9760 1773.2080 8.1680
-20.9760 1776.2240 -12.0160
18.1185 1787.4105 -51.3485
47.1765 1803.2255 11.7945
-22.1305 1769.4435 9.1905
-19.7365 1771.0395 11.7945
-19.7365 1775.7585 -19.7865
25.7520 1792.7360 -44.3520
40.7280 1796.9360 15.0640
-19.4160 1767.7520 13.5760
-18.0480 1768.6640 15.0640
-18.0480 1775.1120 -28.0880
33.4375 1798.1875 -36.4375
33.4375 1790.0625 17.9375
-15.9375 1766.3125 17.9375
-15.9375 1766.3125 17.9375
-15.9375 1774.4375 -36.4375
40.7280 1803.3840 -28.0880
25.7520 1783.0640 20.3760
-12.0640 1765.1280 21.8640
-13.4320 1764.2160 20.3760
-13.4320 1773.8880 -44.3520
47.1765 1807.9445 -19.7865
18.1185 1776.3995 22.3405
-8.1645 1764.2015 24.9445
-10.5585 1762.6055 22.3405
-10.5585 1773.6165 -51.3485
52.3360 1811.4880 -12.0160
10.9840 1770.5280 23.7920
-4.6080 1763.5360 26.7680
-7.3440 1761.7120 23.7920
-7.3440 1773.7760 -56.9440
55.7595 1813.6335 -5.2595
4.7955 1765.9085 24.6915
-1.7635 1763.1345 26.9235
-3.8155 1761.7665 24.6915
-3.8155 1774.5195 -60.6555
0.0000 1776.0000 -62.0000
56.0000 1815.0000 0.0000
-24.0000 1777.0000 0.0000
-24.0000 1777.0000 0.0000
-24.0000 1777.0000 0.0000
4.8080 1778.6850 -60.6510
54.7920 1813.2570 4.1550
-25.7040 1774.5750 1.9230
-23.6880 1775.9790 4.1550
-23.6880 1777.2870 -5.2190
10.9440 1782.6800 -56.9280
51.4560 1809.5360 8.0000
-25.4720 1772.4000 5.0240
-22.7840 1774.2720 8.0000
-22.7840 1777.0560 -11.9520
17.9760 1787.5950 -51.3170
46.4240 1804.2990 11.5050
-23.6880 1770.4750 8.9010
-21.3360 1772.1130 11.5050
-21.3360 1776.4690 -19.7130
25.4720 1793.0400 -44.3040
40.1280 1798.0080 14.6400
-20.7360 1768.8000 13.1520
-19.3920 1769.7360 14.6400
-19.3920 1775.6880 -28.0160
33.0000 1798.6250 -36.3750
33.0000 1791.1250 17.3750
-17.0000 1767.3750 17.3750
-17.0000 1767.3750 17.3750
-17.0000 1774.8750 -36.3750
40.1280 1803.9600 -28.0160
25.4720 1784.1120 19.6800
-12.8640 1766.2000 21.1680
-14.2080 1765.2640 19.6800
-14.2080 1774.1920 -44.3040
46.4240 1808.6550 -19.7130
17.9760 1777.4310 21.5250
-8.7120 1765.2750 24.1290
-11.0640 1763.6370 21.5250
-11.0640 1773.8010 -51.3170
51.4560 1812.3200 -11.9520
10.9440 1771.5440 22.8800
-4.9280 1764.6000 25.8560
-7.6160 1762.7280 22.8800
-7.6160 1773.8640 -56.9280
54.7920 1814.5650 -5.2190
4.8080 1766.9130 23.7150
-1.8960 1764.1750 25.9470
-3.9120 1762.7710 23.7150
-3.9120 1774.5430 -60.6510
0.0000 1776.0000 -61.0000
57.0000 1815.0000 0.0000
-23.0000 1777.0000 0.0000
-23.0000 1777.0000 0.0000
-23.0000 1777.0000 0.0000
4.8360 1778.6850 -59.6790
55.7640 1813.2570 4.1830
-24.7680 1774.5750 1.9870
-22.7160 1775.9790 4.1830
-22.7160 1777.2870 -5.1910
11.0480 1782.6800 -56.0320
52.3520 1809.5360 8.1040
-24.6240 1772.4000 5.1760
-21.8880 1774.2720 8.1040
-21.8880 1777.0560 -11.8480
18.1920 1787.5950 -50.5330
47.2080 1804.2990 11.7210
-22.9460 1770.4750 9.1590
-20.5520 1772.1130 11.7210
-20.5520 1776.4690 -19.4970
25.8240 1793.0400 -43.6560
40.7760 1798.0080 14.9920
-20.1120 1768.8000 13.5280
-18.7440 1769.7360 14.9920
-18.7440 1775.6880 -27.6640
33.5000 1798.6250 -35.8750
33.5000 1791.1250 17.8750
-16.5000 1767.3750 17.8750
-16.5000 1767.3750 17.8750
-16.5000 1774.8750 -35.8750
40.7760 1803.9600 -27.6640
25.8240 1784.1120 20.3280
-12.4880 1766.2000 21.7920
-13.8560 1765.2640 20.3280
-13.8560 1774.1920 -43.6560
47.2080 1808.6550 -19.4970
18.1920 1777.4310 22.3090
-8.4540 1765.2750 24.8710
-10.8480 1763.6370 22.3090
-10.8480 1773.8010 -50.5330
52.3520 1812.3200 -11.8480
11.0480 1771.5440 23.7760
-4.7760 1764.6000 26.7040
-7.5120 1762.7280 23.7760
-7.5120 1773.8640 -56.0320
55.7640 1814.5650 -5.1910
4.8360 1766.9130 24.6870
-1.8320 1764.1750 26.8830
-3.8840 1762.7710 24.6870
-3.8840 1774.5430 -59.6790
0.0000 1777.0000 -62.0000
56.0000 1816.0000 0.0000
-22.0000 1777.0000 0.0000
-22.0000 1777.0000 0.0000
-22.0000 1777.0000 0.0000
4.7270 1779.7255 -60.6465
54.7830 1814.2615 4.0865
-23.7510 1774.5985 1.8545
-21.7350 1776.0025 4.0865
-21.7350 1777.3105 -5.1785
10.8160 1783.7440 -56.9120
51.4240 1810.5520 7.8320
-23.6480 1772.4880 4.8560
-20.9600 1774.3600 7.8320
-20.9600 1777.1440 -11.8880
17.8290 1788.6685 -51.2855
46.3610 1805.3305 11.2155
-22.0570 1770.6595 8.6115
-19.7050 1772.2975 11.2155
-19.7050 1776.6535 -19.6395
25.3280 1794.1120 -44.2560
40.0320 1799.0560 14.2160
-19.3440 1769.1040 12.7280
-18.0000 1770.0400 14.2160
-18.0000 1775.9920 -27.9440
32.8750 1799.6875 -36.3125
32.8750 1792.1875 16.8125
-15.8750 1767.8125 16.8125
-15.8750 1767.8125 16.8125
-15.8750 1775.3125 -36.3125
40.0320 1805.0080 -27.9440
25.3280 1785.1840 18.9840
-12.0160 1766.7760 20.4720
-13.3600 1765.8400 18.9840
-13.3600 1774.7680 -44.2560
46.3610 1809.6865 -19.6395
17.8290 1778.5045 20.7095
-8.1330 1765.9855 23.3135
-10.4850 1764.3475 20.7095
-10.4850 1774.5115 -51.2855
51.4240 1813.3360 -11.8880
10.8160 1772.6080 21.9680
-4.5920 1765.4320 24.9440
-7.2800 1763.5600 21.9680
-7.2800 1774.6960 -56.9120
54.7830 1815.5695 -5.1785
4.7270 1767.9535 22.7385
-1.7590 1765.1065 24.9705
-3.7750 1763.7025 22.7385
-3.7750 1775.4745 -60.6465
0.0000 1777.0000 -61.0000
57.0000 1816.0000 0.0000
-21.0000 1777.0000 0.0000
-21.0000 1777.0000 0.0000
-21.0000 1777.0000 0.0000
4.7550 1779.7255 -59.6745
55.7550 1814.2615 4.1145
-22.8150 1774.5985 1.9185
-20.7630 1776.0025 4.1145
-20.7630 1777.3105 -5.1505
10.9200 1783.7440 -56.0160
52.3200 1810.5520 7.9360
-22.8000 1772.4880 5.0080
-20.0640 1774.3600 7.9360
-20.0640 1777.1440 -11.7840
18.0450 1788.6685 -50.5015
47.1450 1805.3305 11.4315
-21.3150 1770.6595 8.8695
-18.9210 1772.2975 11.4315
-18.9210 1776.6535 -19.4235
25.6800 1794.1120 -43.6080
40.6800 1799.0560 14.5680
-18.7200 1769.1040 13.1040
-17.3520 1770.0400 14.5680
-17.3520 1775.9920 -27.5920
33.3750 1799.6875 -35.8125
33.3750 1792.1875 17.3125
-15.3750 1767.8125 17.3125
-15.3750 1767.8125 17.3125
-15.3750 1775.3125 -35.8125
40.6800 1805.0080 -27.5920
25.6800 1785.1840 19.6320
-11.6400 1766.7760 21.0960
-13.0080 1765.8400 19.6320
-13.0080 1774.7680 -43.6080
47.1450 1809.6865 -19.4235
18.0450 1778.5045 21.4935
-7.8750 1765.9855 24.0555
-10.2690 1764.3475 21.4935
-10.2690 1774.5115 -50.5015
52.3200 1813.3360 -11.7840
10.9200 1772.6080 22.8640
-4.4400 1765.4320 25.7920
-7.1760 1763.5600 22.8640
-7.1760 1774.6960 -56.0160
55.7550 1815.5695 -5.1505
4.7550 1767.9535 23.7105
-1.6950 1765.1065 25.9065
-3.7470 1763.7025 23.7105
-3.7470 1775.4745 -59.6745
0.0000 1778.0000 -62.0000
56.0000 1817.0000 0.0000
-24.0000 1778.0000 0.0000
-24.0000 1778.0000 0.0000
-24.0000 1778.0000 0.0000
4.8080 1780.7300 -60.6555
54.7920 1815.1930 4.2235
-25.7040 1775.5300 1.9915
-23.6880 1776.9340 4.2235
-23.6880 1778.3510 -5.2595
10.9440 1784.7600 -56.9440
51.4560 1811.3840 8.1680
-25.4720 1773.3200 5.1920
-22.7840 1775.1920 8.1680
-22.7840 1778.2080 -12.0160
17.9760 1789.7000 -51.3485
46.4240 1806.0410 11.7945
-23.6880 1771.3700 9.1905
-21.3360 1773.0080 11.7945
-21.3360 1777.7270 -19.7865
25.4720 1795.1600 -44.3520
40.1280 1799.6320 15.0640
-20.7360 1769.6800 13.5760
-19.3920 1770.6160 15.0640
-19.3920 1777.0640 -28.0880
33.0000 1800.7500 -36.4375
33.0000 1792.6250 17.9375
-17.0000 1768.2500 17.9375
-17.0000 1768.2500 17.9375
-17.0000 1776.3750 -36.4375
40.1280 1806.0800 -28.0880
25.4720 1785.4880 20.3760
-12.8640 1767.0800 21.8640
-14.2080 1766.1440 20.3760
-14.2080 1775.8160 -44.3520
46.4240 1810.7600 -19.7865
17.9760 1778.6890 22.3405
-8.7120 1766.1700 24.9445
-11.0640 1764.5320 22.3405
-11.0640 1775.5430 -51.3485
51.4560 1814.4000 -12.0160
10.9440 1772.6960 23.7920
-4.9280 1765.5200 26.7680
-7.6160 1763.6480 23.7920
-7.6160 1775.7120 -56.9440
54.7920 1816.6100 -5.2595
4.8080 1767.9770 24.6915
-1.8960 1765.1300 26.9235
-3.9120 1763.7260 24.6915
-3.9120 1776.4790 -60.6555
0.0000 1778.0000 -61.0000
57.0000 1817.0000 0.0000
-24.0000 1778.0000 0.0000
-24.0000 1778.0000 0.0000
-24.0000 1778.0000 0.0000
4.8765 1780.7255 -59.6700
55.7685 1815.2615 4.0460
-25.7445 1775.5985 1.8500
-23.6925 1777.0025 4.0460
-23.6925 1778.3105 -5.1100
11.1120 1784.7440 -56.0000
52.3680 1811.5520 7.7680
-25.5360 1773.4880 4.8400
-22.8000 1775.3600 7.7680
-22.8000 1778.1440 -11.7200
18.2655 1789.6685 -50.4700
47.2395 1806.3305 11.1420
-23.7615 1771.6595 8.5800
-21.3675 1773.2975 11.1420
-21.3675 1777.6535 -19.3500
25.8960 1795.1120 -43.5600
40.8240 1800.0560 14.1440
-20.8080 1770.1040 12.6800
-19.4400 1771.0400 14.1440
-19.4400 1776.9920 -27.5200
33.5625 1800.6875 -35.7500
33.5625 1793.1875 16.7500
-17.0625 1768.8125 16.7500
-17.0625 1768.8125 16.7500
-17.0625 1776.3125 -35.7500
40.8240 1806.0080 -27.5200
25.8960 1786.1840 18.9360
-12.9120 1767.7760 20.4000
-14.2800 1766.8400 18.9360
-14.2800 1775.7680 -43.5600
47.2395 1810.6865 -19.3500
18.2655 1779.5045 20.6780
-8.7435 1766.9855 23.2400
-11.1375 1765.3475 20.6780
-11.1375 1775.5115 -50.4700
52.3680 1814.3360 -11.7200
11.1120 1773.6080 21.9520
-4.9440 1766.4320 24.8800
-7.6800 1764.5600 21.9520
-7.6800 1775.6960 -56.0000
55.7685 1816.5695 -5.1100
4.8765 1768.9535 22.7340
-1.9005 1766.1065 24.9300
-3.9525 1764.7025 22.7340
-3.9525 1776.4745 -59.6700
0.0000 1779.0000 -62.0000
56.0000 1818.0000 0.0000
-23.0000 1778.0000 0.0000
-23.0000 1778.0000 0.0000
-23.0000 1778.0000 0.0000
4.7675 1781.7705 -60.6510
54.7875 1816.1975 4.1550
-24.7275 1775.5535 1.9230
-22.7115 1776.9575 4.1550
-22.7115 1778.3745 -5.2190
10.8800 1785.8240 -56.9280
51.4400 1812.4000 8.0000
-24.5600 1773.4080 5.0240
-21.8720 1775.2800 8.0000
-21.8720 1778.2960 -11.9520
17.9025 1790.7735 -51.3170
46.3925 1807.0725 11.5050
-22.8725 1771.5545 8.9010
-20.5205 1773.1925 11.5050
-20.5205 1777.9115 -19.7130
25.4000 1796.2320 -44.3040
40.0800 1800.6800 14.6400
-20.0400 1769.9840 13.1520
-18.6960 1770.9200 14.6400
-18.6960 1777.3680 -28.0160
32.9375 1801.8125 -36.3750
32.9375 1793.6875 17.3750
-16.4375 1768.6875 17.3750
-16.4375 1768.6875 17.3750
-16.4375 1776.8125 -36.3750
40.0800 1807.1280 -28.0160
25.4000 1786.5600 19.6800
-12.4400 1767.6560 21.1680
-13.7840 1766.7200 19.6800
-13.7840 1776.3920 -44.3040
46.3925 1811.7915 -19.7130
17.9025 1779.7625 21.5250
-8.4225 1766.8805 24.1290
-10.7745 1765.2425 21.5250
-10.7745 1776.2535 -51.3170
51.4400 1815.4160 -11.9520
10.8800 1773.7600 22.8800
-4.7600 1766.3520 25.8560
-7.4480 1764.4800 22.8800
-7.4480 1776.5440 -56.9280
54.7875 1817.6145 -5.2190
4.7675 1769.0175 23.7150
-1.8275 1766.0615 25.9470
-3.8435 1764.6575 23.7150
-3.8435 1777.4105 -60.6510
0.0000 1779.0000 -61.0000
57.0000 1818.0000 0.0000
-22.0000 1778.0000 0.0000
-22.0000 1778.0000 0.0000
-22.0000 1778.0000 0.0000
4.7955 1781.7705 -59.6790
55.7595 1816.1975 4.1830
-23.7915 1775.5535 1.9870
-21.7395 1776.9575 4.1830
-21.7395 1778.3745 -5.1910
10.9840 1785.8240 -56.0320
52.3360 1812.4000 8.1040
-23.7120 1773.4080 5.1760
-20.9760 1775.2800 8.1040
-20.9760 1778.2960 -11.8480
18.1185 1790.7735 -50.5330
47.1765 1807.0725 11.7210
-22.1305 1771.5545 9.1590
-19.7365 1773.1925 11.7210
-19.7365 1777.9115 -19.4970
25.7520 1796.2320 -43.6560
40.7280 1800.6800 14.9920
-19.4160 1769.9840 13.5280
-18.0480 1770.9200 14.9920
-18.0480 1777.3680 -27.6640
33.4375 1801.8125 -35.8750
33.4375 1793.6875 17.8750
-15.9375 1768.6875 17.8750
-15.9375 1768.6875 17.8750
-15.9375 1776.8125 -35.8750
40.7280 1807.1280 -27.6640
25.7520 1786.5600 20.3280
-12.0640 1767.6560 21.7920
-13.4320 1766.7200 20.3280
-13.4320 1776.3920 -43.6560
47.1765 1811.7915 -19.4970
18.1185 1779.7625 22.3090
-8.1645 1766.8805 24.8710
-10.5585 1765.2425 22.3090
-10.5585 1776.2535 -50.5330
52.3360 1815.4160 -11.8480
10.9840 1773.7600 23.7760
-4.6080 1766.3520 26.7040
-7.3440 1764.4800 23.7760
-7.3440 1776.5440 -56.0320
55.7595 1817.6145 -5.1910
4.7955 1769.0175 24.6870
-1.7635 1766.0615 26.8830
-3.8155 1764.6575 24.6870
-3.8155 1777.4105 -59.6790
0.0000 1779.0000 -61.0000
58.0000 1818.0000 0.0000
-21.0000 1778.0000 0.0000
-21.0000 1778.0000 0.0000
-21.0000 1778.0000 0.0000
4.8235 1781.7660 -59.6700
56.7315 1816.2660 4.0460
-22.8555 1775.6220 1.8500
-20.7675 1777.0260 4.0460
-20.7675 1778.3340 -5.1100
11.0880 1785.8080 -56.0000
53.2320 1812.5680 7.7680
-22.8640 1773.5760 4.8400
-20.0800 1775.4480 7.7680
-20.0800 1778.2320 -11.7200
18.3345 1790.7420 -50.4700
47.9605 1807.3620 11.1420
-21.3885 1771.8440 8.5800
-18.9525 1773.4820 11.1420
-18.9525 1777.8380 -19.3500
26.1040 1796.1840 -43.5600
41.3760 1801.1040 14.1440
-18.7920 1770.4080 12.6800
-17.4000 1771.3440 14.1440
-17.4000 1777.2960 -27.5200
33.9375 1801.7500 -35.7500
33.9375 1794.2500 16.7500
-15.4375 1769.2500 16.7500
-15.4375 1769.2500 16.7500
-15.4375 1776.7500 -35.7500
41.3760 1807.0560 -27.5200
26.1040 1787.2560 18.9360
-11.6880 1768.3520 20.4000
-13.0800 1767.4160 18.9360
-13.0800 1776.3440 -43.5600
47.9605 1811.7180 -19.3500
18.3345 1780.5780 20.6780
-7.9065 1767.6960 23.2400
-10.3425 1766.0580 20.6780
-10.3425 1776.2220 -50.4700
53.2320 1815.3520 -11.7200
11.0880 1774.6720 21.9520
-4.4560 1767.2640 24.8800
-7.2400 1765.3920 21.9520
-7.2400 1776.5280 -56.0000
56.7315 1817.5740 -5.1100
4.8235 1769.9940 22.7340
-1.6995 1767.0380 24.9300
-3.7875 1765.6340 22.7340
-3.7875 1777.4060 -59.6700
0.0000 1780.0000 -62.0000
56.0000 1819.0000 0.0000
-24.0000 1779.0000 0.0000
-24.0000 1779.0000 0.0000
-24.0000 1779.0000 0.0000
4.8080 1782.7705 -60.6510
54.7920 1817.1975 4.1550
-25.7040 1776.5535 1.9230
-23.6880 1777.9575 4.1550
-23.6880 1779.3745 -5.2190
10.9440 1786.8240 -56.9280
51.4560 1813.4000 8.0000
-25.4720 1774.4080 5.0240
-22.7840 1776.2800 8.0000
-22.7840 1779.2960 -11.9520
17.9760 1791.7735 -51.3170
46.4240 1808.0725 11.5050
-23.6880 1772.5545 8.9010
-21.3360 1774.1925 11.5050
-21.3360 1778.9115 -19.7130
