ply
format ascii 1.0
element vertex 1966
property float x
property float y
property float z
element face 0
property list uchar int vertex_index
end_header
33.0378 339.7145 6.9174
26.3434 320.9680 9.1292
20.6063 308.6935 12.1848
69.0000 476.0000 0.0000
67.8625 470.9735 1.3301
64.6647 457.6080 2.2559
59.8344 438.0245 2.9537
53.7996 414.3440 3.5998
46.9884 388.6875 4.3705
39.8287 363.1760 5.4421
32.7483 339.9305 6.9909
26.1754 321.0720 9.1932
20.5378 308.7215 12.2253
70.0000 476.0000 0.0000
68.8390 470.9735 1.3256
65.5767 457.6080 2.2399
60.6499 438.0245 2.9222
54.4956 414.3440 3.5518
47.5509 388.6875 4.3080
40.2527 363.1760 5.3701
33.0378 339.9305 6.9174
26.3434 321.0720 9.1292
20.6063 308.7215 12.1848
70.0000 476.0000 0.0000
68.8390 470.9690 1.3301
65.5767 457.5920 2.2559
60.6499 437.9930 2.9537
54.4956 414.2960 3.5998
47.5509 388.6250 4.3705
40.2527 363.1040 5.4421
33.0378 339.8570 6.9909
26.3434 321.0080 9.1932
20.6063 308.6810 12.2253
68.0000 477.0000 0.0000
66.8860 471.9455 1.3256
63.7527 458.5040 2.2399
59.0189 438.8085 2.9222
53.1036 414.9920 3.5518
46.4259 389.1875 4.3080
39.4047 363.5280 5.3701
32.4588 340.1465 6.9174
26.0074 321.1760 9.1292
20.4693 308.7495 12.1848
69.0000 477.0000 0.0000
67.9110 471.9410 1.3830
64.7834 458.4880 2.3907
60.0391 438.7770 3.1899
54.0995 414.9440 3.9476
47.3862 389.1250 4.8307
40.3208 363.4560 6.0062
33.3250 340.0730 7.6410
26.8203 321.1120 9.9021
21.2283 308.7090 12.9563
70.0000 477.0000 0.0000
68.8875 471.9410 1.3785
65.6954 458.4880 2.3747
60.8546 438.7770 3.1584
54.7955 414.9440 3.8996
47.9487 389.1250 4.7682
40.7448 363.4560 5.9342
33.6145 340.0730 7.5675
26.9883 321.1120 9.8381
21.2968 308.7090 12.9158
70.0000 477.0000 0.0000
68.8875 471.9410 1.3740
65.6954 458.4880 2.3587
60.8546 438.7770 3.1269
54.7955 414.9440 3.8516
47.9487 389.1250 4.7057
40.7448 363.4560 5.8622
33.6145 340.0730 7.4940
26.9883 321.1120 9.7741
21.2968 308.7090 12.8753
68.0000 478.0000 0.0000
66.9058 472.9130 1.4117
63.8262 459.3840 2.4359
59.1716 439.5610 3.2418
53.3525 415.5920 3.9985
46.7795 389.6250 4.8749
39.8629 363.8080 6.0402
33.0132 340.2890 7.6633
26.6409 321.2160 9.9134
21.1566 308.7370 12.9594
69.0000 478.0000 0.0000
67.8823 472.9130 1.4072
64.7382 459.3840 2.4199
59.9871 439.5610 3.2103
54.0485 415.5920 3.9505
47.3420 389.6250 4.8124
40.2869 363.8080 5.9682
33.3027 340.2890 7.5898
26.8089 321.2160 9.8494
21.2251 308.7370 12.9189
70.0000 478.0000 0.0000
68.8588 472.9130 1.4027
65.6502 459.3840 2.4039
60.8026 439.5610 3.1788
54.7445 415.5920 3.9025
47.9045 389.6250 4.7499
40.7109 363.8080 5.8962
33.5922 340.2890 7.5163
26.9769 321.2160 9.7854
21.2936 308.7370 12.8784
67.0000 479.0000 0.0000
65.9293 473.8850 1.4162
62.9142 460.2800 2.4519
58.3561 440.3450 3.2733
52.6565 416.2400 4.0465
46.2170 390.1250 4.9374
39.4389 364.1600 6.1122
32.7237 340.5050 7.7368
26.4729 321.3200 9.9774
21.0881 308.7650 12.9999
67.0000 479.0000 0.0000
65.9293 473.8850 1.4117
62.9142 460.2800 2.4359
58.3561 440.3450 3.2418
52.6565 416.2400 3.9985
46.2170 390.1250 4.8749
39.4389 364.1600 6.0402
32.7237 340.5050 7.6633
26.4729 321.3200 9.9134
21.0881 308.7650 12.9594
68.0000 479.0000 0.0000
66.9058 473.8850 1.4117
63.8262 460.2800 2.4359
59.1716 440.3450 3.2418
53.3525 416.2400 3.9985
46.7795 390.1250 4.8749
39.8629 364.1600 6.0402
33.0132 340.5050 7.6633
26.6409 321.3200 9.9134
21.1566 308.7650 12.9594
69.0000 479.0000 0.0000
67.8823 473.8850 1.4072
64.7382 460.2800 2.4199
59.9871 440.3450 3.2103
54.0485 416.2400 3.9505
47.3420 390.1250 4.8124
40.2869 364.1600 5.9682
33.3027 340.5050 7.5898
26.8089 321.3200 9.8494
21.2251 308.7650 12.9189
67.0000 480.0000 0.0000
65.9293 474.8615 1.4027
62.9142 461.1920 2.4039
58.3561 441.1605 3.1788
52.6565 416.9360 3.9025
46.2170 390.6875 4.7499
39.4389 364.5840 5.8962
32.7237 340.7945 7.5163
26.4729 321.4880 9.7854
21.0881 308.8335 12.8784
67.0000 480.0000 0.0000
65.9293 474.8570 1.4162
62.9142 461.1760 2.4519
58.3561 441.1290 3.2733
52.6565 416.8880 4.0465
46.2170 390.6250 4.9374
39.4389 364.5120 6.1122
32.7237 340.7210 7.7368
26.4729 321.4240 9.9774
21.0881 308.7930 12.9999
68.0000 480.0000 0.0000
66.9058 474.8570 1.4117
63.8262 461.1760 2.4359
59.1716 441.1290 3.2418
53.3525 416.8880 3.9985
46.7795 390.6250 4.8749
39.8629 364.5120 6.0402
33.0132 340.7210 7.6633
26.6409 321.4240 9.9134
21.1566 308.7930 12.9594
69.0000 480.0000 0.0000
67.8823 474.8570 1.4072
64.7382 461.1760 2.4199
59.9871 441.1290 3.2103
54.0485 416.8880 3.9505
47.3420 390.6250 4.8124
40.2869 364.5120 5.9682
33.3027 340.7210 7.5898
26.8089 321.4240 9.8494
21.2251 308.7930 12.9189
67.0000 481.0000 0.0000
65.9778 475.8290 1.4691
63.0330 462.0720 2.5867
58.5608 441.9130 3.5095
52.9564 417.5360 4.3943
46.6147 391.1250 5.3977
39.9310 364.8640 6.6763
33.3003 340.9370 8.3869
27.1178 321.5280 10.6862
21.7786 308.8210 13.7309
67.0000 481.0000 0.0000
65.9778 475.8290 1.4646
63.0330 462.0720 2.5707
58.5608 441.9130 3.4780
52.9564 417.5360 4.3463
46.6147 391.1250 5.3352
39.9310 364.8640 6.6043
33.3003 340.9370 8.3134
27.1178 321.5280 10.6222
21.7786 308.8210 13.6904
68.0000 481.0000 0.0000
66.9256 475.8290 1.4887
63.8997 462.0720 2.6000
59.3243 441.9130 3.4985
53.6015 417.5360 4.3492
47.1330 391.1250 5.3168
40.3211 364.8640 6.5662
33.5676 340.9370 8.2622
27.2745 321.5280 10.5696
21.8439 308.8210 13.6531
69.0000 481.0000 0.0000
67.9021 475.8290 1.4842
64.8117 462.0720 2.5840
60.1398 441.9130 3.4670
54.2975 417.5360 4.3012
47.6955 391.1250 5.2543
40.7451 364.8640 6.4942
33.8571 340.9370 8.1887
27.4425 321.5280 10.5056
21.9124 308.8210 13.6126
66.0000 482.0000 0.0000
64.9726 476.8010 1.4977
62.0757 462.9680 2.6320
57.6933 442.6970 3.5615
52.2095 418.1840 4.4452
46.0080 391.6250 5.4418
39.4731 365.2160 6.7102
32.9886 341.1530 8.4092
26.9385 321.6320 10.6976
21.7069 308.8490 13.7341
67.0000 482.0000 0.0000
65.9491 476.8010 1.4932
62.9877 462.9680 2.6160
58.5088 442.6970 3.5300
52.9055 418.1840 4.3972
46.5705 391.6250 5.3793
39.8971 365.2160 6.6382
33.2781 341.1530 8.3357
27.1065 321.6320 10.6336
21.7754 308.8490 13.6936
67.0000 482.0000 0.0000
65.9491 476.8010 1.4887
62.9877 462.9680 2.6000
58.5088 442.6970 3.4985
52.9055 418.1840 4.3492
46.5705 391.6250 5.3168
39.8971 365.2160 6.5662
33.2781 341.1530 8.2622
27.1065 321.6320 10.5696
21.7754 308.8490 13.6531
68.0000 482.0000 0.0000
66.9256 476.7965 1.5022
63.8997 462.9520 2.6480
59.3243 442.6655 3.5930
53.6015 418.1360 4.4932
47.1330 391.5625 5.5043
40.3211 365.1440 6.7822
33.5676 341.0795 8.4827
27.2745 321.5680 10.7616
21.8439 308.8085 13.7746
66.0000 483.0000 0.0000
64.9726 477.7730 1.4977
62.0757 463.8640 2.6320
57.6933 443.4810 3.5615
52.2095 418.8320 4.4452
46.0080 392.1250 5.4418
39.4731 365.5680 6.7102
32.9886 341.3690 8.4092
26.9385 321.7360 10.6976
21.7069 308.8770 13.7341
67.0000 483.0000 0.0000
65.9491 477.7730 1.4932
62.9877 463.8640 2.6160
58.5088 443.4810 3.5300
52.9055 418.8320 4.3972
46.5705 392.1250 5.3793
39.8971 365.5680 6.6382
33.2781 341.3690 8.3357
27.1065 321.7360 10.6336
21.7754 308.8770 13.6936
67.0000 483.0000 0.0000
65.9491 477.7685 1.5067
62.9877 463.8480 2.6640
58.5088 443.4495 3.6245
52.9055 418.7840 4.5412
46.5705 392.0625 5.5668
39.8971 365.4960 6.8542
33.2781 341.2955 8.5562
27.1065 321.6720 10.8256
21.7754 308.8365 13.8151
68.0000 483.0000 0.0000
66.9256 477.7685 1.5022
63.8997 463.8480 2.6480
59.3243 443.4495 3.5930
53.6015 418.7840 4.4932
47.1330 392.0625 5.5043
40.3211 365.4960 6.7822
33.5676 341.2955 8.4827
27.2745 321.6720 10.7616
21.8439 308.8365 13.7746
65.0000 484.0000 0.0000
63.9961 478.7450 1.4977
61.1637 464.7600 2.6320
56.8778 444.2650 3.5615
51.5135 419.4800 4.4452
45.4455 392.6250 5.4418
39.0491 365.9200 6.7102
32.6991 341.5850 8.4092
26.7705 321.8400 10.6976
21.6384 308.9050 13.7341
66.0000 484.0000 0.0000
64.9726 478.7405 1.5112
62.0757 464.7440 2.6800
57.6933 444.2335 3.6560
52.2095 419.4320 4.5892
46.0080 392.5625 5.6293
39.4731 365.8480 6.9262
32.9886 341.5115 8.6297
26.9385 321.7760 10.8896
21.7069 308.8645 13.8556
66.0000 484.0000 0.0000
64.9726 478.7405 1.5067
62.0757 464.7440 2.6640
57.6933 444.2335 3.6245
52.2095 419.4320 4.5412
46.0080 392.5625 5.5668
39.4731 365.8480 6.8542
32.9886 341.5115 8.5562
26.9385 321.7760 10.8256
21.7069 308.8645 13.8151
67.0000 484.0000 0.0000
65.9205 478.7405 1.5309
62.9425 464.7440 2.6932
58.4569 444.2335 3.6450
52.8545 419.4320 4.5441
46.5263 392.5625 5.5485
39.8631 365.8480 6.8162
33.2558 341.5115 8.5050
27.0952 321.7760 10.7729
21.7722 308.8645 13.7778
68.0000 484.0000 0.0000
66.8970 478.7405 1.5264
63.8545 464.7440 2.6772
59.2724 444.2335 3.6135
53.5505 419.4320 4.4961
47.0888 392.5625 5.4860
40.2871 365.8480 6.7442
33.5453 341.5115 8.4315
27.2632 321.7760 10.7089
21.8407 308.8645 13.7373
65.0000 485.0000 0.0000
63.9675 479.7125 1.5894
61.1185 465.6400 2.9012
56.8259 445.0175 4.0545
51.4625 420.0800 5.1681
45.4013 393.0625 6.3610
39.0151 366.2000 7.7522
32.6768 341.7275 9.4605
26.7592 321.8800 11.6049
21.6352 308.8925 14.3043
65.0000 485.0000 0.0000
63.9675 479.7125 1.5849
61.1185 465.6400 2.8852
56.8259 445.0175 4.0230
51.4625 420.0800 5.1201
45.4013 393.0625 6.2985
39.0151 366.2000 7.6802
32.6768 341.7275 9.3870
26.7592 321.8800 11.5409
21.6352 308.8925 14.2638
66.0000 485.0000 0.0000
64.9440 479.7125 1.5489
62.0305 465.6400 2.7572
57.6414 445.0175 3.7710
52.1585 420.0800 4.7361
45.9638 393.0625 5.7985
39.4391 366.2000 7.1042
32.9663 341.7275 8.7990
26.9272 321.8800 11.0289
21.7037 308.8925 13.9398
67.0000 485.0000 0.0000
65.9205 479.7125 1.5444
62.9425 465.6400 2.7412
58.4569 445.0175 3.7395
52.8545 420.0800 4.6881
46.5263 393.0625 5.7360
39.8631 366.2000 7.0322
33.2558 341.7275 8.7255
27.0952 321.8800 10.9649
21.7722 308.8925 13.8993
64.0000 486.0000 0.0000
62.9910 480.6890 1.5399
60.2065 466.5520 2.7252
56.0104 445.8330 3.7080
50.7665 420.7760 4.6401
44.8388 393.6250 5.6735
38.5911 366.6240 6.9602
32.3873 342.0170 8.6520
26.5912 322.0480 10.9009
21.5667 308.9610 13.8588
65.0000 486.0000 0.0000
63.9675 480.6890 1.5354
61.1185 466.5520 2.7092
56.8259 445.8330 3.6765
51.4625 420.7760 4.5921
45.4013 393.6250 5.6110
39.0151 366.6240 6.8882
32.6768 342.0170 8.5785
26.7592 322.0480 10.8369
21.6352 308.9610 13.8183
65.0000 486.0000 0.0000
63.9675 480.6890 1.5309
61.1185 466.5520 2.6932
56.8259 445.8330 3.6450
51.4625 420.7760 4.5441
45.4013 393.6250 5.5485
39.0151 366.6240 6.8162
32.6768 342.0170 8.5050
26.7592 322.0480 10.7729
21.6352 308.9610 13.7778
66.0000 486.0000 0.0000
64.9440 480.6845 1.5984
62.0305 466.5360 2.9332
57.6414 445.8015 4.1175
52.1585 420.7280 5.2641
45.9638 393.5625 6.4860
39.4391 366.5520 7.8962
32.9663 341.9435 9.6075
26.9272 321.9840 11.7329
21.7037 308.9205 14.3853
67.0000 486.0000 0.0000
65.9205 480.6845 1.5939
62.9425 466.5360 2.9172
58.4569 445.8015 4.0860
52.8545 420.7280 5.2161
46.5263 393.5625 6.4235
39.8631 366.5520 7.8242
33.2558 341.9435 9.5340
27.0952 321.9840 11.6689
21.7722 308.9205 14.3448
64.0000 487.0000 0.0000
63.0394 481.6610 1.6378
60.3253 467.4480 3.0200
56.2151 446.6170 4.2592
51.0664 421.4240 5.4679
45.2366 394.1250 6.7588
39.0833 366.9760 8.2443
32.9639 342.2330 10.0371
27.2361 322.1520 12.2498
22.2572 308.9890 14.9948
64.0000 487.0000 0.0000
63.0394 481.6610 1.6333
60.3253 467.4480 3.0040
56.2151 446.6170 4.2277
51.0664 421.4240 5.4199
45.2366 394.1250 6.6963
39.0833 366.9760 8.1723
32.9639 342.2330 9.9636
27.2361 322.1520 12.1858
22.2572 308.9890 14.9543
65.0000 487.0000 0.0000
64.7032 481.6205 0.9415
62.3234 467.3840 1.9019
58.2779 446.5435 2.9489
52.9842 421.3520 4.1501
46.8597 394.0625 5.5731
40.3219 366.9280 7.2857
33.7880 342.2015 9.3556
27.6756 322.1360 11.8502
22.4021 308.9845 14.8374
66.0000 487.0000 0.0000
65.6797 481.6205 0.9370
63.2354 467.3840 1.8859
59.0934 446.5435 2.9174
53.6802 421.3520 4.1021
47.4222 394.0625 5.5106
40.7459 366.9280 7.2137
34.0775 342.2015 9.2821
27.8436 322.1360 11.7862
22.4706 308.9845 14.7969
63.0000 488.0000 0.0000
62.7502 482.5970 0.9325
60.4994 468.2960 1.8699
56.6469 447.3590 2.8859
51.5922 422.0480 4.0541
45.7347 394.6250 5.4481
39.4739 367.3520 7.1417
33.2090 342.4910 9.2086
27.3396 322.3040 11.7222
22.2651 309.0530 14.7564
63.0000 488.0000 0.0000
62.7502 482.5970 0.9280
60.4994 468.2960 1.8539
56.6469 447.3590 2.8544
51.5922 422.0480 4.0061
45.7347 394.6250 5.3856
39.4739 367.3520 7.0697
33.2090 342.4910 9.1351
27.3396 322.3040 11.6582
22.2651 309.0530 14.7159
64.0000 488.0000 0.0000
63.7267 482.5970 0.9235
61.4114 468.2960 1.8379
57.4624 447.3590 2.8229
52.2882 422.0480 3.9581
46.2972 394.6250 5.3231
39.8979 367.3520 6.9977
33.4985 342.4910 9.0616
27.5076 322.3040 11.5942
22.3336 309.0530 14.6754
65.0000 488.0000 0.0000
64.7032 482.5970 0.9190
62.3234 468.2960 1.8219
58.2779 447.3590 2.7914
52.9842 422.0480 3.9101
46.8597 394.6250 5.2606
40.3219 367.3520 6.9257
33.7880 342.4910 8.9881
27.6756 322.3040 11.5302
22.4021 309.0530 14.6349
66.0000 488.0000 0.0000
65.6797 482.5970 0.9145
63.2354 468.2960 1.8059
59.0934 447.3590 2.7599
53.6802 422.0480 3.8621
47.4222 394.6250 5.1981
40.7459 367.3520 6.8537
34.0775 342.4910 8.9146
27.8436 322.3040 11.4662
22.4706 309.0530 14.5944
63.0000 489.0000 0.0000
62.7502 483.5735 0.9100
60.4994 469.2080 1.7899
56.6469 448.1745 2.7284
51.5922 422.7440 3.8141
45.7347 395.1875 5.1356
39.4739 367.7760 6.7817
33.2090 342.7805 8.8411
27.3396 322.4720 11.4022
22.2651 309.1215 14.5539
63.0000 489.0000 0.0000
62.7502 483.5735 0.9055
60.4994 469.2080 1.7739
56.6469 448.1745 2.6969
51.5922 422.7440 3.7661
45.7347 395.1875 5.0731
39.4739 367.7760 6.7097
33.2090 342.7805 8.7676
27.3396 322.4720 11.3382
22.2651 309.1215 14.5134
64.0000 489.0000 0.0000
63.7267 483.5735 0.9010
61.4114 469.2080 1.7579
57.4624 448.1745 2.6654
52.2882 422.7440 3.7181
46.2972 395.1875 5.0106
39.8979 367.7760 6.6377
33.4985 342.7805 8.6941
27.5076 322.4720 11.2742
22.3336 309.1215 14.4729
65.0000 489.0000 0.0000
64.7032 483.5735 0.8965
62.3234 469.2080 1.7419
58.2779 448.1745 2.6339
52.9842 422.7440 3.6701
46.8597 395.1875 4.9481
40.3219 367.7760 6.5657
33.7880 342.7805 8.6206
27.6756 322.4720 11.2102
22.4021 309.1215 14.4324
62.0000 490.0000 0.0000
61.8222 484.5455 1.1249
59.7062 470.1040 2.5007
56.0361 448.9585 4.0986
51.1960 423.3920 5.8899
45.5700 395.6875 7.8459
39.5420 368.1280 9.9379
33.4962 342.9965 12.1372
27.8165 322.5760 14.4151
22.8870 309.1495 16.7429
62.0000 490.0000 0.0000
61.8222 484.5455 1.0124
59.7062 470.1040 2.1007
56.0361 448.9585 3.3111
51.1960 423.3920 4.6899
45.5700 395.6875 6.2834
39.5420 368.1280 8.1379
33.4962 342.9965 10.2997
27.8165 322.5760 12.8151
22.8870 309.1495 15.7304
63.0000 490.0000 0.0000
62.7987 484.5455 1.0079
60.6182 470.1040 2.0847
56.8516 448.9585 3.2796
51.8920 423.3920 4.6419
46.1325 395.6875 6.2209
39.9660 368.1280 8.0659
33.7857 342.9965 10.2262
27.9845 322.5760 12.7511
22.9555 309.1495 15.6899
64.0000 490.0000 0.0000
63.7752 484.5455 1.0034
61.5302 470.1040 2.0687
57.6671 448.9585 3.2481
52.5880 423.3920 4.5939
46.6950 395.6875 6.1584
40.3900 368.1280 7.9939
34.0752 342.9965 10.1527
28.1525 322.5760 12.6871
23.0240 309.1495 15.6494
65.0000 490.0000 0.0000
64.7517 484.5455 0.9989
62.4422 470.1040 2.0527
58.4826 448.9585 3.2166
53.2840 423.3920 4.5459
47.2575 395.6875 6.0959
40.8140 368.1280 7.9219
34.3647 342.9965 10.0792
28.3205 322.5760 12.6231
23.0925 309.1495 15.6089
65.0000 490.0000 0.0000
64.7517 484.5455 0.9944
62.4422 470.1040 2.0367
58.4826 448.9585 3.1851
53.2840 423.3920 4.4979
47.2575 395.6875 6.0334
40.8140 368.1280 7.8499
34.3647 342.9965 10.0057
28.3205 322.5760 12.5591
23.0925 309.1495 15.5684
62.0000 491.0000 0.0000
61.8222 485.5220 0.9899
59.7062 471.0160 2.0207
56.0361 449.7740 3.1536
51.1960 424.0880 4.4499
45.5700 396.2500 5.9709
39.5420 368.5520 7.7779
33.4962 343.2860 9.9322
27.8165 322.7440 12.4951
22.8870 309.2180 15.5279
63.0000 491.0000 0.0000
62.7987 485.5220 0.9854
60.6182 471.0160 2.0047
56.8516 449.7740 3.1221
51.8920 424.0880 4.4019
46.1325 396.2500 5.9084
39.9660 368.5520 7.7059
33.7857 343.2860 9.8587
27.9845 322.7440 12.4311
22.9555 309.2180 15.4874
64.0000 491.0000 0.0000
63.7752 485.5220 0.9809
61.5302 471.0160 1.9887
57.6671 449.7740 3.0906
52.5880 424.0880 4.3539
46.6950 396.2500 5.8459
40.3900 368.5520 7.6339
34.0752 343.2860 9.7852
28.1525 322.7440 12.3671
23.0240 309.2180 15.4469
64.0000 491.0000 0.0000
63.7752 485.5220 0.9764
61.5302 471.0160 1.9727
57.6671 449.7740 3.0591
52.5880 424.0880 4.3059
46.6950 396.2500 5.7834
40.3900 368.5520 7.5619
34.0752 343.2860 9.7117
28.1525 322.7440 12.3031
23.0240 309.2180 15.4064
61.0000 492.0000 0.0000
60.8457 486.4985 0.9719
58.7942 471.9280 1.9567
55.2206 450.5895 3.0276
50.5000 424.7840 4.2579
45.0075 396.8125 5.7209
39.1180 368.9760 7.4899
33.2067 343.5755 9.6382
27.6485 322.9120 12.2391
22.8185 309.2865 15.3659
62.0000 492.0000 0.0000
61.8222 486.4985 0.9674
59.7062 471.9280 1.9407
56.0361 450.5895 2.9961
51.1960 424.7840 4.2099
45.5700 396.8125 5.6584
39.5420 368.9760 7.4179
33.4962 343.5755 9.5647
27.8165 322.9120 12.1751
22.8870 309.2865 15.3254
63.0000 492.0000 0.0000
62.7987 486.4985 0.9629
60.6182 471.9280 1.9247
56.8516 450.5895 2.9646
51.8920 424.7840 4.1619
46.1325 396.8125 5.5959
39.9660 368.9760 7.3459
33.7857 343.5755 9.4912
27.9845 322.9120 12.1111
22.9555 309.2865 15.2849
64.0000 492.0000 0.0000
63.7752 486.4985 0.9629
61.5302 471.9280 1.9247
57.6671 450.5895 2.9646
52.5880 424.7840 4.1619
46.6950 396.8125 5.5959
40.3900 368.9760 7.3459
34.0752 343.5755 9.4912
28.1525 322.9120 12.1111
23.0240 309.2865 15.2849
64.0000 492.0000 0.0000
62.5158 486.5670 -0.3009
58.4415 472.0960 -1.1800
52.3447 450.8790 -2.3893
44.7929 425.2080 -3.6813
36.3536 397.3750 -4.8081
27.5942 369.6720 -5.5219
19.0824 344.3910 -5.5751
11.3856 323.8240 -4.7198
5.0713 310.2630 -2.7083
61.0000 493.0000 0.0000
59.5577 487.5435 -0.2768
55.6603 473.0080 -1.1507
49.8463 451.6945 -2.3688
42.6540 425.9040 -3.6784
34.6219 397.9375 -4.8264
26.2883 370.0960 -5.5600
18.1916 344.6805 -5.6263
10.8703 323.9920 -4.7725
4.8626 310.3315 -2.7456
62.0000 493.0000 0.0000
60.5342 487.5435 -0.2813
56.5723 473.0080 -1.1667
50.6618 451.6945 -2.4003
43.3500 425.9040 -3.7264
35.1844 397.9375 -4.8889
26.7123 370.0960 -5.6320
18.4811 344.6805 -5.6998
11.0383 323.9920 -4.8365
4.9311 310.3315 -2.7861
63.0000 493.0000 0.0000
61.5107 487.5390 -0.1013
57.4843 472.9920 -0.5267
51.4773 451.6630 -1.1403
44.0460 425.8560 -1.8064
35.7469 397.8750 -2.3889
27.1363 370.0240 -2.7520
18.7706 344.6070 -2.7598
11.2063 323.9280 -2.2765
4.9996 310.2910 -1.1661
63.0000 493.0000 0.0000
61.5107 487.5390 -0.1058
57.4843 472.9920 -0.5427
51.4773 451.6630 -1.1718
44.0460 425.8560 -1.8544
35.7469 397.8750 -2.4514
27.1363 370.0240 -2.8240
18.7706 344.6070 -2.8333
11.2063 323.9280 -2.3405
4.9996 310.2910 -1.2066
61.0000 494.0000 0.0000
59.5577 488.5155 -0.1103
55.6603 473.9040 -0.5587
49.8463 452.4785 -1.2033
42.6540 426.5520 -1.9024
34.6219 398.4375 -2.5139
26.2883 370.4480 -2.8960
18.1916 344.8965 -2.9068
10.8703 324.0960 -2.4045
4.8626 310.3595 -1.2471
62.0000 494.0000 0.0000
60.5342 488.5155 -0.1148
56.5723 473.9040 -0.5747
50.6618 452.4785 -1.2348
43.3500 426.5520 -1.9504
35.1844 398.4375 -2.5764
26.7123 370.4480 -2.9680
18.4811 344.8965 -2.9803
11.0383 324.0960 -2.4685
4.9311 310.3595 -1.2876
63.0000 494.0000 0.0000
61.5107 488.5155 -0.1193
57.4843 473.9040 -0.5907
51.4773 452.4785 -1.2663
44.0460 426.5520 -1.9984
35.7469 398.4375 -2.6389
27.1363 370.4480 -3.0400
18.7706 344.8965 -3.0538
11.2063 324.0960 -2.5325
4.9996 310.3595 -1.3281
63.0000 494.0000 0.0000
61.5107 488.5155 -0.1238
57.4843 473.9040 -0.6067
51.4773 452.4785 -1.2978
44.0460 426.5520 -2.0464
35.7469 398.4375 -2.7014
27.1363 370.4480 -3.1120
18.7706 344.8965 -3.1273
11.2063 324.0960 -2.5965
4.9996 310.3595 -1.3686
60.0000 495.0000 0.0000
58.5812 489.4920 -0.2048
54.7483 474.8160 -0.8947
49.0308 453.2940 -1.8648
41.9580 427.2480 -2.9104
34.0594 399.0000 -3.8264
25.8643 370.8720 -4.4080
17.9021 345.1860 -4.4503
10.7023 324.2640 -3.7485
4.7941 310.4280 -2.0976
61.0000 495.0000 0.0000
59.5577 489.4920 -0.2093
55.6603 474.8160 -0.9107
49.8463 453.2940 -1.8963
42.6540 427.2480 -2.9584
34.6219 399.0000 -3.8889
26.2883 370.8720 -4.4800
18.1916 345.1860 -4.5238
10.8703 324.2640 -3.8125
4.8626 310.4280 -2.1381
62.0000 495.0000 0.0000
60.5342 489.4920 -0.2138
56.5723 474.8160 -0.9267
50.6618 453.2940 -1.9278
43.3500 427.2480 -3.0064
35.1844 399.0000 -3.9514
26.7123 370.8720 -4.5520
18.4811 345.1860 -4.5973
11.0383 324.2640 -3.8765
4.9311 310.4280 -2.1786
59.0000 496.0000 0.0000
57.6047 490.4685 -0.2183
53.8363 475.7280 -0.9427
48.2153 454.1095 -1.9593
41.2620 427.9440 -3.0544
33.4969 399.5625 -4.0139
25.4403 371.2960 -4.6240
17.6126 345.4755 -4.6708
10.5343 324.4320 -3.9405
4.7256 310.4965 -2.2191
59.0000 496.0000 0.0000
57.6531 490.4685 -0.1744
53.9551 475.7280 -0.8399
48.4200 454.1095 -1.7861
41.5618 427.9440 -2.8026
33.8946 399.5625 -3.6786
25.9324 371.2960 -4.2038
18.1892 345.4755 -4.1677
11.1791 324.4320 -3.3596
5.4161 310.4965 -1.5692
60.0000 496.0000 0.0000
58.6010 490.4685 -0.1502
54.8218 475.7280 -0.8106
49.1835 454.1095 -1.7657
42.2069 427.9440 -2.7996
34.4129 399.5625 -3.6969
26.3225 371.2960 -4.2419
18.4565 345.4755 -4.2189
11.3358 324.4320 -3.4123
5.4814 310.4965 -1.6065
61.0000 496.0000 0.0000
59.5775 490.4685 -0.1547
55.7338 475.7280 -0.8266
49.9990 454.1095 -1.7972
42.9029 427.9440 -2.8476
34.9754 399.5625 -3.7594
26.7465 371.2960 -4.3139
18.7460 345.4755 -4.2924
11.5038 324.4320 -3.4763
5.5499 310.4965 -1.6470
58.0000 497.0000 0.0000
56.6480 491.4450 -0.1592
52.9978 476.6400 -0.8426
47.5525 454.9250 -1.8287
40.8149 428.6400 -2.8956
33.2879 400.1250 -3.8219
25.4745 371.7200 -4.3859
17.8775 345.7650 -4.3659
10.9998 324.6000 -3.5403
5.3444 310.5650 -1.6875
58.0000 497.0000 0.0000
56.6480 491.4450 -0.1637
52.9978 476.6400 -0.8586
47.5525 454.9250 -1.8602
40.8149 428.6400 -2.9436
33.2879 400.1250 -3.8844
25.4745 371.7200 -4.4579
17.8775 345.7650 -4.4394
10.9998 324.6000 -3.6043
5.3444 310.5650 -1.7280
59.0000 497.0000 0.0000
57.6245 491.4450 -0.1682
53.9098 476.6400 -0.8746
48.3680 454.9250 -1.8917
41.5109 428.6400 -2.9916
33.8504 400.1250 -3.9469
25.8985 371.7200 -4.5299
18.1670 345.7650 -4.5129
11.1678 324.6000 -3.6683
5.4129 310.5650 -1.7685
60.0000 497.0000 0.0000
58.6010 491.4450 -0.1727
54.8218 476.6400 -0.8906
49.1835 454.9250 -1.9232
42.2069 428.6400 -3.0396
34.4129 400.1250 -4.0094
26.3225 371.7200 -4.6019
18.4565 345.7650 -4.5864
11.3358 324.6000 -3.7323
5.4814 310.5650 -1.8090
58.0000 498.0000 0.0000
56.6480 492.4215 -0.1772
52.9978 477.5520 -0.9066
47.5525 455.7405 -1.9547
40.8149 429.3360 -3.0876
33.2879 400.6875 -4.0719
25.4745 372.1440 -4.6739
17.8775 346.0545 -4.6599
10.9998 324.7680 -3.7963
5.3444 310.6335 -1.8495
58.0000 498.0000 0.0000
56.6480 492.4215 -0.1817
52.9978 477.5520 -0.9226
47.5525 455.7405 -1.9862
40.8149 429.3360 -3.1356
33.2879 400.6875 -4.1344
25.4745 372.1440 -4.7459
17.8775 346.0545 -4.7334
10.9998 324.7680 -3.8603
5.3444 310.6335 -1.8900
59.0000 498.0000 0.0000
57.6245 492.4215 -0.1862
53.9098 477.5520 -0.9386
48.3680 455.7405 -2.0177
41.5109 429.3360 -3.1836
33.8504 400.6875 -4.1969
25.8985 372.1440 -4.8179
18.1670 346.0545 -4.8069
11.1678 324.7680 -3.9243
5.4129 310.6335 -1.9305
60.0000 498.0000 0.0000
58.6010 492.4215 -0.1907
54.8218 477.5520 -0.9546
49.1835 455.7405 -2.0492
42.2069 429.3360 -3.2316
34.4129 400.6875 -4.2594
26.3225 372.1440 -4.8899
18.4565 346.0545 -4.8804
11.3358 324.7680 -3.9883
5.4814 310.6335 -1.9710
57.0000 499.0000 0.0000
55.6715 493.3980 -0.1952
52.0858 478.4640 -0.9706
46.7370 456.5560 -2.0807
40.1189 430.0320 -3.2796
32.7254 401.2500 -4.3219
25.0505 372.5680 -4.9619
17.5880 346.3440 -4.9539
10.8318 324.9360 -4.0523
5.2759 310.7020 -2.0115
58.0000 499.0000 0.0000
56.6480 493.3980 -0.1997
52.9978 478.4640 -0.9866
47.5525 456.5560 -2.1122
40.8149 430.0320 -3.3276
33.2879 401.2500 -4.3844
25.4745 372.5680 -5.0339
17.8775 346.3440 -5.0274
10.9998 324.9360 -4.1163
5.3444 310.7020 -2.0520
58.0000 499.0000 0.0000
56.6964 493.3935 0.0287
53.1166 478.4480 -0.2279
47.7572 456.5245 -0.6475
41.1147 429.9840 -1.1078
33.6857 401.1875 -1.4867
25.9666 372.4960 -1.6617
18.4541 346.2705 -1.5107
11.6447 324.8720 -0.9114
6.0349 310.6615 0.2585
59.0000 499.0000 0.0000
57.6443 493.3935 0.0529
53.9834 478.4480 -0.1986
48.5207 456.5245 -0.6270
41.7598 429.9840 -1.1049
34.2040 401.1875 -1.5050
26.3567 372.4960 -1.6998
18.7213 346.2705 -1.5620
11.8014 324.8720 -0.9641
6.1002 310.6615 0.2212
56.0000 500.0000 0.0000
54.7148 494.3700 0.0484
51.2474 479.3600 -0.2146
46.0742 457.3400 -0.6585
39.6718 430.6800 -1.1529
32.5165 401.7500 -1.5675
25.0847 372.9200 -1.7718
17.8528 346.5600 -1.6355
11.2974 325.0400 -1.0281
5.8947 310.7300 0.1807
57.0000 500.0000 0.0000
55.6913 494.3700 0.0439
52.1594 479.3600 -0.2306
46.8897 457.3400 -0.6900
40.3678 430.6800 -1.2009
33.0790 401.7500 -1.6300
25.5087 372.9200 -1.8438
18.1423 346.5600 -1.7090
11.4654 325.0400 -1.0921
5.9632 310.7300 0.1402
57.0000 500.0000 0.0000
55.6913 494.3700 0.0394
52.1594 479.3600 -0.2466
46.8897 457.3400 -0.7215
40.3678 430.6800 -1.2489
33.0790 401.7500 -1.6925
25.5087 372.9200 -1.9158
18.1423 346.5600 -1.7825
11.4654 325.0400 -1.1561
5.9632 310.7300 0.0997
58.0000 500.0000 0.0000
56.6678 494.3700 0.0349
53.0714 479.3600 -0.2626
47.7052 457.3400 -0.7530
41.0638 430.6800 -1.2969
33.6415 401.7500 -1.7550
25.9327 372.9200 -1.9878
18.4318 346.5600 -1.8560
11.6334 325.0400 -1.2201
6.0317 310.7300 0.0592
59.0000 500.0000 0.0000
57.6443 494.3700 0.0304
53.9834 479.3600 -0.2786
48.5207 457.3400 -0.7845
41.7598 430.6800 -1.3449
34.2040 401.7500 -1.8175
26.3567 372.9200 -2.0598
18.7213 346.5600 -1.9295
11.8014 325.0400 -1.2841
6.1002 310.7300 0.0187
56.0000 501.0000 0.0000
54.7148 495.3465 0.0259
51.2474 480.2720 -0.2946
46.0742 458.1555 -0.8160
39.6718 431.3760 -1.3929
32.5165 402.3125 -1.8800
25.0847 373.3440 -2.1318
17.8528 346.8495 -2.0030
11.2974 325.2080 -1.3481
5.8947 310.7985 -0.0218
56.0000 501.0000 0.0000
54.7148 495.3465 0.0214
51.2474 480.2720 -0.3106
46.0742 458.1555 -0.8475
39.6718 431.3760 -1.4409
32.5165 402.3125 -1.9425
25.0847 373.3440 -2.2038
17.8528 346.8495 -2.0765
11.2974 325.2080 -1.4121
5.8947 310.7985 -0.0623
57.0000 501.0000 0.0000
55.6913 495.3465 0.0169
52.1594 480.2720 -0.3266
46.8897 458.1555 -0.8790
40.3678 431.3760 -1.4889
33.0790 402.3125 -2.0050
25.5087 373.3440 -2.2758
18.1423 346.8495 -2.1500
11.4654 325.2080 -1.4761
5.9632 310.7985 -0.1028
58.0000 501.0000 0.0000
56.6678 495.3465 0.0124
53.0714 480.2720 -0.3426
47.7052 458.1555 -0.9105
41.0638 431.3760 -1.5369
33.6415 402.3125 -2.0675
25.9327 373.3440 -2.3478
18.4318 346.8495 -2.2235
11.6334 325.2080 -1.5401
6.0317 310.7985 -0.1433
55.0000 502.0000 0.0000
53.7383 496.3230 0.0079
50.3354 481.1840 -0.3586
45.2587 458.9710 -0.9420
38.9758 432.0720 -1.5849
31.9540 402.8750 -2.1300
24.6607 373.7680 -2.4198
17.5633 347.1390 -2.2970
11.1294 325.3760 -1.6041
5.8262 310.8670 -0.1838
55.0000 502.0000 0.0000
53.7383 496.3230 0.0034
50.3354 481.1840 -0.3746
45.2587 458.9710 -0.9735
38.9758 432.0720 -1.6329
31.9540 402.8750 -2.1925
24.6607 373.7680 -2.4918
17.5633 347.1390 -2.3705
11.1294 325.3760 -1.6681
5.8262 310.8670 -0.2243
56.0000 502.0000 0.0000
54.7632 496.3230 0.0473
51.3662 481.1840 -0.2718
46.2789 458.9710 -0.8003
39.9716 432.0720 -1.3811
32.9142 402.8750 -1.8572
25.5768 373.7680 -2.0717
18.4295 347.1390 -1.8673
11.9423 325.3760 -1.0872
6.5852 310.8670 0.4257
57.0000 502.0000 0.0000
55.7397 496.3230 0.0428
52.2782 481.1840 -0.2878
47.0944 458.9710 -0.8318
40.6676 432.0720 -1.4291
33.4767 402.8750 -1.9197
26.0008 373.7680 -2.1437
18.7190 347.1390 -1.9408
12.1103 325.3760 -1.1512
6.6537 310.8670 0.3852
55.0000 503.0000 0.0000
53.7867 497.2995 0.0158
50.4542 482.0960 -0.3838
45.4634 459.7865 -1.0208
39.2756 432.7680 -1.7171
32.3517 403.4375 -2.2947
25.1528 374.1920 -2.5757
18.1400 347.4285 -2.3818
11.7743 325.5440 -1.5352
6.5167 310.9355 0.1422
56.0000 503.0000 0.0000
54.7632 497.2995 0.0113
51.3662 482.0960 -0.3998
46.2789 459.7865 -1.0523
39.9716 432.7680 -1.7651
32.9142 403.4375 -2.3572
25.5768 374.1920 -2.6477
18.4295 347.4285 -2.4553
11.9423 325.5440 -1.5992
6.5852 310.9355 0.1017
56.0000 503.0000 0.0000
54.7632 497.2995 0.0068
51.3662 482.0960 -0.4158
46.2789 459.7865 -1.0838
39.9716 432.7680 -1.8131
32.9142 403.4375 -2.4197
25.5768 374.1920 -2.7197
18.4295 347.4285 -2.5288
11.9423 325.5440 -1.6632
6.5852 310.9355 0.0612
57.0000 503.0000 0.0000
55.7397 497.2995 0.0023
52.2782 482.0960 -0.4318
47.0944 459.7865 -1.1153
40.6676 432.7680 -1.8611
33.4767 403.4375 -2.4822
26.0008 374.1920 -2.7917
18.7190 347.4285 -2.6023
12.1103 325.5440 -1.7272
6.6537 310.9355 0.0207
54.0000 504.0000 0.0000
52.8102 498.2760 -0.0022
49.5422 483.0080 -0.4478
44.6479 460.6020 -1.1468
38.5796 433.4640 -1.9091
31.7892 404.0000 -2.5447
24.7288 374.6160 -2.8637
17.8505 347.7180 -2.6758
11.6063 325.7120 -1.7912
6.4482 311.0040 -0.0198
55.0000 504.0000 0.0000
53.7867 498.2760 -0.0067
50.4542 483.0080 -0.4638
45.4634 460.6020 -1.1783
39.2756 433.4640 -1.9571
32.3517 404.0000 -2.6072
25.1528 374.6160 -2.9357
18.1400 347.7180 -2.7493
11.7743 325.7120 -1.8552
6.5167 311.0040 -0.0603
55.0000 504.0000 0.0000
53.7867 498.2760 -0.0112
50.4542 483.0080 -0.4798
45.4634 460.6020 -1.2098
39.2756 433.4640 -2.0051
32.3517 404.0000 -2.6697
25.1528 374.6160 -3.0077
18.1400 347.7180 -2.8228
11.7743 325.7120 -1.9192
6.5167 311.0040 -0.1008
56.0000 504.0000 0.0000
54.7632 498.2760 -0.0157
51.3662 483.0080 -0.4958
46.2789 460.6020 -1.2413
39.9716 433.4640 -2.0531
32.9142 404.0000 -2.7322
25.5768 374.6160 -3.0797
18.4295 347.7180 -2.8963
11.9423 325.7120 -1.9832
6.5852 311.0040 -0.1413
53.0000 505.0000 0.0000
51.8337 499.2525 -0.0202
48.6302 483.9200 -0.5118
43.8324 461.4175 -1.2728
37.8836 434.1600 -2.1011
31.2267 404.5625 -2.7947
24.3048 375.0400 -3.1517
17.5610 348.0075 -2.9698
11.4383 325.8800 -2.0472
6.3797 311.0725 -0.1818
54.0000 505.0000 0.0000
52.8102 499.2525 -0.0247
49.5422 483.9200 -0.5278
44.6479 461.4175 -1.3043
38.5796 434.1600 -2.1491
31.7892 404.5625 -2.8572
24.7288 375.0400 -3.2237
17.8505 348.0075 -3.0433
11.6063 325.8800 -2.1112
6.4482 311.0725 -0.2223
54.0000 505.0000 0.0000
52.8102 499.2525 -0.0427
49.5422 483.9200 -0.5918
44.6479 461.4175 -1.4303
38.5796 434.1600 -2.3411
31.7892 404.5625 -3.1072
24.7288 375.0400 -3.5117
17.8505 348.0075 -3.3373
11.6063 325.8800 -2.3672
6.4482 311.0725 -0.3843
55.0000 505.0000 0.0000
53.8351 499.2525 0.0012
50.5730 483.9200 -0.4890
45.6681 461.4175 -1.2571
39.5754 434.1600 -2.0893
32.7495 404.5625 -2.7720
25.6450 375.0400 -3.0915
18.7166 348.0075 -2.8342
12.4192 325.8800 -1.7863
7.2072 311.0725 0.2657
53.0000 506.0000 0.0000
51.8535 500.2290 0.0254
48.7037 484.8320 -0.4598
43.9852 462.2330 -1.2366
38.1325 434.8560 -2.0864
31.5803 405.1250 -2.7903
24.7630 375.4640 -3.1296
18.1154 348.2970 -2.8854
12.0718 326.0480 -1.8390
7.0670 311.1410 0.2284
54.0000 506.0000 0.0000
52.8300 500.2290 0.0209
49.6157 484.8320 -0.4758
44.8007 462.2330 -1.2681
38.8285 434.8560 -2.1344
32.1428 405.1250 -2.8528
25.1870 375.4640 -3.2016
18.4049 348.2970 -2.9589
12.2398 326.0480 -1.9030
7.1355 311.1410 0.1879
55.0000 506.0000 0.0000
53.8065 500.2290 0.0164
50.5277 484.8320 -0.4918
45.6162 462.2330 -1.2996
39.5245 434.8560 -2.1824
32.7053 405.1250 -2.9153
25.6110 375.4640 -3.2736
18.6944 348.2970 -3.0324
12.4078 326.0480 -1.9670
7.2040 311.1410 0.1474
55.0000 506.0000 0.0000
53.8065 500.2290 0.0164
50.5277 484.8320 -0.4918
45.6162 462.2330 -1.2996
39.5245 434.8560 -2.1824
32.7053 405.1250 -2.9153
25.6110 375.4640 -3.2736
18.6944 348.2970 -3.0324
12.4078 326.0480 -1.9670
7.2040 311.1410 0.1474
52.0000 507.0000 0.0000
50.8770 501.2055 0.0119
47.7917 485.7440 -0.5078
43.1697 463.0485 -1.3311
37.4365 435.5520 -2.2304
31.0178 405.6875 -2.9778
24.3390 375.8880 -3.3456
17.8259 348.5865 -3.1059
11.9038 326.2160 -2.0310
6.9985 311.2095 0.1069
53.0000 507.0000 0.0000
51.8535 501.2010 0.1874
48.7037 485.7280 0.1162
43.9852 463.0170 -0.1026
38.1325 435.5040 -0.3584
31.5803 405.6250 -0.5403
24.7630 375.8160 -0.5376
18.1154 348.5130 -0.2394
12.0718 326.1520 0.4650
7.0670 311.1690 1.6864
54.0000 507.0000 0.0000
52.8300 501.2010 0.1829
49.6157 485.7280 0.1002
44.8007 463.0170 -0.1341
38.8285 435.5040 -0.4064
32.1428 405.6250 -0.6028
25.1870 375.8160 -0.6096
18.4049 348.5130 -0.3129
12.2398 326.1520 0.4010
7.1355 311.1690 1.6459
54.0000 507.0000 0.0000
52.8300 501.2010 0.1784
49.6157 485.7280 0.0842
44.8007 463.0170 -0.1656
38.8285 435.5040 -0.4544
32.1428 405.6250 -0.6653
25.1870 375.8160 -0.6816
18.4049 348.5130 -0.3864
12.2398 326.1520 0.3370
7.1355 311.1690 1.6054
51.0000 508.0000 0.0000
49.9005 502.1775 0.1739
46.8797 486.6400 0.0682
42.3542 463.8325 -0.1971
36.7405 436.2000 -0.5024
30.4553 406.1875 -0.7278
23.9150 376.2400 -0.7536
17.5364 348.8025 -0.4599
11.7358 326.3200 0.2730
6.9300 311.2375 1.5649
52.0000 508.0000 0.0000
50.8770 502.1775 0.1694
47.7917 486.6400 0.0522
43.1697 463.8325 -0.2286
37.4365 436.2000 -0.5504
31.0178 406.1875 -0.7903
24.3390 376.2400 -0.8256
17.8259 348.8025 -0.5334
11.9038 326.3200 0.2090
6.9985 311.2375 1.5244
53.0000 508.0000 0.0000
51.8535 502.1775 0.1649
48.7037 486.6400 0.0362
43.9852 463.8325 -0.2601
38.1325 436.2000 -0.5984
31.5803 406.1875 -0.8528
24.7630 376.2400 -0.8976
18.1154 348.8025 -0.6069
12.0718 326.3200 0.1450
7.0670 311.2375 1.4839
53.0000 508.0000 0.0000
51.8535 502.1775 0.1604
48.7037 486.6400 0.0202
43.9852 463.8325 -0.2916
38.1325 436.2000 -0.6464
31.5803 406.1875 -0.9153
24.7630 376.2400 -0.9696
18.1154 348.8025 -0.6804
12.0718 326.3200 0.0810
7.0670 311.2375 1.4434
50.0000 509.0000 0.0000
48.9240 503.1540 0.1559
45.9677 487.5520 0.0042
41.5387 464.6480 -0.3231
36.0445 436.8960 -0.6944
29.8928 406.7500 -0.9778
23.4910 376.6640 -1.0416
17.2469 349.0920 -0.7539
11.5678 326.4880 0.0170
6.8615 311.3060 1.4029
51.0000 509.0000 0.0000
49.8344 503.1540 0.3144
46.8175 487.5520 0.2881
42.3510 464.6480 0.0580
36.8367 436.8960 -0.2389
30.6762 406.7500 -0.4658
24.2714 376.6640 -0.4857
18.0239 349.0920 -0.1617
12.3355 326.4880 0.6431
7.6078 311.3060 2.0656
52.0000 509.0000 0.0000
50.8109 503.1540 0.3099
47.7295 487.5520 0.2721
43.1665 464.6480 0.0265
37.5327 436.8960 -0.2869
31.2387 406.7500 -0.5283
24.6954 376.6640 -0.5577
18.3134 349.0920 -0.2352
12.5035 326.4880 0.5791
7.6763 311.3060 2.0251
52.0000 509.0000 0.0000
50.8109 503.1540 0.3054
47.7295 487.5520 0.2561
43.1665 464.6480 -0.0050
37.5327 436.8960 -0.3349
31.2387 406.7500 -0.5908
24.6954 376.6640 -0.6297
18.3134 349.0920 -0.3087
12.5035 326.4880 0.5151
7.6763 311.3060 1.9846
53.0000 509.0000 0.0000
51.7874 503.1540 0.3009
48.6415 487.5520 0.2401
43.9820 464.6480 -0.0365
38.2287 436.8960 -0.3829
31.8012 406.7500 -0.6533
25.1194 376.6640 -0.7017
18.6029 349.0920 -0.3822
12.6715 326.4880 0.4511
7.7448 311.3060 1.9441
50.0000 510.0000 0.0000
48.8579 504.1305 0.2964
45.9055 488.4640 0.2241
41.5355 465.4635 -0.0680
36.1407 437.5920 -0.4309
30.1137 407.3125 -0.7158
23.8474 377.0880 -0.7737
17.7344 349.3815 -0.4557
12.1675 326.6560 0.3871
7.5393 311.3745 1.9036
51.0000 510.0000 0.0000
49.8344 504.1305 0.2919
46.8175 488.4640 0.2081
42.3510 465.4635 -0.0995
36.8367 437.5920 -0.4789
30.6762 407.3125 -0.7783
24.2714 377.0880 -0.8457
18.0239 349.3815 -0.5292
12.3355 326.6560 0.3231
7.6078 311.3745 1.8631
52.0000 510.0000 0.0000
50.8109 504.1305 0.2874
47.7295 488.4640 0.1921
43.1665 465.4635 -0.1310
37.5327 437.5920 -0.5269
31.2387 407.3125 -0.8408
24.6954 377.0880 -0.9177
18.3134 349.3815 -0.6027
12.5035 326.6560 0.2591
7.6763 311.3745 1.8226
52.0000 510.0000 0.0000
50.8109 504.1305 0.2829
47.7295 488.4640 0.1761
43.1665 465.4635 -0.1625
37.5327 437.5920 -0.5749
31.2387 407.3125 -0.9033
24.6954 377.0880 -0.9897
18.3134 349.3815 -0.6762
12.5035 326.6560 0.1951
7.6763 311.3745 1.7821
49.0000 511.0000 0.0000
47.8814 505.1070 0.2784
44.9935 489.3760 0.1601
40.7200 466.2790 -0.1940
35.4447 438.2880 -0.6229
29.5512 407.8750 -0.9658
23.4234 377.5120 -1.0617
17.4449 349.6710 -0.7497
11.9995 326.8240 0.1311
7.4708 311.4430 1.7416
50.0000 511.0000 0.0000
48.8579 505.1070 0.2739
45.9055 489.3760 0.1441
41.5355 466.2790 -0.2255
36.1407 438.2880 -0.6709
30.1137 407.8750 -1.0283
23.8474 377.5120 -1.1337
17.7344 349.6710 -0.8232
12.1675 326.8240 0.0671
7.5393 311.4430 1.7011
51.0000 511.0000 0.0000
49.8344 505.1070 0.2694
46.8175 489.3760 0.1281
42.3510 466.2790 -0.2570
36.8367 438.2880 -0.7189
30.6762 407.8750 -1.0908
24.2714 377.5120 -1.2057
18.0239 349.6710 -0.8967
12.3355 326.8240 0.0031
7.6078 311.4430 1.6606
51.0000 511.0000 0.0000
49.8344 505.1070 0.2649
46.8175 489.3760 0.1121
42.3510 466.2790 -0.2885
36.8367 438.2880 -0.7669
30.6762 407.8750 -1.1533
24.2714 377.5120 -1.2777
18.0239 349.6710 -0.9702
12.3355 326.8240 -0.0609
7.6078 311.4430 1.6201
48.0000 512.0000 0.0000
46.9049 506.0835 0.2604
44.0815 490.2880 0.0961
39.9045 467.0945 -0.3200
34.7487 438.9840 -0.8149
28.9887 408.4375 -1.2158
22.9994 377.9360 -1.3497
17.1554 349.9605 -1.0437
11.8315 326.9920 -0.1249
7.4023 311.5115 1.5796
49.0000 512.0000 0.0000
47.9012 506.0835 0.3329
45.0670 490.2880 0.2441
40.8727 467.0945 -0.0948
35.6936 438.9840 -0.5122
29.9048 408.4375 -0.8363
23.8816 377.9360 -0.8956
17.9993 349.9605 -0.5182
12.6330 326.9920 0.4673
8.1581 311.5115 2.2327
50.0000 512.0000 0.0000
48.8777 506.0835 0.3284
45.9790 490.2880 0.2281
41.6882 467.0945 -0.1263
36.3896 438.9840 -0.5602
30.4673 408.4375 -0.8988
24.3056 377.9360 -0.9676
18.2888 349.9605 -0.5917
12.8010 326.9920 0.4033
8.2266 311.5115 2.1922
50.0000 512.0000 0.0000
48.8777 506.0835 0.3239
45.9790 490.2880 0.2121
41.6882 467.0945 -0.1578
36.3896 438.9840 -0.6082
30.4673 408.4375 -0.9613
24.3056 377.9360 -1.0396
18.2888 349.9605 -0.6652
12.8010 326.9920 0.3393
8.2266 311.5115 2.1517
51.0000 512.0000 0.0000
49.8542 506.0835 0.3194
46.8910 490.2880 0.1961
42.5037 467.0945 -0.1893
37.0856 438.9840 -0.6562
31.0298 408.4375 -1.0238
24.7296 377.9360 -1.1116
18.5783 349.9605 -0.7387
12.9690 326.9920 0.2753
8.2951 311.5115 2.1112
47.0000 513.0000 0.0000
45.9482 507.0600 0.3149
43.2430 491.2000 0.1801
39.2417 467.9100 -0.2208
34.3016 439.6800 -0.7042
28.7798 409.0000 -1.0863
23.0336 378.3600 -1.1836
17.4203 350.2500 -0.8122
12.2970 327.1600 0.2113
8.0211 311.5800 2.0707
48.0000 513.0000 0.0000
46.9247 507.0600 0.3104
44.1550 491.2000 0.1641
40.0572 467.9100 -0.2523
34.9976 439.6800 -0.7522
29.3423 409.0000 -1.1488
23.4576 378.3600 -1.2556
17.7098 350.2500 -0.8857
12.4650 327.1600 0.1473
8.0896 311.5800 2.0302
49.0000 513.0000 0.0000
47.9012 507.0600 0.3059
45.0670 491.2000 0.1481
40.8727 467.9100 -0.2838
35.6936 439.6800 -0.8002
29.9048 409.0000 -1.2113
23.8816 378.3600 -1.3276
17.9993 350.2500 -0.9592
12.6330 327.1600 0.0833
8.1581 311.5800 1.9897
49.0000 513.0000 0.0000
47.9012 507.0600 0.3014
45.0670 491.2000 0.1321
40.8727 467.9100 -0.3153
35.6936 439.6800 -0.8482
29.9048 409.0000 -1.2738
23.8816 378.3600 -1.3996
17.9993 350.2500 -1.0327
12.6330 327.1600 0.0193
8.1581 311.5800 1.9492
50.0000 513.0000 0.0000
48.8777 507.0555 0.4319
45.9790 491.1840 0.5961
41.6882 467.8785 0.5982
36.3896 439.6320 0.5438
30.4673 408.9375 0.5387
24.3056 378.2880 0.6884
18.2888 350.1765 1.0988
12.8010 327.0960 1.8753
8.2266 311.5395 3.1237
51.0000 513.0000 0.0000
49.8542 507.0555 0.4274
46.8910 491.1840 0.5801
42.5037 467.8785 0.5667
37.0856 439.6320 0.4958
31.0298 408.9375 0.4762
24.7296 378.2880 0.6164
18.5783 350.1765 1.0253
12.9690 327.0960 1.8113
8.2951 311.5395 3.0832
47.0000 514.0000 0.0000
45.9482 508.0320 0.4229
43.2430 492.0960 0.5641
39.2417 468.6940 0.5352
34.3016 440.3280 0.4478
28.7798 409.5000 0.4137
23.0336 378.7120 0.5444
17.4203 350.4660 0.9518
12.2970 327.2640 1.7473
8.0211 311.6080 3.0427
47.0000 514.0000 0.0000
45.9482 508.0320 0.4184
43.2430 492.0960 0.5481
39.2417 468.6940 0.5037
34.3016 440.3280 0.3998
28.7798 409.5000 0.3512
23.0336 378.7120 0.4724
17.4203 350.4660 0.8783
12.2970 327.2640 1.6833
8.0211 311.6080 3.0022
48.0000 514.0000 0.0000
46.9247 508.0320 0.4049
44.1550 492.0960 0.5001
40.0572 468.6940 0.4092
34.9976 440.3280 0.2558
29.3423 409.5000 0.1637
23.4576 378.7120 0.2564
17.7098 350.4660 0.6578
12.4650 327.2640 1.4913
8.0896 311.6080 2.8807
49.0000 514.0000 0.0000
47.9496 508.0320 0.4489
45.1858 492.0960 0.6029
41.0774 468.6940 0.5824
35.9934 440.3280 0.5076
30.3025 409.5000 0.4989
24.3738 378.7120 0.6766
18.5759 350.4660 1.1609
13.2779 327.2640 2.0722
8.8486 311.6080 3.5307
50.0000 514.0000 0.0000
48.9261 508.0320 0.4444
46.0978 492.0960 0.5869
41.8929 468.6940 0.5509
36.6894 440.3280 0.4596
30.8650 409.5000 0.4364
24.7978 378.7120 0.6046
18.8654 350.4660 1.0874
13.4459 327.2640 2.0082
8.9171 311.6080 3.4902
50.0000 514.0000 0.0000
48.9261 508.0320 0.4399
46.0978 492.0960 0.5709
41.8929 468.6940 0.5194
36.6894 440.3280 0.4116
30.8650 409.5000 0.3739
24.7978 378.7120 0.5326
18.8654 350.4660 1.0139
13.4459 327.2640 1.9442
8.9171 311.6080 3.4497
51.0000 514.0000 0.0000
49.9026 508.0320 0.4354
47.0098 492.0960 0.5549
42.7084 468.6940 0.4879
37.3854 440.3280 0.3636
31.4275 409.5000 0.3114
25.2218 378.7120 0.4606
19.1549 350.4660 0.9404
13.6139 327.2640 1.8802
8.9856 311.6080 3.4092
47.0000 515.0000 0.0000
45.9966 509.0085 0.4309
43.3618 493.0080 0.5389
39.4464 469.5095 0.4564
34.6014 441.0240 0.3156
29.1775 410.0625 0.2489
23.5258 379.1360 0.3886
17.9969 350.7555 0.8669
12.9419 327.4320 1.8162
8.7116 311.6765 3.3687
48.0000 515.0000 0.0000
46.9731 509.0085 0.4264
44.2738 493.0080 0.5229
40.2619 469.5095 0.4249
35.2974 441.0240 0.2676
29.7400 410.0625 0.1864
23.9498 379.1360 0.3166
18.2864 350.7555 0.7934
13.1099 327.4320 1.7522
8.7801 311.6765 3.3282
49.0000 515.0000 0.0000
47.9496 509.0085 0.4219
45.1858 493.0080 0.5069
41.0774 469.5095 0.3934
35.9934 441.0240 0.2196
30.3025 410.0625 0.1239
24.3738 379.1360 0.2446
18.5759 350.7555 0.7199
13.2779 327.4320 1.6882
8.8486 311.6765 3.2877
49.0000 515.0000 0.0000
47.9496 509.0085 0.4174
45.1858 493.0080 0.4909
41.0774 469.5095 0.3619
35.9934 441.0240 0.1716
30.3025 410.0625 0.0614
24.3738 379.1360 0.1726
18.5759 350.7555 0.6464
13.2779 327.4320 1.6242
8.8486 311.6765 3.2472
50.0000 515.0000 0.0000
48.9261 509.0085 0.4129
46.0978 493.0080 0.4749
41.8929 469.5095 0.3304
36.6894 441.0240 0.1236
30.8650 410.0625 -0.0011
24.7978 379.1360 0.1006
18.8654 350.7555 0.5729
13.4459 327.4320 1.5602
8.9171 311.6765 3.2067
48.0000 516.0000 0.0000
46.9731 509.9850 0.4084
44.2738 493.9200 0.4589
40.2619 470.3250 0.2989
35.2974 441.7200 0.0756
29.7400 410.6250 -0.0636
23.9498 379.5600 0.0286
18.2864 351.0450 0.4994
13.1099 327.6000 1.4962
8.7801 311.7450 3.1662
49.0000 516.0000 0.0000
47.9496 509.9850 0.4039
45.1858 493.9200 0.4429
41.0774 470.3250 0.2674
35.9934 441.7200 0.0276
30.3025 410.6250 -0.1261
24.3738 379.5600 -0.0434
18.5759 351.0450 0.4259
13.2779 327.6000 1.4322
8.8486 311.7450 3.1257
49.0000 516.0000 0.0000
47.9496 509.9850 0.3994
45.1858 493.9200 0.4269
41.0774 470.3250 0.2359
35.9934 441.7200 -0.0204
30.3025 410.6250 -0.1886
24.3738 379.5600 -0.1154
18.5759 351.0450 0.3524
13.2779 327.6000 1.3682
8.8486 311.7450 3.0852
50.0000 516.0000 0.0000
48.9261 509.9850 0.3949
46.0978 493.9200 0.4109
41.8929 470.3250 0.2044
36.6894 441.7200 -0.0684
30.8650 410.6250 -0.2511
24.7978 379.5600 -0.1874
18.8654 351.0450 0.2789
13.4459 327.6000 1.3042
8.9171 311.7450 3.0447
48.0000 517.0000 0.0000
46.9929 510.9615 0.4674
44.3473 494.8320 0.5589
40.4147 471.1405 0.4296
35.5463 442.4160 0.2343
30.0936 411.1875 0.1284
24.4080 379.9840 0.2667
18.8408 351.3345 0.8043
13.7435 327.7680 1.8964
9.4674 311.8135 3.6979
49.0000 517.0000 0.0000
47.9694 510.9615 0.4629
45.2593 494.8320 0.5429
41.2302 471.1405 0.3981
36.2423 442.4160 0.1863
30.6561 411.1875 0.0659
24.8320 379.9840 0.1947
19.1303 351.3345 0.7308
13.9115 327.7680 1.8324
9.5359 311.8135 3.6574
49.0000 517.0000 0.0000
47.9694 510.9615 0.4584
45.2593 494.8320 0.5269
41.2302 471.1405 0.3666
36.2423 442.4160 0.1383
30.6561 411.1875 0.0034
24.8320 379.9840 0.1227
19.1303 351.3345 0.6573
13.9115 327.7680 1.7684
9.5359 311.8135 3.6169
50.0000 517.0000 0.0000
48.9459 510.9615 0.4539
46.1713 494.8320 0.5109
42.0457 471.1405 0.3351
36.9383 442.4160 0.0903
31.2186 411.1875 -0.0591
25.2560 379.9840 0.0507
19.4198 351.3345 0.5838
14.0795 327.7680 1.7044
9.6044 311.8135 3.5764
48.0000 518.0000 0.0000
46.9929 511.9380 0.4494
44.3473 495.7440 0.4949
40.4147 471.9560 0.3036
35.5463 443.1120 0.0423
30.0936 411.7500 -0.1216
24.4080 380.4080 -0.0213
18.8408 351.6240 0.5103
13.7435 327.9360 1.6404
9.4674 311.8820 3.5359
49.0000 518.0000 0.0000
47.9694 511.9380 0.4449
45.2593 495.7440 0.4789
41.2302 471.9560 0.2721
36.2423 443.1120 -0.0057
30.6561 411.7500 -0.1841
24.8320 380.4080 -0.0933
19.1303 351.6240 0.4368
13.9115 327.9360 1.5764
9.5359 311.8820 3.4954
49.0000 518.0000 0.0000
47.9694 511.9380 0.4404
45.2593 495.7440 0.4629
41.2302 471.9560 0.2406
36.2423 443.1120 -0.0537
30.6561 411.7500 -0.2466
24.8320 380.4080 -0.1653
19.1303 351.6240 0.3633
13.9115 327.9360 1.5124
9.5359 311.8820 3.4549
50.0000 518.0000 0.0000
48.9459 511.9380 0.4359
46.1713 495.7440 0.4469
42.0457 471.9560 0.2091
36.9383 443.1120 -0.1017
31.2186 411.7500 -0.3091
25.2560 380.4080 -0.2373
19.4198 351.6240 0.2898
14.0795 327.9360 1.4484
9.6044 311.8820 3.4144
48.0000 519.0000 0.0000
46.9929 512.9100 0.5619
44.3473 496.6400 0.8949
40.4147 472.7400 1.0911
35.5463 443.7600 1.2423
30.0936 412.2500 1.4409
24.4080 380.7600 1.7787
18.8408 351.8400 2.3478
13.7435 328.0400 3.2404
9.4674 311.9100 4.5484
49.0000 519.0000 0.0000
47.9694 512.9100 0.5619
45.2593 496.6400 0.8949
41.2302 472.7400 1.0911
36.2423 443.7600 1.2423
30.6561 412.2500 1.4409
24.8320 380.7600 1.7787
19.1303 351.8400 2.3478
13.9115 328.0400 3.2404
9.5359 311.9100 4.5484
50.0000 519.0000 0.0000
48.9459 512.9100 0.5574
46.1713 496.6400 0.8789
42.0457 472.7400 1.0596
36.9383 443.7600 1.1943
31.2186 412.2500 1.3784
25.2560 380.7600 1.7067
19.4198 351.8400 2.2743
14.0795 328.0400 3.1764
9.6044 311.9100 4.5079
50.0000 519.0000 0.0000
48.9459 512.9100 0.5529
46.1713 496.6400 0.8629
42.0457 472.7400 1.0281
36.9383 443.7600 1.1463
31.2186 412.2500 1.3159
25.2560 380.7600 1.6347
19.4198 351.8400 2.2008
14.0795 328.0400 3.1124
9.6044 311.9100 4.4674
48.0000 520.0000 0.0000
46.9929 513.8865 0.5484
44.3473 497.5520 0.8469
40.4147 473.5555 0.9966
35.5463 444.4560 1.0983
30.0936 412.8125 1.2534
24.4080 381.1840 1.5627
18.8408 352.1295 2.1273
13.7435 328.2080 3.0484
9.4674 311.9785 4.4269
49.0000 520.0000 0.0000
47.9121 513.8865 0.5382
45.1688 497.5520 0.6975
41.1262 473.5555 0.6280
36.1405 444.4560 0.4802
30.5677 412.8125 0.4043
24.7641 381.1840 0.5506
19.0857 352.1295 1.0694
13.8889 328.2080 2.1110
9.5295 311.9785 3.8258
50.0000 520.0000 0.0000
48.9371 513.8865 0.5822
46.1996 497.5520 0.8003
42.1464 473.5555 0.8012
37.1363 444.4560 0.7320
31.5280 412.8125 0.7395
25.6802 381.1840 0.9707
19.9519 352.1295 1.5725
14.7017 328.2080 2.6919
10.2885 311.9785 4.4758
50.0000 520.0000 0.0000
48.9371 513.8865 0.5777
46.1996 497.5520 0.7843
42.1464 473.5555 0.7697
37.1363 444.4560 0.6840
31.5280 412.8125 0.6770
25.6802 381.1840 0.8987
19.9519 352.1295 1.4990
14.7017 328.2080 2.6279
10.2885 311.9785 4.4353
48.0000 521.0000 0.0000
46.9841 514.8630 0.5732
44.3756 498.4640 0.7683
40.5154 474.3710 0.7382
35.7443 445.1520 0.6360
30.4030 413.3750 0.6145
24.8322 381.6080 0.8267
19.3729 352.4190 1.4255
14.3657 328.3760 2.5639
10.1515 312.0470 4.3948
49.0000 521.0000 0.0000
47.9606 514.8630 0.5687
45.2876 498.4640 0.7523
41.3309 474.3710 0.7067
36.4403 445.1520 0.5880
30.9655 413.3750 0.5520
25.2562 381.6080 0.7547
19.6624 352.4190 1.3520
14.5337 328.3760 2.4999
10.2200 312.0470 4.3543
50.0000 521.0000 0.0000
48.9371 514.8630 0.5642
46.1996 498.4640 0.7363
42.1464 474.3710 0.6752
37.1363 445.1520 0.5400
31.5280 413.3750 0.4895
25.6802 381.6080 0.6827
19.9519 352.4190 1.2785
14.7017 328.3760 2.4359
10.2885 312.0470 4.3138
50.0000 521.0000 0.0000
48.9371 514.8630 0.5597
46.1996 498.4640 0.7203
42.1464 474.3710 0.6437
37.1363 445.1520 0.4920
31.5280 413.3750 0.4270
25.6802 381.6080 0.6107
19.9519 352.4190 1.2050
14.7017 328.3760 2.3719
10.2885 312.0470 4.2733
47.0000 522.0000 0.0000
46.0076 515.8395 0.5552
43.4636 499.3760 0.7043
