ply
format ascii 1.0
element vertex 1909
property float x
property float y
property float z
element face 0
property list uchar int vertex_index
end_header
-2.7171 675.7760 74.4661
-8.2280 856.1540 4.5573
-12.2671 838.0160 -1.9846
-25.8281 685.7765 -28.8066
1.5715 690.6560 -36.5516
8.1007 670.1810 -6.3046
18.8001 669.9360 8.5157
49.7212 660.6080 63.2803
-4.6606 691.9680 68.9129
-8.5118 862.2720 2.5316
-14.0484 824.2880 -4.4040
-23.9259 682.3520 -30.7650
2.8504 688.8080 -34.2430
8.0592 669.7680 -5.5442
24.3660 669.1940 14.0819
44.4149 657.6895 67.3143
-5.9591 711.4720 61.8069
-8.6812 866.4380 1.4565
-16.1777 807.7520 -7.1536
-21.3490 681.1955 -32.6685
3.8802 686.5820 -31.2658
7.7902 669.6770 -5.2875
30.4814 668.3680 20.2015
37.9688 654.6640 71.0861
-6.7411 733.1840 53.6148
-8.7878 868.7360 1.0874
-18.4889 789.3440 -10.1289
-18.2829 681.7760 -34.4402
4.7046 684.1040 -27.8113
7.4302 669.8240 -5.3250
36.7257 667.5000 26.6354
30.8229 652.0625 74.4132
-7.1349 756.0000 44.8031
-8.8833 869.2500 1.1796
-20.8158 770.0000 -13.2255
-14.9130 683.5625 -36.0033
5.3671 681.5000 -24.0708
7.1156 670.1250 -5.4474
42.6781 666.6320 33.1448
23.4175 650.4160 77.1134
-7.2690 778.8160 35.8382
-9.0193 868.0640 1.4886
-22.9922 750.6560 -16.3389
-11.4249 686.0240 -37.2809
5.9114 678.8960 -20.2358
6.9828 670.4960 -5.4451
47.9178 665.8060 39.4904
16.1924 650.2555 79.0045
-7.2720 800.5280 27.1867
-9.2473 865.2620 1.7697
-24.8520 732.2480 -19.3645
-8.0041 688.6295 -38.1962
6.3810 676.4180 -16.4977
7.1684 670.8530 -5.1086
52.0243 665.0640 45.4332
9.5877 652.1120 79.9041
-7.2722 820.0320 19.3152
-9.6190 860.9280 1.7784
-26.2290 715.7120 -22.1979
-4.8360 690.8480 -38.6724
6.8196 674.1920 -13.0478
7.8089 671.1120 -4.2286
54.5767 664.4480 50.7342
4.0436 656.5165 79.6301
-7.3981 836.2240 12.6902
-10.1861 855.1460 1.2700
-26.9571 701.9840 -24.7346
-2.1061 692.1485 -38.6326
7.2708 672.3440 -10.0775
9.0406 671.1890 -2.5956
10.0000 672.0000 0.0000
55.8614 664.0000 55.8614
0.0000 664.0000 79.0000
-7.0711 848.0000 7.0711
-10.0000 848.0000 0.0000
-26.1630 692.0000 -26.1630
0.0000 692.0000 -37.0000
7.0711 672.0000 -7.0711
13.3051 671.4880 3.7574
54.1755 662.8480 59.9284
-2.7018 675.7760 75.3655
-7.4722 856.1540 3.8231
-11.2708 838.0160 -1.9120
-25.1749 685.7720 -28.0508
1.4990 690.7200 -35.5553
7.3385 671.2260 -5.6578
18.0522 670.7840 8.5733
50.4188 660.5440 64.1045
-4.6031 691.9680 69.6608
-7.7102 862.2720 1.8114
-13.0628 824.2880 -4.2559
-23.3337 682.3360 -29.9635
2.7024 688.9600 -33.2575
7.2350 670.8480 -4.9746
23.8072 669.9360 14.2031
45.0427 657.6160 68.2028
-5.8379 711.4720 62.3658
-7.8373 866.4380 0.7841
-15.2095 807.7520 -6.9284
-20.8236 681.1640 -31.8246
3.6551 686.8400 -30.2976
6.9018 670.7820 -4.8066
30.1361 668.9920 20.4024
38.4990 654.5920 72.0361
-6.5402 733.1840 53.9601
-7.9056 868.7360 0.4893
-17.5440 789.3440 -9.8262
-17.8288 681.7280 -33.5580
4.4019 684.4800 -26.8664
6.4801 670.9440 -4.9388
36.6051 668.0000 26.9265
31.2390 652.0000 75.4176
-6.8438 756.0000 44.9236
-7.9673 869.2500 0.6752
-19.8997 770.0000 -12.8461
-14.5336 683.5000 -35.0872
4.9877 682.0000 -23.1548
6.1111 671.2500 -5.1563
42.7801 667.0080 33.5310
23.7144 650.3680 78.1601
-6.8828 778.8160 35.7361
-8.0744 868.0640 1.0899
-22.1100 750.6560 -15.8848
-11.1222 685.9520 -36.3360
5.4573 679.5200 -19.3536
5.9361 671.6160 -5.2442
48.2273 666.0640 39.9712
16.3766 650.2240 80.0767
-6.7911 800.5280 26.8773
-8.2791 865.2620 1.4816
-24.0081 732.2480 -18.8391
-7.7789 688.5560 -37.2280
5.8556 677.1600 -15.6538
6.0963 671.9580 -4.9874
52.5125 665.2160 46.0028
9.6773 652.0960 80.9802
-6.7026 820.0320 18.8270
-8.6335 860.9280 1.5984
-25.4275 715.7120 -21.6057
-4.6879 690.7840 -37.6868
6.2274 675.0400 -12.2462
6.7328 672.1920 -4.1711
55.2019 664.5120 51.3810
4.0679 656.5120 80.6836
-6.7513 836.2240 12.0650
-9.1898 855.1460 1.1885
-26.2013 701.9840 -24.0814
-2.0335 692.1080 -37.6363
6.6176 673.2800 -9.3217
7.9870 672.2340 -2.5803
9.0000 673.0000 0.0000
56.5685 664.0000 56.5685
0.0000 664.0000 80.0000
-7.0711 848.0000 7.0711
-10.0000 848.0000 0.0000
-25.4558 692.0000 -25.4558
0.0000 692.0000 -36.0000
6.3640 673.0000 -6.3640
12.4057 672.4240 3.7727
54.9065 662.8075 60.6874
-2.7304 675.7760 76.3133
-7.4753 856.1540 3.7794
-11.2223 838.0160 -1.8681
-24.4813 685.7675 -27.2950
1.4264 690.7840 -34.5590
6.5763 672.2710 -5.0110
17.3042 671.6320 8.6308
51.1276 660.4800 64.9174
-4.6483 691.9680 70.5276
-7.7215 862.2720 1.7361
-12.9440 824.2880 -4.1531
-22.6776 682.3200 -29.1619
2.5543 689.1120 -32.2720
6.4108 671.9280 -4.4050
23.2483 670.6780 14.3243
45.6929 657.5425 69.0689
-5.8899 711.4720 63.1293
-7.8596 866.4380 0.6883
-15.0047 807.7520 -6.7552
-20.2247 681.1325 -30.9808
3.4299 687.0980 -29.3294
6.0134 671.8870 -4.3257
29.7909 669.6160 20.6033
39.0631 654.5200 72.9523
-6.5911 733.1840 54.6052
-7.9396 868.7360 0.3833
-17.2442 789.3440 -9.5744
-17.3027 681.6800 -32.6758
4.0991 684.8560 -25.9215
5.5300 672.0640 -4.5526
36.4846 668.5000 27.2176
31.6992 651.9375 76.3779
-6.8880 756.0000 45.4419
-8.0115 869.2500 0.5685
-19.5020 770.0000 -12.5109
-14.0917 683.4375 -34.1712
4.6082 682.5000 -22.2387
5.1067 672.3750 -4.8653
42.8822 667.3840 33.9172
24.0622 650.3200 79.1559
-6.9168 778.8160 36.1262
-8.1253 868.0640 0.9910
-21.6179 750.6560 -15.4647
-10.7715 685.8800 -35.3911
5.0032 680.1440 -18.4714
4.8894 672.7360 -5.0433
48.5367 666.3220 40.4521
16.6128 650.1925 81.0969
-6.8134 800.5280 27.1445
-8.3311 865.2620 1.3981
-23.4315 732.2480 -18.3360
-7.5222 688.4825 -36.2597
5.3302 677.9020 -14.8100
5.0241 673.0630 -4.8662
53.0007 665.3680 46.5723
9.8121 652.0800 82.0110
-6.7139 820.0320 18.9837
-8.6788 860.9280 1.5371
-24.7826 715.7120 -21.0249
-4.5239 690.7200 -36.7013
5.6352 675.8880 -11.4446
5.6568 673.2720 -4.1135
55.8270 664.5760 52.0278
4.1208 656.5075 81.7086
-6.7545 836.2240 12.1303
-9.2184 855.1460 1.1553
-25.5108 701.9840 -23.4315
-1.9565 692.0675 -36.6400
5.9645 674.2160 -8.5659
6.9334 673.2790 -2.5650
9.0000 673.0000 0.0000
57.2756 664.0000 57.2756
0.0000 664.0000 81.0000
-6.3640 848.0000 6.3640
-9.0000 848.0000 0.0000
-24.7487 692.0000 -24.7487
0.0000 692.0000 -35.0000
6.3640 673.0000 -6.3640
12.4541 672.4240 3.8166
55.5938 662.8075 61.4495
-2.7151 675.7760 77.2128
-6.7195 856.1540 3.0453
-10.2260 838.0160 -1.7955
-23.8313 685.7675 -26.5360
1.3978 690.7840 -33.6111
6.5732 672.2710 -5.0546
17.4230 671.6320 8.7336
51.7612 660.4800 65.7416
-4.5908 691.9680 71.2755
-6.9200 862.2720 1.0159
-11.9585 824.2880 -4.0051
-22.0967 682.3200 -28.3490
2.5091 689.1120 -31.4052
6.3995 671.9280 -4.4803
23.4530 670.6780 14.4976
46.2473 657.5425 69.9573
-5.7686 711.4720 63.6881
-7.0157 866.4380 0.0159
-14.0365 807.7520 -6.5300
-19.7216 681.1325 -30.1146
3.3779 687.0980 -28.5658
5.9911 671.8870 -4.4215
30.0907 669.6160 20.8551
39.5213 654.5200 73.9024
-6.3902 733.1840 54.9505
-7.0574 868.7360 -0.2147
-16.2993 789.3440 -9.2717
-16.8826 681.6800 -31.7597
4.0482 684.8560 -25.2764
5.4961 672.0640 -4.6585
36.8823 668.5000 27.5528
32.0528 651.9375 77.3823
-6.5970 756.0000 45.5625
-7.0954 869.2500 0.0640
-18.5859 770.0000 -12.1314
-13.7564 683.4375 -33.2109
4.5640 682.5000 -21.7204
5.0625 672.3750 -4.9720
43.3744 667.3840 34.3373
24.3111 650.3200 80.2027
-6.5305 778.8160 36.0241
-7.1804 868.0640 0.5922
-20.7357 750.6560 -15.0106
-10.5197 685.8800 -34.3953
4.9693 680.1440 -18.0814
4.8385 672.7360 -5.1422
49.1133 666.3220 40.9553
16.7656 650.1925 82.1690
-6.3325 800.5280 26.8351
-7.3628 865.2620 1.1099
-22.5876 732.2480 -17.8106
-7.3490 688.4825 -35.2395
5.3079 677.9020 -14.5427
4.9721 673.0630 -4.9496
53.6456 665.3680 47.1532
9.8856 652.0800 83.0870
-6.1443 820.0320 18.4955
-7.6932 860.9280 1.3571
-23.9810 715.7120 -20.4327
-4.4211 690.7200 -35.6705
5.6239 675.8880 -11.2880
5.6115 673.2720 -4.1748
56.5175 664.5760 52.6778
4.1406 656.5075 82.7621
-6.1076 836.2240 11.5052
-8.2221 855.1460 1.0738
-24.7550 701.9840 -22.7783
-1.9125 692.0675 -35.6150
5.9613 674.2160 -8.5005
6.9048 673.2790 -2.5981
10.0000 673.0000 0.0000
57.9828 664.0000 57.9828
0.0000 664.0000 82.0000
-6.3640 848.0000 6.3640
-9.0000 848.0000 0.0000
-26.1630 693.0000 -26.1630
0.0000 693.0000 -37.0000
7.0711 673.0000 -7.0711
13.4504 672.4240 3.8892
56.2438 662.8075 62.2085
-2.7437 675.7760 78.1606
-6.7132 856.1495 3.0111
-10.3229 838.0800 -1.8834
-25.2154 686.8125 -28.0508
1.4990 691.7200 -35.5553
7.3290 672.2305 -5.6673
18.4086 671.6320 8.8817
52.3421 660.4800 66.5545
-4.6360 691.9680 72.1422
-6.8973 862.2560 0.9745
-12.1961 824.4400 -4.2107
-23.3977 683.4000 -29.9635
2.7024 689.9600 -33.2575
7.2011 671.8640 -5.0085
24.4213 670.6780 14.7227
46.7504 657.5425 70.8235
-5.8206 711.4720 64.4516
-6.9712 866.4065 -0.0131
-14.4459 808.0100 -6.8764
-20.8971 682.2375 -31.8246
3.6551 687.8400 -30.2976
6.8350 671.8135 -4.8734
31.0356 669.6160 21.1578
39.9415 654.5200 74.8185
-6.4411 733.1840 55.5956
-6.9895 868.6880 -0.2189
-16.8989 789.7200 -9.7753
-17.9008 682.8000 -33.5580
4.4019 685.4800 -26.8664
6.3783 671.9920 -5.0406
37.7984 668.5000 27.9322
32.3880 651.9375 78.3426
-6.6412 756.0000 46.0808
-7.0070 869.1875 0.0899
-19.3814 770.5000 -12.8019
-14.5961 684.5625 -35.0872
4.9877 683.0000 -23.1548
5.9786 672.3125 -5.2889
44.2566 667.3840 34.7914
24.5629 650.3200 81.1985
-6.5645 778.8160 36.4141
-7.0786 867.9920 0.6461
-21.7199 751.2800 -15.8509
-11.1702 687.0000 -36.3360
5.4573 680.5200 -19.3536
5.7834 672.6880 -5.3969
49.9572 666.3220 41.4807
16.9388 650.1925 83.1893
-6.3548 800.5280 27.1024
-7.2589 865.1885 1.1823
-23.7409 732.9900 -18.8169
-7.8104 689.5875 -37.2280
5.8556 678.1600 -15.6538
5.9403 673.0315 -5.1433
54.4471 665.3680 47.7454
9.9884 652.0800 84.1178
-6.1557 820.0320 18.6522
-7.6027 860.8640 1.4316
-25.2708 716.5600 -21.5944
-4.7039 691.8000 -37.6868
6.2274 676.0400 -12.2462
6.5970 673.2560 -4.3068
57.2733 664.5760 53.3310
4.1846 656.5075 83.7871
-6.1108 836.2240 11.5705
-8.1648 855.1055 1.1265
-26.1360 702.9200 -24.0783
-2.0380 693.1125 -37.6363
6.6176 674.2800 -9.3217
7.9011 673.2745 -2.6662
9.0000 674.0000 0.0000
55.1543 665.0000 55.1543
0.0000 665.0000 78.0000
-7.7782 849.0000 7.7782
-11.0000 849.0000 0.0000
-25.4558 693.0000 -25.4558
0.0000 693.0000 -36.0000
6.3640 674.0000 -6.3640
12.3088 673.4240 3.6848
53.5287 663.8075 59.1662
-2.7171 676.7760 74.4661
-8.2343 857.1540 4.5509
-12.1702 839.0160 -1.8967
-24.4408 686.7675 -27.2950
1.4264 691.7840 -34.5590
6.5827 673.2710 -5.0046
17.0666 672.6320 8.4252
49.8492 661.4800 63.2803
-4.6606 692.9680 68.9129
-8.5344 863.2720 2.5090
-13.8108 825.2880 -4.1984
-22.6136 683.3200 -29.1619
2.5543 690.1120 -32.2720
6.4335 672.9280 -4.3824
22.8389 671.6780 13.9779
44.5619 658.5425 67.3143
-5.9591 712.4720 61.8069
-8.7257 867.4380 1.4120
-15.7683 808.7520 -6.8072
-20.1512 682.1325 -30.9808
3.4299 688.0980 -29.3294
6.0579 672.8870 -4.2812
29.1912 670.6160 20.0996
38.1128 655.5200 71.0861
-6.7411 734.1840 53.6148
-8.8557 869.7360 1.0195
-17.8892 790.3440 -9.6253
-17.2307 682.6800 -32.6758
4.0991 685.8560 -25.9215
5.5979 673.0640 -4.4847
35.6891 669.5000 26.5471
30.9479 652.9375 74.4132
-7.1349 757.0000 44.8031
-8.9717 870.2500 1.0912
-20.0203 771.0000 -12.5550
-14.0292 684.4375 -34.1712
4.6082 683.5000 -22.2387
5.1951 673.3750 -4.7769
41.8979 668.3840 33.0769
23.5135 651.3200 77.1134
-7.2690 779.8160 35.8382
-9.1211 869.0640 1.3868
-22.0079 751.6560 -15.4986
-10.7235 686.8800 -35.3911
5.0032 681.1440 -18.4714
4.9912 673.7360 -4.9414
47.3834 667.3220 39.4458
16.2554 651.1925 79.0045
-7.2720 801.5280 27.1867
-9.3513 866.2620 1.6658
-23.6987 733.2480 -18.3583
-7.4907 689.4825 -36.2597
5.3302 678.9020 -14.8100
5.1280 674.0630 -4.7622
51.7109 666.3680 45.4106
9.6197 653.0800 79.9041
-7.2722 821.0320 19.3152
-9.7096 861.9280 1.6879
-24.9393 716.7120 -21.0362
-4.5079 691.7200 -36.7013
5.6352 676.8880 -11.4446
5.7473 674.2720 -4.0230
54.4461 665.5760 50.7278
4.0526 657.5075 79.6301
-7.3981 837.2240 12.6902
-10.2433 856.1460 1.2128
-25.5761 702.9840 -23.4346
-1.9520 693.0675 -36.6400
5.9645 675.2160 -8.5659
6.9907 674.2790 -2.5077
9.0000 674.0000 0.0000
55.8614 665.0000 55.8614
0.0000 665.0000 79.0000
-7.7782 849.0000 7.7782
-11.0000 849.0000 0.0000
-25.4558 693.0000 -25.4558
0.0000 693.0000 -36.0000
6.3640 674.0000 -6.3640
12.3573 673.4240 3.7287
54.2192 663.8075 59.9252
-2.7457 676.7760 75.4139
-8.2343 857.1540 4.5104
-12.1702 839.0160 -1.8967
-24.4408 686.7675 -27.2950
1.4264 691.7840 -34.5590
6.5795 673.2710 -5.0078
17.1854 672.6320 8.5280
50.4941 661.4800 64.0932
-4.7059 692.9680 69.7796
-8.5344 863.2720 2.4450
-13.8108 825.2880 -4.1984
-22.6136 683.3200 -29.1619
2.5543 690.1120 -32.2720
6.4221 672.9280 -4.3937
23.0436 671.6780 14.1511
45.1385 658.5425 68.1805
-6.0111 712.4720 62.5705
-8.7257 867.4380 1.3385
-15.7683 808.7520 -6.8072
-20.1512 682.1325 -30.9808
3.4299 688.0980 -29.3294
6.0357 672.8870 -4.3034
29.4910 670.6160 20.3515
38.6049 655.5200 72.0022
-6.7920 734.1840 54.2599
-8.8557 869.7360 0.9475
-17.8892 790.3440 -9.6253
-17.2307 682.6800 -32.6758
4.0991 685.8560 -25.9215
5.5640 673.0640 -4.5187
36.0868 669.5000 26.8823
31.3457 652.9375 75.3734
-7.1791 757.0000 45.3214
-8.9717 870.2500 1.0287
-20.0203 771.0000 -12.5550
-14.0292 684.4375 -34.1712
4.6082 683.5000 -22.2387
5.1509 673.3750 -4.8211
42.3901 668.3840 33.4970
23.8133 651.3200 78.1092
-7.3030 779.8160 36.2283
-9.1211 869.0640 1.3388
-22.0079 751.6560 -15.4986
-10.7235 686.8800 -35.3911
5.0032 681.1440 -18.4714
4.9403 673.7360 -4.9923
47.9600 667.3220 39.9490
16.4601 651.1925 80.0247
-7.2942 801.5280 27.4540
-9.3513 866.2620 1.6343
-23.6987 733.2480 -18.3583
-7.4907 689.4825 -36.2597
5.3302 678.9020 -14.8100
5.0761 674.0630 -4.8142
52.3558 666.3680 45.9915
9.7385 653.0800 80.9349
-7.2835 821.0320 19.4719
-9.7096 861.9280 1.6719
-24.9393 716.7120 -21.0362
-4.5079 691.7200 -36.7013
5.6352 676.8880 -11.4446
5.7020 674.2720 -4.0683
55.1366 665.5760 51.3778
4.1010 657.5075 80.6550
-7.4013 837.2240 12.7555
-10.2433 856.1460 1.2083
-25.5761 702.9840 -23.4346
-1.9520 693.0675 -36.6400
5.9645 675.2160 -8.5659
6.9620 674.2790 -2.5363
10.0000 674.0000 0.0000
56.5685 665.0000 56.5685
0.0000 665.0000 80.0000
-7.0711 849.0000 7.0711
-10.0000 849.0000 0.0000
-24.7487 693.0000 -24.7487
0.0000 693.0000 -35.0000
7.0711 674.0000 -7.0711
13.3536 673.4240 3.8013
54.8660 663.8075 60.6874
-2.7304 676.7760 76.3133
-7.4785 857.1540 3.7763
-11.1739 839.0160 -1.8242
-23.7940 686.7675 -26.5328
1.4417 691.7840 -33.6595
7.3353 673.2710 -5.7420
18.1710 672.6320 8.6761
51.0636 661.4800 64.9174
-4.6483 692.9680 70.5276
-7.7328 863.2720 1.7248
-12.8252 825.2880 -4.0503
-22.0440 683.3200 -28.3377
2.6119 690.1120 -31.5240
7.2237 672.9280 -5.1139
24.0119 671.6780 14.3763
45.6194 658.5425 69.0689
-5.8899 712.4720 63.1293
-7.8819 867.4380 0.6660
-14.8000 808.7520 -6.5820
-19.6703 682.1325 -30.0924
3.5511 688.0980 -28.7705
6.8795 672.8870 -4.9759
30.4359 670.6160 20.6542
38.9911 655.5200 72.9523
-6.5911 734.1840 54.6052
-7.9735 869.7360 0.3494
-16.9443 790.3440 -9.3226
-16.8445 682.6800 -31.7257
4.3000 685.8560 -25.5762
6.4462 673.0640 -5.1168
37.0029 669.5000 27.2617
31.6367 652.9375 76.3779
-6.8880 757.0000 45.4419
-8.0557 870.2500 0.5243
-19.1042 771.0000 -12.1756
-13.7381 684.4375 -33.1667
4.8993 683.5000 -22.1182
6.0669 673.3750 -5.3255
43.2723 668.3840 33.9511
24.0142 651.3200 79.1559
-6.9168 779.8160 36.1262
-8.1762 869.0640 0.9400
-21.1257 751.6560 -15.0445
-10.5226 686.8800 -34.3443
5.3894 681.1440 -18.5735
5.8852 673.7360 -5.3911
48.8039 667.3220 40.4744
16.5813 651.1925 81.0969
-6.8134 801.5280 27.1445
-8.3830 866.2620 1.3461
-22.8549 733.2480 -17.8328
-7.3695 689.4825 -35.1875
5.8110 678.9020 -15.1194
6.0443 674.0630 -5.1024
53.1574 666.3680 46.5836
9.7961 653.0800 82.0110
-6.7139 821.0320 18.9837
-8.7240 861.9280 1.4919
-24.1377 716.7120 -20.4440
-4.4503 691.7200 -35.6252
6.2048 676.8880 -11.9328
6.6876 674.2720 -4.2483
55.8924 665.5760 52.0310
4.1163 657.5075 81.7086
-6.7545 837.2240 12.1303
-9.2470 856.1460 1.1267
-24.8203 702.9840 -22.7815
-1.9367 693.0675 -35.5864
6.6113 675.2160 -9.1910
7.9583 674.2790 -2.6179
10.0000 674.0000 0.0000
57.2756 665.0000 57.2756
0.0000 665.0000 81.0000
-6.3640 849.0000 6.3640
-9.0000 849.0000 0.0000
-26.1630 694.0000 -26.1630
0.0000 694.0000 -37.0000
7.0711 674.0000 -7.0711
13.4020 673.4240 3.8453
55.5533 663.8075 61.4495
-2.7151 676.7760 77.2128
-6.7132 857.1495 3.0516
-10.3229 839.0800 -1.8834
-25.2154 687.8125 -28.0508
1.4990 692.7200 -35.5553
7.3322 673.2305 -5.6641
18.2898 672.6320 8.7789
51.6972 661.4800 65.7416
-4.5908 692.9680 71.2755
-6.8973 863.2560 1.0385
-12.1961 825.4400 -4.2107
-23.3977 684.4000 -29.9635
2.7024 690.9600 -33.2575
7.2124 672.8640 -4.9972
24.2166 671.6780 14.5495
46.1738 658.5425 69.9573
-5.7686 712.4720 63.6881
-6.9712 867.4065 0.0604
-14.4459 809.0100 -6.8764
-20.8971 683.2375 -31.8246
3.6551 688.8400 -30.2976
6.8573 672.8135 -4.8511
30.7358 670.6160 20.9060
39.4493 655.5200 73.9024
-6.3902 734.1840 54.9505
-6.9895 869.6880 -0.1469
-16.8989 790.7200 -9.7753
-17.9008 683.8000 -33.5580
4.4019 686.4800 -26.8664
6.4122 672.9920 -5.0067
37.4006 669.5000 27.5970
31.9903 652.9375 77.3823
-6.5970 757.0000 45.5625
-7.0070 870.1875 0.1524
-19.3814 771.5000 -12.8019
-14.5961 685.5625 -35.0872
4.9877 684.0000 -23.1548
6.0227 673.3125 -5.2447
43.7644 668.3840 34.3713
24.2631 651.3200 80.2027
-6.5305 779.8160 36.0241
-7.0786 868.9920 0.6941
-21.7199 752.2800 -15.8509
-11.1702 688.0000 -36.3360
5.4573 681.5200 -19.3536
5.8343 673.6880 -5.3460
49.3806 667.3220 40.9775
16.7341 651.1925 82.1690
-6.3325 801.5280 26.8351
-7.2589 866.1885 1.2138
-23.7409 733.9900 -18.8169
-7.8104 690.5875 -37.2280
5.8556 679.1600 -15.6538
5.9923 674.0315 -5.0913
53.8023 666.3680 47.1645
9.8696 653.0800 83.0870
-6.1443 821.0320 18.4955
-7.6027 861.8640 1.4476
-25.2708 717.5600 -21.5944
-4.7039 692.8000 -37.6868
6.2274 677.0400 -12.2462
6.6423 674.2560 -4.2616
56.5829 665.5760 52.6810
4.1361 657.5075 82.7621
-6.1076 837.2240 11.5052
-8.1648 856.1055 1.1310
-26.1360 703.9200 -24.0783
-2.0380 694.1125 -37.6363
6.6176 675.2800 -9.3217
7.9297 674.2745 -2.6375
9.0000 675.0000 0.0000
55.1543 666.0000 55.1543
0.0000 666.0000 78.0000
-6.3640 849.0000 6.3640
-9.0000 849.0000 0.0000
-25.4558 694.0000 -25.4558
0.0000 694.0000 -36.0000
6.3640 675.0000 -6.3640
12.3088 674.4240 3.6848
53.5223 664.8120 59.1726
-2.6292 677.7120 74.3692
-6.7164 857.1090 3.1700
-10.2745 839.0800 -1.8395
-24.5218 687.8080 -27.2950
1.4264 692.7840 -34.5590
6.5827 674.2710 -5.0046
17.0666 673.6320 8.4252
49.8266 662.4960 63.3029
-4.4550 693.8160 68.6753
-6.9086 863.1920 1.2192
-12.0773 825.4400 -4.1079
-22.7416 684.3840 -29.1619
2.5543 691.1120 -32.2720
6.4335 673.9280 -4.3824
22.8389 672.6780 13.9779
44.5173 659.5740 67.3589
-5.6127 713.2140 61.3975
-6.9935 867.3330 0.2587
-14.2412 809.0100 -6.7032
-20.2982 683.2060 -30.9808
3.4299 689.0980 -29.3294
6.0579 673.8870 -4.2812
29.1912 671.6160 20.0996
38.0449 656.5680 71.1539
-6.2374 734.8080 53.0152
-7.0234 869.6160 0.0352
-16.5991 790.7200 -9.5235
-17.3747 683.7520 -32.6758
4.0991 686.8560 -25.9215
5.5979 674.0640 -4.4847
35.6891 670.5000 26.5471
30.8596 654.0000 74.5016
-6.4644 757.5000 44.0076
-7.0512 870.1250 0.2957
-18.9837 771.5000 -12.4667
-14.1542 685.5000 -34.1712
4.6082 684.5000 -22.2387
5.1951 674.3750 -4.7769
41.8979 669.3840 33.0769
23.4116 652.3920 77.2152
-6.4287 780.1920 34.8539
-7.1295 868.9440 0.7871
-21.2278 752.2800 -15.4307
-10.8195 687.9280 -35.3911
5.0032 682.1440 -18.4714
4.9912 674.7360 -4.9414
47.3834 668.3220 39.4458
16.1514 652.2660 79.1084
-6.2657 801.7860 26.0334
-7.3109 866.1570 1.2564
-23.1643 733.9900 -18.3137
-7.5537 690.5140 -36.2597
5.3302 679.9020 -14.8100
5.1280 675.0630 -4.7622
51.7109 667.3680 45.4106
9.5292 654.1440 79.9946
-6.1104 821.1840 18.0255
-7.6480 861.8480 1.4503
-24.6259 717.5600 -21.0136
-4.5399 692.7360 -36.7013
5.6352 677.8880 -11.4446
5.7473 675.2720 -4.0230
54.4461 666.5760 50.7278
3.9953 658.5480 79.6873
-6.0981 837.2880 11.3092
-8.1935 856.1010 1.1159
-25.4455 703.9200 -23.4283
-1.9610 694.0720 -36.6400
5.9645 676.2160 -8.5659
6.9907 675.2790 -2.5077
10.0000 675.0000 0.0000
55.8614 666.0000 55.8614
0.0000 666.0000 79.0000
-7.7782 850.0000 7.7782
-11.0000 850.0000 0.0000
-24.7487 694.0000 -24.7487
0.0000 694.0000 -35.0000
7.0711 675.0000 -7.0711
13.3051 674.4240 3.7574
54.1787 664.8075 59.9252
-2.7457 677.7760 75.4139
-8.2375 858.1540 4.5073
-12.1218 840.0160 -1.8528
-23.7535 687.7675 -26.5328
1.4417 692.7840 -33.6595
7.3385 674.2710 -5.7388
18.0522 673.6320 8.5733
50.4301 662.4800 64.0932
-4.7059 693.9680 69.7796
-8.5457 864.2720 2.4337
-13.6920 826.2880 -4.0956
-21.9800 684.3200 -28.3377
2.6119 691.1120 -31.5240
7.2350 673.9280 -5.1026
23.8072 672.6780 14.2031
45.0650 659.5425 68.1805
-6.0111 713.4720 62.5705
-8.7480 868.4380 1.3162
-15.5636 809.7520 -6.6340
-19.5968 683.1325 -30.0924
3.5511 689.0980 -28.7705
6.9018 673.8870 -4.9536
30.1361 671.6160 20.4024
38.5329 656.5200 72.0022
-6.7920 735.1840 54.2599
-8.8897 870.7360 0.9135
-17.5894 791.3440 -9.3735
-16.7725 683.6800 -31.7257
4.3000 686.8560 -25.5762
6.4801 674.0640 -5.0828
36.6051 670.5000 26.9265
31.2832 653.9375 75.3734
-7.1791 758.0000 45.3214
-9.0159 871.2500 0.9845
-19.6225 772.0000 -12.2198
-13.6756 685.4375 -33.1667
4.8993 684.5000 -22.1182
6.1111 674.3750 -5.2813
42.7801 669.3840 33.5310
23.7653 652.3200 78.1092
-7.3030 780.8160 36.2283
-9.1720 870.0640 1.2879
-21.5158 752.6560 -15.0785
-10.4746 687.8800 -34.3443
5.3894 682.1440 -18.5735
5.9361 674.7360 -5.3402
48.2273 668.3220 39.9712
16.4286 652.1925 80.0247
-7.2942 802.5280 27.4540
-9.4032 867.2620 1.5823
-23.1221 734.2480 -17.8551
-7.3380 690.4825 -35.1875
5.8110 679.9020 -15.1194
6.0963 675.0630 -5.0504
52.5125 667.3680 46.0028
9.7225 654.0800 80.9349
-7.2835 822.0320 19.4719
-9.7548 862.9280 1.6267
-24.2944 717.7120 -20.4553
-4.4343 692.7200 -35.6252
6.2048 677.8880 -11.9328
6.7328 675.2720 -4.2031
55.2019 666.5760 51.3810
4.0965 658.5075 80.6550
-7.4013 838.2240 12.7555
-10.2720 857.1460 1.1796
-24.8856 703.9840 -22.7846
-1.9322 694.0675 -35.5864
6.6113 676.2160 -9.1910
7.9870 675.2790 -2.5893
10.0000 675.0000 0.0000
56.5685 666.0000 56.5685
0.0000 666.0000 80.0000
-7.7782 850.0000 7.7782
-11.0000 850.0000 0.0000
-25.4558 695.0000 -25.4558
0.0000 695.0000 -36.0000
7.0711 675.0000 -7.0711
13.3536 674.4240 3.8013
54.8692 664.8075 60.6842
-2.7743 677.7760 76.3618
-8.2343 858.1495 4.4699
-12.1702 840.0800 -1.8967
-24.4440 688.8125 -27.2918
1.4703 693.7200 -34.6074
7.3353 674.2305 -5.7015
18.1710 673.6320 8.6761
51.0750 662.4800 64.9061
-4.7511 693.9680 70.6463
-8.5344 864.2560 2.3810
-13.8108 826.4400 -4.1984
-22.6249 685.4000 -29.1506
2.6571 691.9600 -32.3908
7.2237 673.8640 -5.0499
24.0119 672.6780 14.3763
45.6417 659.5425 69.0466
-6.0631 713.4720 63.3340
-8.7257 868.4065 1.2650
-15.7683 810.0100 -6.8072
-20.1735 684.2375 -30.9585
3.6031 689.8400 -29.5341
6.8795 673.8135 -4.9024
30.4359 671.6160 20.6542
39.0251 656.5200 72.9184
-6.8429 735.1840 54.9050
-8.8557 870.6880 0.8755
-17.8892 791.7200 -9.6253
-17.2647 684.8000 -32.6419
4.3510 687.4800 -26.2213
6.4462 673.9920 -5.0448
37.0029 670.5000 27.2617
31.6809 653.9375 76.3337
-7.2233 758.0000 45.8397
-8.9717 871.1875 0.9662
-20.0203 772.5000 -12.5550
-14.0734 686.5625 -34.1270
4.9435 685.0000 -22.6365
6.0669 674.3125 -5.2630
43.2723 669.3840 33.9511
24.0651 652.3200 79.1050
-7.3369 780.8160 36.6183
-9.1211 869.9920 1.2908
-22.0079 753.2800 -15.4986
-10.7744 689.0000 -35.3402
5.4233 682.5200 -18.9636
5.8852 674.6880 -5.3431
48.8039 668.3220 40.4744
16.6333 652.1925 81.0449
-7.3165 802.5280 27.7212
-9.3513 867.1885 1.6028
-23.6987 734.9900 -18.3583
-7.5427 691.5875 -36.2077
5.8333 680.1600 -15.3866
6.0443 675.0315 -5.0709
53.1574 667.3680 46.5836
9.8413 654.0800 81.9657
-7.2948 822.0320 19.6286
-9.7096 862.8640 1.6559
-24.9393 718.5600 -21.0362
-4.5531 693.8000 -36.6560
6.2161 678.0400 -12.0895
6.6876 675.2560 -4.2323
55.8924 666.5760 52.0310
4.1450 658.5075 81.6799
-7.4044 838.2240 12.8208
-10.2433 857.1055 1.2038
-25.5761 704.9200 -23.4346
-1.9806 695.1125 -36.6113
6.6144 676.2800 -9.2563
7.9583 675.2745 -2.6134
9.0000 676.0000 0.0000
57.2756 666.0000 57.2756
0.0000 666.0000 81.0000
-7.0711 850.0000 7.0711
-10.0000 850.0000 0.0000
-24.7487 695.0000 -24.7487
0.0000 695.0000 -35.0000
6.3640 676.0000 -6.3640
12.4541 675.3600 3.8166
55.5970 664.7670 61.4464
-2.7590 677.7760 77.2612
-7.4785 858.1495 3.7358
-11.1739 840.0800 -1.8242
-23.7908 688.8080 -26.5360
1.3978 693.7840 -33.6111
6.5732 675.2755 -5.0546
17.4230 674.4800 8.7336
51.7725 662.4160 65.7303
-4.6936 693.9680 71.3943
-7.7328 864.2560 1.6608
-12.8252 826.4400 -4.0503
-22.0327 685.3840 -28.3490
2.5091 692.1120 -31.4052
6.3995 674.9440 -4.4803
23.4530 673.4200 14.4976
46.2695 659.4690 69.9351
-5.9418 713.4720 63.8928
-7.8819 868.4065 0.5925
-14.8000 810.0100 -6.5820
-19.6481 684.2060 -30.1146
3.3779 690.0980 -28.5658
5.9911 674.9185 -4.4215
30.0907 672.2400 20.8551
39.5553 656.4480 73.8684
-6.6420 735.1840 55.2503
-7.9735 870.6880 0.2774
-16.9443 791.7200 -9.3226
-16.8106 684.7520 -31.7597
4.0482 687.8560 -25.2764
5.4961 675.1120 -4.6585
36.8823 671.0000 27.5528
32.0970 653.8750 77.3381
-6.9322 758.0000 45.9602
-8.0557 871.1875 0.4618
-19.1042 772.5000 -12.1756
-13.6939 686.5000 -33.2109
4.5640 685.5000 -21.7204
5.0625 675.4375 -4.9720
43.3744 669.7600 34.3373
24.3620 652.2720 80.1518
-6.9507 780.8160 36.5162
-8.1762 869.9920 0.8920
-21.1257 753.2800 -15.0445
-10.4717 688.9280 -34.3953
4.9693 683.1440 -18.0814
4.8385 675.8080 -5.1422
49.1133 668.5800 40.9553
16.8175 652.1610 82.1171
-6.8356 802.5280 27.4118
-8.3830 867.1885 1.3146
-22.8549 734.9900 -17.8328
-7.3175 691.5140 -35.2395
5.3079 680.9020 -14.5427
4.9721 676.1365 -4.9496
53.6456 667.5200 47.1532
9.9309 654.0640 83.0418
-6.7252 822.0320 19.1404
-8.7240 862.8640 1.4759
-24.1377 718.5600 -20.4440
-4.4051 693.7360 -35.6705
5.6239 678.8880 -11.2880
5.6115 676.3360 -4.1748
56.5175 666.6400 52.6778
4.1693 658.5030 82.7335
-6.7576 838.2240 12.1957
-9.2470 857.1055 1.1222
-24.8203 704.9200 -22.7815
-1.9080 695.0720 -35.6150
5.9613 677.2160 -8.5005
6.9048 676.3195 -2.5981
10.0000 676.0000 0.0000
55.1543 667.0000 55.1543
0.0000 667.0000 78.0000
-6.3640 850.0000 6.3640
-9.0000 850.0000 0.0000
-24.7487 695.0000 -24.7487
0.0000 695.0000 -35.0000
7.0711 676.0000 -7.0711
13.2567 675.4240 3.7134
53.4818 665.8120 59.1726
-2.6292 678.7120 74.3692
-6.7195 858.1090 3.1668
-10.2260 840.0800 -1.7955
-23.8345 688.8080 -26.5328
1.4417 693.7840 -33.6595
7.3417 675.2710 -5.7356
17.9334 674.6320 8.4705
49.7626 663.4960 63.3029
-4.4550 694.8160 68.6753
-6.9200 864.1920 1.2079
-11.9585 826.4400 -4.0051
-22.1080 685.3840 -28.3377
2.6119 692.1120 -31.5240
7.2463 674.9280 -5.0913
23.6025 673.6780 14.0299
44.4438 660.5740 67.3589
-5.6127 714.2140 61.3975
-7.0157 868.3330 0.2364
-14.0365 810.0100 -6.5300
-19.7438 684.2060 -30.0924
3.5511 690.0980 -28.7705
6.9241 674.8870 -4.9313
29.8363 672.6160 20.1506
37.9729 657.5680 71.1539
-6.2374 735.8080 53.0152
-7.0574 870.6160 0.0013
-16.2993 791.7200 -9.2717
-16.9165 684.7520 -31.7257
4.3000 687.8560 -25.5762
6.5141 675.0640 -5.0489
36.2074 671.5000 26.5913
30.7971 655.0000 74.5016
-6.4644 758.5000 44.0076
-7.0954 871.1250 0.2515
-18.5859 772.5000 -12.1314
-13.8006 686.5000 -33.1667
4.8993 685.5000 -22.1182
6.1553 675.3750 -5.2371
42.2880 670.3840 33.1108
23.3636 653.3920 77.2152
-6.4287 781.1920 34.8539
-7.1804 869.9440 0.7362
-20.7357 753.2800 -15.0106
-10.5706 688.9280 -34.3443
5.3894 683.1440 -18.5735
5.9870 675.7360 -5.2892
47.6506 669.3220 39.4681
16.1199 653.2660 79.1084
-6.2657 802.7860 26.0334
-7.3628 867.1570 1.2044
-22.5876 734.9900 -17.8106
-7.4010 691.5140 -35.1875
5.8110 680.9020 -15.1194
6.1482 676.0630 -4.9984
51.8676 668.3680 45.4219
9.5132 655.1440 79.9946
-6.1104 822.1840 18.0255
-7.6932 862.8480 1.4051
-23.9810 718.5600 -20.4327
-4.4663 693.7360 -35.6252
6.2048 678.8880 -11.9328
6.7781 676.2720 -4.1578
54.5114 667.5760 50.7310
3.9908 659.5480 79.6873
-6.0981 838.2880 11.3092
-8.2221 857.1010 1.0873
-24.7550 704.9200 -22.7783
-1.9412 695.0720 -35.5864
6.6113 677.2160 -9.1910
8.0156 676.2790 -2.5606
10.0000 676.0000 0.0000
55.8614 667.0000 55.8614
0.0000 667.0000 79.0000
-6.3640 850.0000 6.3640
-9.0000 850.0000 0.0000
-24.0416 695.0000 -24.0416
0.0000 695.0000 -34.0000
7.0711 676.0000 -7.0711
13.3051 675.4240 3.7574
54.1723 665.8120 59.9316
-2.6578 678.7120 75.3170
-6.7227 858.1090 3.1231
-10.1776 840.0800 -1.7516
-23.1440 688.8080 -25.7738
1.4131 693.7840 -32.7117
7.3385 675.2710 -5.7793
18.0522 674.6320 8.5733
50.4075 663.4960 64.1158
-4.5003 694.8160 69.5420
-6.9313 864.1920 1.1326
-11.8397 826.4400 -3.9023
-21.4631 685.3840 -27.5248
2.5666 692.1120 -30.6573
7.2350 674.9280 -5.1666
23.8072 673.6780 14.2031
45.0205 660.5740 68.2250
-5.6647 714.2140 62.1611
-7.0380 868.3330 0.1406
-13.8318 810.0100 -6.3568
-19.1672 684.2060 -29.2262
3.4991 690.0980 -28.0070
6.9018 674.8870 -5.0271
30.1361 672.6160 20.4024
38.4650 657.5680 72.0701
-6.2883 735.8080 53.6603
-7.0913 870.6160 -0.1047
-15.9994 791.7200 -9.0199
-16.4244 684.7520 -30.8096
4.2491 687.8560 -24.9311
6.4801 675.0640 -5.1548
36.6051 671.5000 26.9265
31.1948 655.0000 75.4618
-6.5086 758.5000 44.5259
-7.1396 871.1250 0.1448
-18.1882 772.5000 -11.7962
-13.4029 686.5000 -32.2065
4.8551 685.5000 -21.5999
6.1111 675.3750 -5.3438
42.7801 670.3840 33.5310
23.6635 653.3920 78.2110
-6.4627 781.1920 35.2440
-7.2313 869.9440 0.6373
-20.2435 753.2800 -14.5904
-10.2708 688.9280 -33.3485
5.3555 683.1440 -18.1835
5.9361 675.7360 -5.3882
48.2273 669.3220 39.9712
16.3246 653.2660 80.1286
-6.2879 802.7860 26.3007
-7.4148 867.1570 1.1209
-22.0110 734.9900 -17.3074
-7.1963 691.5140 -34.1673
5.7888 680.9020 -14.8521
6.0963 676.0630 -5.0819
52.5125 668.3680 46.0028
9.6320 655.1440 81.0254
-6.1217 822.1840 18.1821
-7.7385 862.8480 1.3438
-23.3361 718.5600 -19.8518
-4.3475 693.7360 -34.5944
6.1935 678.8880 -11.7761
6.7328 676.2720 -4.2191
55.2019 667.5760 51.3810
4.0392 659.5480 80.7123
-6.1013 838.2880 11.3745
-8.2507 857.1010 1.0541
-24.0645 704.9200 -22.1283
-1.8927 695.0720 -34.5615
6.6081 677.2160 -9.1257
7.9870 676.2790 -2.5938
8.0000 677.0000 0.0000
56.5685 667.0000 56.5685
0.0000 667.0000 80.0000
-7.7782 851.0000 7.7782
-11.0000 851.0000 0.0000
-23.3345 695.0000 -23.3345
0.0000 695.0000 -33.0000
5.6569 677.0000 -5.6569
11.4578 676.3600 3.7440
54.9502 665.7670 60.6842
-2.7743 678.7760 76.3618
-8.2439 859.1540 4.4604
-12.0249 841.0160 -1.7649
-22.3661 688.7630 -25.0212
1.2965 693.8480 -31.6669
5.8174 676.3160 -4.4420
16.4375 675.4800 8.5856
51.2030 663.4160 64.9061
-4.7511 694.9680 70.6463
-8.5683 865.2720 2.3470
-13.4544 827.2880 -3.8900
-20.6676 685.3040 -26.7346
2.3158 692.2640 -29.5529
5.5980 676.0080 -3.9521
22.4848 674.4200 14.2724
45.7887 660.4690 69.0466
-6.0631 714.4720 63.3340
-8.7926 869.4380 1.1981
-15.1541 810.7520 -6.2875
-18.3990 684.1010 -28.4046
3.1007 690.3560 -26.8341
5.1473 675.9920 -3.9696
29.1458 673.2400 20.5524
39.1691 657.4480 72.9184
-6.8429 736.1840 54.9050
-8.9576 871.7360 0.7737
-16.9898 792.3440 -8.8699
-15.7204 684.6320 -29.9613
3.6946 688.2320 -23.6864
4.6139 676.1840 -4.2765
35.9663 672.0000 27.1734
31.8059 654.8750 76.3337
-7.2233 759.0000 45.8397
-9.1043 872.2500 0.8336
-18.8270 773.0000 -11.5493
-12.7917 686.3750 -31.3346
4.1404 686.0000 -20.2861
4.1464 676.5000 -4.6550
42.4922 670.7600 33.8832
24.1611 653.2720 79.1050
-7.3369 781.8160 36.6183
-9.2739 871.0640 1.1380
-20.5315 753.6560 -14.2382
-9.7731 688.8080 -32.4545
4.4812 683.7680 -16.8091
3.8936 676.8560 -4.8874
48.2695 669.5800 40.4298
16.6963 653.1610 81.0449
-7.3165 803.5280 27.7212
-9.5072 868.2620 1.4469
-21.9688 735.2480 -16.8488
-6.8246 691.4090 -33.2511
4.7602 681.6440 -13.4316
4.0039 677.1680 -4.7559
52.8440 668.5200 46.5610
9.8733 655.0640 81.9657
-7.2948 823.0320 19.6286
-9.8453 863.9280 1.5201
-23.0046 718.7120 -19.2935
-4.1062 693.6560 -33.6542
5.0204 679.7360 -10.3297
4.6260 677.3520 -4.0427
55.7617 667.6400 52.0246
4.1540 659.5030 81.6799
-7.4044 839.2240 12.8208
-10.3293 858.1460 1.1179
-23.5047 704.9840 -21.4847
-1.7780 695.0270 -33.5938
5.3049 678.1520 -7.6794
5.9085 677.3240 -2.5300
9.0000 677.0000 0.0000
55.1543 668.0000 55.1543
0.0000 668.0000 78.0000
-7.7782 851.0000 7.7782
-11.0000 851.0000 0.0000
-25.4558 696.0000 -25.4558
0.0000 696.0000 -36.0000
6.3640 677.0000 -6.3640
12.3088 676.4240 3.6848
53.5287 666.8120 59.1662
-2.7171 679.7120 74.4661
-8.2343 859.1090 4.5509
-12.1702 841.0800 -1.8967
-24.4408 689.8080 -27.2950
1.4264 694.7840 -34.5590
6.5827 676.2710 -5.0046
17.0666 675.6320 8.4252
49.8492 664.4960 63.2803
-4.6606 695.8160 68.9129
-8.5344 865.1920 2.5090
-13.8108 827.4400 -4.1984
-22.6136 686.3840 -29.1619
2.5543 693.1120 -32.2720
6.4335 675.9280 -4.3824
22.8389 674.6780 13.9779
44.5619 661.5740 67.3143
-5.9591 715.2140 61.8069
-8.7257 869.3330 1.4120
-15.7683 811.0100 -6.8072
-20.1512 685.2060 -30.9808
3.4299 691.0980 -29.3294
6.0579 675.8870 -4.2812
29.1912 673.6160 20.0996
38.1128 658.5680 71.0861
-6.7411 736.8080 53.6148
-8.8557 871.6160 1.0195
-17.8892 792.7200 -9.6253
-17.2307 685.7520 -32.6758
4.0991 688.8560 -25.9215
5.5979 676.0640 -4.4847
35.6891 672.5000 26.5471
30.9479 656.0000 74.4132
-7.1349 759.5000 44.8031
-8.9717 872.1250 1.0912
-20.0203 773.5000 -12.5550
-14.0292 687.5000 -34.1712
4.6082 686.5000 -22.2387
5.1951 676.3750 -4.7769
41.8979 671.3840 33.0769
23.5135 654.3920 77.1134
-7.2690 782.1920 35.8382
-9.1211 870.9440 1.3868
-22.0079 754.2800 -15.4986
-10.7235 689.9280 -35.3911
5.0032 684.1440 -18.4714
4.9912 676.7360 -4.9414
47.3834 670.3220 39.4458
16.2554 654.2660 79.0045
-7.2720 803.7860 27.1867
-9.3513 868.1570 1.6658
-23.6987 735.9900 -18.3583
-7.4907 692.5140 -36.2597
5.3302 681.9020 -14.8100
5.1280 677.0630 -4.7622
51.7109 669.3680 45.4106
9.6197 656.1440 79.9041
-7.2722 823.1840 19.3152
-9.7096 863.8480 1.6879
-24.9393 719.5600 -21.0362
-4.5079 694.7360 -36.7013
5.6352 679.8880 -11.4446
5.7473 677.2720 -4.0230
54.4461 668.5760 50.7278
4.0526 660.5480 79.6301
-7.3981 839.2880 12.6902
-10.2433 858.1010 1.2128
-25.5761 705.9200 -23.4346
-1.9520 696.0720 -36.6400
5.9645 678.2160 -8.5659
6.9907 677.2790 -2.5077
9.0000 677.0000 0.0000
55.8614 668.0000 55.8614
0.0000 668.0000 79.0000
-7.0711 851.0000 7.0711
-10.0000 851.0000 0.0000
-24.7487 696.0000 -24.7487
0.0000 696.0000 -35.0000
6.3640 677.0000 -6.3640
12.3573 676.4240 3.7287
54.2160 666.8120 59.9284
-2.7018 679.7120 75.3655
-7.4785 859.1090 3.8168
-11.1739 841.0800 -1.8242
-23.7908 689.8080 -26.5360
1.3978 694.7840 -33.6111
6.5795 676.2710 -5.0483
17.1854 675.6320 8.5280
50.4828 664.4960 64.1045
-4.6031 695.8160 69.6608
-7.7328 865.1920 1.7888
-12.8252 827.4400 -4.0503
-22.0327 686.3840 -28.3490
2.5091 693.1120 -31.4052
6.4221 675.9280 -4.4577
23.0436 674.6780 14.1511
45.1162 661.5740 68.2028
-5.8379 715.2140 62.3658
-7.8819 869.3330 0.7395
-14.8000 811.0100 -6.5820
-19.6481 685.2060 -30.1146
3.3779 691.0980 -28.5658
6.0357 675.8870 -4.3769
29.4910 673.6160 20.3515
38.5710 658.5680 72.0361
-6.5402 736.8080 53.9601
-7.9735 871.6160 0.4214
-16.9443 792.7200 -9.3226
-16.8106 685.7520 -31.7597
4.0482 688.8560 -25.2764
5.5640 676.0640 -4.5907
36.0868 672.5000 26.8823
31.3015 656.0000 75.4176
-6.8438 759.5000 44.9236
-8.0557 872.1250 0.5868
-19.1042 773.5000 -12.1756
-13.6939 687.5000 -33.2109
4.5640 686.5000 -21.7204
5.1509 676.3750 -4.8836
42.3901 671.3840 33.4970
23.7624 654.3920 78.1601
-6.8828 782.1920 35.7361
-8.1762 870.9440 0.9880
-21.1257 754.2800 -15.0445
-10.4717 689.9280 -34.3953
4.9693 684.1440 -18.0814
4.9403 676.7360 -5.0403
47.9600 670.3220 39.9490
16.4081 654.2660 80.0767
-6.7911 803.7860 26.8773
-8.3830 868.1570 1.3776
-22.8549 735.9900 -17.8328
-7.3175 692.5140 -35.2395
5.3079 681.9020 -14.5427
5.0761 677.0630 -4.8457
52.3558 669.3680 45.9915
9.6933 656.1440 80.9802
-6.7026 823.1840 18.8270
-8.7240 863.8480 1.5079
-24.1377 719.5600 -20.4440
-4.4051 694.7360 -35.6705
5.6239 679.8880 -11.2880
5.7020 677.2720 -4.0843
55.1366 668.5760 51.3778
4.0724 660.5480 80.6836
-6.7513 839.2880 12.0650
-9.2470 858.1010 1.1312
-24.8203 705.9200 -22.7815
-1.9080 696.0720 -35.6150
5.9613 678.2160 -8.5005
6.9620 677.2790 -2.5408
10.0000 677.0000 0.0000
56.5685 668.0000 56.5685
0.0000 668.0000 80.0000
-7.0711 851.0000 7.0711
-10.0000 851.0000 0.0000
-24.0416 696.0000 -24.0416
0.0000 696.0000 -34.0000
7.0711 677.0000 -7.0711
13.3536 676.4240 3.8013
54.8660 666.8120 60.6874
-2.7304 679.7120 76.3133
-7.4817 859.1090 3.7731
-11.1255 841.0800 -1.7802
-23.1035 689.8080 -25.7738
1.4131 694.7840 -32.7117
7.3353 676.2710 -5.7825
18.1710 675.6320 8.6761
51.0636 664.4960 64.9174
-4.6483 695.8160 70.5276
-7.7441 865.1920 1.7135
-12.7064 827.4400 -3.9475
-21.3991 686.3840 -27.5248
2.5666 693.1120 -30.6573
7.2237 675.9280 -5.1779
24.0119 674.6780 14.3763
45.6194 661.5740 69.0689
-5.8899 715.2140 63.1293
-7.9041 869.3330 0.6438
-14.5953 811.0100 -6.4088
-19.0937 685.2060 -29.2262
3.4991 691.0980 -28.0070
6.8795 675.8870 -5.0494
30.4359 673.6160 20.6542
38.9911 658.5680 72.9523
-6.5911 736.8080 54.6052
-8.0075 871.6160 0.3155
-16.6445 792.7200 -9.0708
-16.3524 685.7520 -30.8096
4.2491 688.8560 -24.9311
6.4462 676.0640 -5.1888
37.0029 672.5000 27.2617
31.6367 656.0000 76.3779
-6.8880 759.5000 45.4419
-8.0999 872.1250 0.4801
-18.7065 773.5000 -11.8404
-13.3404 687.5000 -32.2065
4.8551 686.5000 -21.5999
6.0669 676.3750 -5.3880
43.2723 671.3840 33.9511
24.0142 654.3920 79.1559
-6.9168 782.1920 36.1262
-8.2271 870.9440 0.8891
-20.6336 754.2800 -14.6244
-10.2228 689.9280 -33.3485
5.3555 684.1440 -18.1835
5.8852 676.7360 -5.4391
48.8039 670.3220 40.4744
16.5813 654.2660 81.0969
-6.8134 803.7860 27.1445
-8.4350 868.1570 1.2941
-22.2782 735.9900 -17.3297
-7.1648 692.5140 -34.1673
5.7888 681.9020 -14.8521
6.0443 677.0630 -5.1339
53.1574 669.3680 46.5836
9.7961 656.1440 82.0110
-6.7139 823.1840 18.9837
-8.7693 863.8480 1.4466
-23.4928 719.5600 -19.8631
-4.3315 694.7360 -34.5944
6.1935 679.8880 -11.7761
6.6876 677.2720 -4.2643
55.8924 668.5760 52.0310
4.1163 660.5480 81.7086
-6.7545 839.2880 12.1303
-9.2757 858.1010 1.0981
-24.1298 705.9200 -22.1315
-1.8882 696.0720 -34.5615
6.6081 678.2160 -9.1257
7.9583 677.2790 -2.6224
10.0000 677.0000 0.0000
55.1543 669.0000 55.1543
0.0000 669.0000 78.0000
-6.3640 851.0000 6.3640
-9.0000 851.0000 0.0000
-23.3345 696.0000 -23.3345
0.0000 696.0000 -33.0000
7.0711 677.0000 -7.0711
13.2567 676.4880 3.7134
53.4818 667.8570 59.1726
-2.6292 680.6480 74.3692
-6.7259 859.0685 3.1604
-10.1292 841.0800 -1.7077
-22.4535 689.8080 -25.0148
1.3844 694.7840 -31.7638
7.3417 676.2665 -5.8166
17.9334 675.7840 8.4705
49.7626 665.5760 63.3029
-4.4550 696.6640 68.6753
-6.9426 865.1280 1.1853
-11.7209 827.4400 -3.7995
-20.8182 686.3840 -26.7119
2.5213 693.1120 -29.7905
7.2463 675.9120 -5.2193
23.6025 674.9360 14.0299
44.4438 662.6790 67.3589
-5.6127 715.9560 61.3975
-7.0603 869.2595 0.1918
-13.6271 811.0100 -6.1836
-18.5905 685.2060 -28.3601
3.4472 691.0980 -27.2435
6.9241 675.8555 -5.0783
29.8363 673.9920 20.1506
37.9729 659.6880 71.1539
-6.2374 737.4320 53.0152
-7.1253 871.5440 -0.0666
-15.6996 792.7200 -8.7680
-15.9322 685.7520 -29.8934
4.1982 688.8560 -24.2860
6.5141 676.0160 -5.1929
36.2074 673.0000 26.5913
30.7971 657.1250 74.5016
-6.4644 760.0000 44.0076
-7.1838 872.0625 0.1631
-17.7904 773.5000 -11.4609
-13.0051 687.5000 -31.2462
4.8109 686.5000 -21.0816
6.1553 676.3125 -5.3621
42.2880 672.0080 33.1108
23.3636 655.5120 77.2152
-6.4287 782.5680 34.8539
-7.2822 870.8960 0.6344
-19.7514 754.2800 -14.1703
-9.9710 689.9280 -32.3527
5.3215 684.1440 -17.7934
5.9870 676.6640 -5.3852
47.6506 671.0640 39.4681
16.1199 655.3710 79.1084
-6.2657 804.0440 26.0334
-7.4668 868.1255 1.1005
-21.4343 735.9900 -16.8043
-6.9916 692.5140 -33.1471
5.7665 681.9020 -14.5849
6.1482 676.9895 -5.0614
51.8676 670.2160 45.4219
9.5132 657.2240 79.9946
-6.1104 823.3360 18.0255
-7.7837 863.8320 1.3146
-22.6913 719.5600 -19.2709
-4.2287 694.7360 -33.5637
6.1822 679.8880 -11.6195
6.7781 677.2080 -4.1898
54.5114 669.5120 50.7310
3.9908 661.5930 79.6873
-6.0981 839.3520 11.3092
-8.2794 858.0965 1.0300
-23.3740 705.9200 -21.4783
-1.8443 696.0720 -33.5365
6.6049 678.2160 -9.0604
8.0156 677.2385 -2.5696
9.0000 678.0000 0.0000
55.8614 669.0000 55.8614
0.0000 669.0000 79.0000
-7.7782 852.0000 7.7782
-11.0000 852.0000 0.0000
-22.6274 696.0000 -22.6274
0.0000 696.0000 -32.0000
6.3640 678.0000 -6.3640
12.3573 677.4240 3.7287
54.2192 667.8120 59.9252
-2.7457 680.7120 75.4139
-8.2471 860.1135 4.4977
-11.9765 842.0160 -1.7210
-21.6788 689.7630 -24.2590
1.3118 694.8480 -30.7675
6.5795 677.3115 -5.1698
17.1854 676.6320 8.5280
50.4941 665.4960 64.0932
-4.7059 696.8160 69.7796
-8.5797 866.2080 2.3997
-13.3356 828.2880 -3.7872
-20.0340 686.3040 -25.9104
2.3733 693.2640 -28.8050
6.4221 676.9920 -4.6497
23.0436 675.6780 14.1511
45.1385 662.5740 68.1805
-6.0111 716.2140 62.5705
-8.8148 870.3645 1.2494
-14.9494 811.7520 -6.1143
-17.8446 685.1010 -27.5162
3.2220 691.3560 -26.2753
6.0357 676.9605 -4.5974
29.4910 674.6160 20.3515
38.6049 659.5680 72.0022
-6.7920 737.8080 54.2599
-8.9915 872.6640 0.8117
-16.6900 793.3440 -8.6181
-15.2622 685.6320 -29.0112
3.8955 689.2320 -23.3411
5.5640 677.1360 -4.8067
36.0868 673.5000 26.8823
31.3457 657.0000 75.3734
-7.1791 760.5000 45.3214
-9.1485 873.1875 0.8519
-18.4293 774.0000 -11.2141
-12.4382 687.3750 -30.3302
4.4314 687.0000 -20.1655
5.1509 677.4375 -5.0711
42.3901 672.3840 33.4970
23.8133 655.3920 78.1092
-7.3030 783.1920 36.2283
-9.3248 872.0160 1.1351
-20.0393 754.6560 -13.8180
-9.5242 689.8080 -31.4078
4.8674 684.7680 -16.9112
4.9403 677.7840 -5.1843
47.9600 671.3220 39.9490
16.4601 655.2660 80.0247
-7.2942 804.7860 27.4540
-9.5592 869.2305 1.4264
-21.3921 736.2480 -16.3457
-6.6719 692.4090 -32.1789
5.2411 682.6440 -13.7410
5.0761 678.0945 -4.9402
52.3558 670.3680 45.9915
9.7385 657.1440 80.9349
-7.2835 824.1840 19.4719
-9.8906 864.9120 1.4909
-22.3598 719.7120 -18.7127
-4.0327 694.6560 -32.5781
5.5900 680.7360 -10.8179
5.7020 678.2880 -4.1323
55.1366 669.5760 51.3778
4.1010 661.5480 80.6550
-7.4013 840.2880 12.7555
-10.3579 859.1415 1.0937
-22.8142 705.9840 -20.8347
-1.7582 696.0270 -32.5402
5.9517 679.1520 -8.3046
6.9620 678.2835 -2.5543
10.0000 678.0000 0.0000
56.5685 669.0000 56.5685
0.0000 669.0000 80.0000
-7.7782 852.0000 7.7782
-11.0000 852.0000 0.0000
-22.6274 696.0000 -22.6274
0.0000 696.0000 -32.0000
7.0711 678.0000 -7.0711
13.3536 677.4240 3.8013
54.8692 667.8120 60.6842
-2.7743 680.7120 76.3618
-8.2471 860.1135 4.4572
-11.9765 842.0160 -1.7210
-21.6820 689.7630 -24.2559
1.3558 694.8480 -30.8160
7.3353 677.3115 -5.8635
18.1710 676.6320 8.6761
51.0750 665.4960 64.9061
-4.7511 696.8160 70.6463
-8.5797 866.2080 2.3357
-13.3356 828.2880 -3.7872
-20.0453 686.3040 -25.8991
2.4761 693.2640 -28.9238
7.2237 676.9920 -5.3059
24.0119 675.6780 14.3763
45.6417 662.5740 69.0466
-6.0631 716.2140 63.3340
-8.8148 870.3645 1.1759
-14.9494 811.7520 -6.1143
-17.8669 685.1010 -27.4939
3.3952 691.3560 -26.4800
6.8795 676.9605 -5.1964
30.4359 674.6160 20.6542
39.0251 659.5680 72.9184
-6.8429 737.8080 54.9050
-8.9915 872.6640 0.7397
-16.6900 793.3440 -8.6181
-15.2961 685.6320 -28.9773
4.1473 689.2320 -23.6410
6.4462 677.1360 -5.3328
37.0029 673.5000 27.2617
31.6809 657.0000 76.3337
-7.2233 760.5000 45.8397
-9.1485 873.1875 0.7894
-18.4293 774.0000 -11.2141
-12.4824 687.3750 -30.2860
4.7667 687.0000 -20.5633
6.0669 677.4375 -5.5130
43.2723 672.3840 33.9511
24.0651 655.3920 79.1050
-7.3369 783.1920 36.6183
-9.3248 872.0160 1.0871
-20.0393 754.6560 -13.8180
-9.5751 689.8080 -31.3569
5.2876 684.7680 -17.4033
5.8852 677.7840 -5.5351
48.8039 671.3220 40.4744
16.6333 655.2660 81.0449
-7.3165 804.7860 27.7212
-9.5592 869.2305 1.3949
-21.3921 736.2480 -16.3457
-6.7239 692.4090 -32.1269
5.7442 682.6440 -14.3177
6.0443 678.0945 -5.1969
53.1574 670.3680 46.5836
9.8413 657.1440 81.9657
-7.2948 824.1840 19.6286
-9.8906 864.9120 1.4749
-22.3598 719.7120 -18.7127
-4.0780 694.6560 -32.5329
6.1709 680.7360 -11.4628
6.6876 678.2880 -4.2963
55.8924 669.5760 52.0310
4.1450 661.5480 81.6799
-7.4044 840.2880 12.8208
-10.3579 859.1415 1.0892
-22.8142 705.9840 -20.8347
-1.7869 696.0270 -32.5116
6.6017 679.1520 -8.9951
7.9583 678.2835 -2.6314
10.0000 678.0000 0.0000
55.1543 670.0000 55.1543
0.0000 670.0000 78.0000
-7.0711 852.0000 7.0711
-10.0000 852.0000 0.0000
-24.7487 697.0000 -24.7487
0.0000 697.0000 -35.0000
7.0711 678.0000 -7.0711
13.2567 677.4880 3.7134
53.4850 668.8570 59.1694
-2.6731 681.6480 74.4176
-7.4785 860.0685 3.8573
-11.1739 842.0800 -1.8242
-23.7940 690.8080 -26.5328
1.4417 695.7840 -33.6595
7.3417 677.2665 -5.7356
17.9334 676.7840 8.4705
49.7739 666.5760 63.2916
-4.5578 697.6640 68.7941
-7.7328 866.1280 1.8528
-12.8252 828.4400 -4.0503
-22.0440 687.3840 -28.3377
2.6119 694.1120 -31.5240
7.2463 676.9120 -5.0913
23.6025 675.9360 14.0299
44.4661 663.6790 67.3366
-5.7859 716.9560 61.6022
-7.8819 870.2595 0.8130
-14.8000 812.0100 -6.5820
-19.6703 686.2060 -30.0924
3.5511 692.0980 -28.7705
6.9241 676.8555 -4.9313
29.8363 674.9920 20.1506
38.0068 660.6880 71.1200
-6.4892 738.4320 53.3150
-7.9735 872.5440 0.4934
-16.9443 793.7200 -9.3226
-16.8445 686.7520 -31.7257
4.3000 689.8560 -25.5762
6.5141 677.0160 -5.0489
36.2074 674.0000 26.5913
30.8413 658.1250 74.4574
-6.7996 761.0000 44.4053
-8.0557 873.0625 0.6493
-19.1042 774.5000 -12.1756
-13.7381 688.5000 -33.1667
4.8993 687.5000 -22.1182
6.1553 677.3125 -5.2371
42.2880 673.0080 33.1108
23.4146 656.5120 77.1643
-6.8489 783.5680 35.3461
-8.1762 871.8960 1.0360
-21.1257 755.2800 -15.0445
-10.5226 690.9280 -34.3443
5.3894 685.1440 -18.5735
5.9870 677.6640 -5.2892
47.6506 672.0640 39.4681
16.1719 656.3710 79.0565
-6.7688 805.0440 26.6101
-8.3830 869.1255 1.4091
-22.8549 736.9900 -17.8328
-7.3695 693.5140 -35.1875
5.8110 682.9020 -15.1194
6.1482 677.9895 -4.9984
51.8676 671.2160 45.4219
9.5585 658.2240 79.9494
-6.6913 824.3360 18.6703
-8.7240 864.8320 1.5239
-24.1377 720.5600 -20.4440
-4.4503 695.7360 -35.6252
6.2048 680.8880 -11.9328
6.7781 678.2080 -4.1578
54.5114 670.5120 50.7310
4.0194 662.5930 79.6587
-6.7481 840.3520 11.9997
-9.2470 859.0965 1.1357
-24.8203 706.9200 -22.7815
-1.9367 697.0720 -35.5864
6.6113 679.2160 -9.1910
8.0156 678.2385 -2.5606
8.0000 679.0000 0.0000
55.8614 670.0000 55.8614
0.0000 670.0000 79.0000
-7.0711 852.0000 7.0711
-10.0000 852.0000 0.0000
-24.0416 697.0000 -24.0416
0.0000 697.0000 -34.0000
5.6569 679.0000 -5.6569
11.4094 678.4240 3.7001
54.2565 668.8165 59.9284
-2.7018 681.6480 75.3655
-7.4817 860.0685 3.8136
-11.1255 842.0800 -1.7802
-23.0971 690.8035 -25.7802
1.3252 695.8480 -32.6148
5.8205 678.3115 -4.3983
16.3187 677.6320 8.4828
50.5468 666.5120 64.1045
-4.6031 697.6640 69.6608
-7.7441 866.1280 1.7775
-12.7064 828.4400 -3.9475
-21.3765 687.3680 -27.5475
2.3610 694.2640 -30.4197
5.6093 677.9920 -3.8768
22.2801 676.6780 14.0992
45.1897 663.6055 68.2028
-5.8379 716.9560 62.3658
-7.9041 870.2595 0.7173
-14.5953 812.0100 -6.4088
-19.0491 686.1745 -29.2708
3.1527 692.3560 -27.5976
5.1695 677.9605 -3.8738
28.8460 675.6160 20.3005
38.6430 660.6160 72.0361
-6.5402 738.4320 53.9601
-8.0075 872.5440 0.3875
-16.6445 793.7200 -9.0708
-16.2845 686.7040 -30.8774
3.7455 690.2320 -24.3315
4.6478 678.1360 -4.1705
35.5685 674.5000 26.8381
31.3640 658.0625 75.4176
-6.8438 761.0000 44.9236
-8.0999 873.0625 0.5426
-18.7065 774.5000 -11.8404
-13.2520 688.4375 -32.2949
4.1846 688.0000 -20.8044
4.1906 678.4375 -4.5483
42.0000 673.3840 33.4631
23.8104 656.4640 78.1601
-6.8828 783.5680 35.7361
-8.2271 871.8960 0.9371
-20.6336 755.2800 -14.6244
-10.1209 690.8560 -33.4504
4.5152 685.7680 -17.1992
3.9445 678.7840 -4.7885
47.6928 672.3220 39.9267
16.4396 656.3395 80.0767
-6.7911 805.0440 26.8773
-8.4350 869.1255 1.3256
-22.2782 736.9900 -17.3297
-7.0608 693.4405 -34.2713
4.7825 683.6440 -13.6989
4.0558 679.0945 -4.6725
52.1991 671.3680 45.9801
9.7093 658.2080 80.9802
-6.7026 824.3360 18.8270
-8.7693 864.8320 1.4626
-23.4928 720.5600 -19.8631
-4.2410 695.6720 -34.6850
5.0317 681.7360 -10.4864
4.6712 679.2880 -3.9815
55.0712 670.5760 51.3746
4.0769 662.5885 80.6836
-6.7513 840.3520 12.0650
-9.2757 859.0965 1.1026
-24.1298 706.9200 -22.1315
-1.8310 697.0315 -34.6187
5.3081 680.1520 -7.7447
