ply
format ascii 1.0
element vertex 1852
property float x
property float y
property float z
element face 0
property list uchar int vertex_index
end_header
-30.7089 447.3750 -74.2887
30.0643 448.0000 -73.4048
71.5727 447.7500 -30.6464
78.5528 462.7280 43.4355
29.3628 474.3600 92.5210
-36.9040 451.0320 77.2074
-75.5412 436.8880 23.4529
-71.0686 443.9920 -36.7471
-24.4669 447.2400 -76.6389
35.9408 448.2480 -70.4743
73.7308 447.5120 -24.7357
77.0455 465.3240 50.5648
21.5259 474.0450 94.8023
-42.4122 447.2560 72.0526
-77.4068 437.4040 17.5309
-68.0864 444.9360 -42.5367
-18.1671 447.1050 -78.5310
41.5527 448.4840 -67.2003
75.5551 447.4460 -18.6617
74.9317 467.6560 57.2393
13.8794 473.4000 96.3666
-47.5679 443.8640 66.7891
-78.7979 437.9760 11.6172
-64.7703 445.7840 -47.9565
-11.9174 447.0000 -79.9192
46.8060 448.6960 -63.6372
77.0430 447.6240 -12.4784
72.1376 469.5920 63.3004
6.6339 472.3950 97.1278
-52.3078 441.0480 61.5750
-79.6753 438.5320 5.7581
-61.1551 446.4880 -52.9037
-5.8258 446.9550 -80.7575
51.6069 448.8720 -59.8395
78.1921 448.1180 -6.2399
80.0000 449.0000 0.0000
69.2965 471.0000 69.2965
0.0000 471.0000 98.0000
-56.5685 440.0000 56.5685
-80.0000 440.0000 0.0000
-59.3970 448.0000 -59.3970
0.0000 448.0000 -84.0000
56.5685 449.0000 -56.5685
80.5758 450.4080 6.5968
64.6826 472.0305 74.1264
-6.3215 469.0160 96.7654
-60.4519 438.7085 51.5375
-79.8977 440.5120 -5.9817
-55.0157 448.3195 -63.5006
5.9205 448.0640 -83.4954
60.4073 448.9415 -52.1490
80.9814 452.3440 13.6942
58.9835 472.9040 78.7573
-12.6585 466.2880 94.4445
-64.0802 437.8880 46.2689
-79.3183 441.2160 -12.2551
-49.9551 448.4960 -67.3769
12.0249 448.1520 -82.3101
63.9218 448.7120 -47.3233
81.1435 454.6760 21.1321
52.4132 473.5935 83.1004
-18.9499 463.0020 91.2023
-67.4206 437.4695 40.7997
-78.2776 442.0640 -18.7072
-44.3401 448.5565 -70.9743
18.2223 448.2580 -80.5129
67.1088 448.3805 -42.1405
80.9888 457.2720 28.7506
45.1856 474.0720 87.0670
-25.1344 459.3440 87.2037
-70.4407 437.3840 35.1668
-76.7914 443.0080 -25.2253
-38.2956 448.5280 -74.2410
24.4216 448.3760 -78.1725
69.9655 448.0160 -36.6499
80.4437 460.0000 36.3898
37.5148 474.3125 90.5687
-31.1508 455.5000 82.6138
-73.1075 437.5625 29.4071
-74.8753 444.0000 -31.6963
-31.9463 448.4375 -77.1253
30.5321 448.5000 -75.3575
72.4888 447.6875 -30.9008
79.4350 462.7280 43.8896
29.6146 474.2880 93.5168
-36.9379 451.6560 77.5975
-75.3885 437.9360 23.5576
-72.5450 444.9920 -38.0076
-25.4173 448.3120 -79.5754
36.4628 448.6240 -72.1367
74.6757 447.4640 -24.9424
77.8894 465.3240 51.0902
21.6991 473.9715 95.8225
-42.4345 447.9980 72.3198
-77.2509 438.4355 17.6553
-69.8163 445.9360 -44.0461
-18.8332 448.1785 -81.5396
42.1227 448.7420 -68.5786
76.5233 447.4145 -18.8239
75.7333 467.6560 57.8315
13.9822 473.3360 97.3974
-47.5793 444.7120 66.9458
-78.6621 438.9920 11.7369
-66.7049 446.7840 -49.6991
-12.3191 448.0640 -82.9663
47.4209 448.8480 -64.7522
78.0285 447.6080 -12.5945
72.8934 469.5920 63.9536
6.6778 472.3545 98.1528
-52.3110 441.9840 61.6403
-79.5894 439.5365 5.8395
-63.2266 447.4880 -54.8537
-5.9997 447.9955 -83.8037
52.2665 448.9360 -60.7259
79.1884 448.1135 -6.3035
77.0000 450.0000 0.0000
70.0036 471.0000 70.0036
0.0000 471.0000 99.0000
-56.5685 441.0000 56.5685
-80.0000 441.0000 0.0000
-58.6899 448.0000 -58.6899
0.0000 448.0000 -83.0000
54.4472 450.0000 -54.4472
77.7806 451.3440 6.5549
65.4945 471.9855 74.8854
-6.3501 469.0800 97.7133
-60.4551 439.7535 51.4938
-79.8492 441.4480 -5.9378
-54.3157 448.2745 -62.7511
5.7601 448.1280 -82.4022
58.1272 449.9865 -50.1212
78.5000 453.1920 13.6612
59.8204 472.8240 79.5702
-12.7037 466.4400 95.3113
-64.0915 438.9680 46.1935
-79.1995 442.0640 -12.1523
-49.2763 448.4160 -66.5980
11.6713 448.3040 -81.0870
61.4718 449.7920 -45.4639
79.0577 455.4180 21.1494
53.2103 473.4885 83.9665
-19.0019 463.2600 91.9658
-67.4429 438.5745 40.7039
-78.0729 442.8060 -18.5340
-43.6967 448.4515 -70.1750
17.6507 448.5160 -79.1353
64.4881 449.4855 -40.5063
79.3533 457.8960 28.8497
45.8938 473.9520 87.9832
-25.1853 459.7200 87.8488
-70.4746 438.5040 35.0608
-76.4916 443.6320 -24.9734
-37.7016 448.4080 -73.4267
23.6153 448.7520 -76.6280
67.1831 449.1360 -35.2794
79.2866 460.5000 36.5925
38.1000 474.1875 91.5290
-31.1950 456.0000 83.1321
-73.1517 438.6875 29.3004
-74.4775 444.5000 -31.3611
-31.4160 448.3125 -76.2976
29.4822 449.0000 -73.6459
69.5638 448.8125 -29.8143
78.7570 463.1040 44.2080
30.0584 474.1680 94.5126
-36.9719 452.2800 77.9875
-75.4394 439.0560 23.4587
-72.0529 445.3680 -37.5874
-24.9647 448.1920 -78.7323
35.1684 449.2480 -70.2702
71.6374 448.5840 -24.1419
77.6643 465.5820 51.5265
21.9983 473.8665 96.8427
-42.4568 448.7400 72.5870
-77.3029 439.5405 17.5718
-69.2397 446.1940 -43.5430
-18.4726 448.0735 -80.6753
40.5909 449.4840 -66.5815
73.4107 448.5195 -18.2932
75.9081 467.8080 58.3784
14.1490 473.2560 98.4282
-47.5906 445.5600 67.1025
-78.7074 440.0720 11.6757
-66.0601 446.9360 -49.1183
-12.0645 447.9840 -82.0713
45.6669 449.6960 -62.6608
74.8909 448.6880 -12.2994
73.3880 469.6560 64.5940
6.7398 472.3095 99.1777
-52.3142 442.9200 61.7057
-79.6180 440.5815 5.8064
-62.5361 447.5520 -54.2037
-5.8654 447.9505 -82.8646
50.3133 449.8720 -58.5891
76.0850 449.1585 -6.1913
78.0000 450.0000 0.0000
69.2965 472.0000 69.2965
0.0000 472.0000 98.0000
-55.8614 441.0000 55.8614
-79.0000 441.0000 0.0000
-57.9828 448.0000 -57.9828
0.0000 448.0000 -82.0000
55.1543 450.0000 -55.1543
78.6801 451.4080 6.5396
64.7604 473.0305 74.1296
-6.2775 470.0160 96.7170
-59.6993 439.7130 50.8406
-78.8529 441.4480 -5.8652
-53.6689 448.2745 -61.9890
5.7754 448.1280 -81.5028
58.8894 449.9820 -50.8490
79.2479 453.3440 13.6037
59.1002 473.9040 78.7686
-12.5557 467.2880 94.3257
-63.2899 438.9040 45.6014
-78.2140 442.0640 -12.0042
-48.7067 448.4160 -65.7738
11.7288 448.3040 -80.3390
62.2960 449.7760 -46.1615
79.6165 455.6760 21.0282
52.5379 474.5935 83.1226
-18.7767 464.0020 90.9976
-66.5990 438.5010 40.1785
-77.1047 442.8060 -18.3088
-43.2158 448.4515 -69.2866
17.7719 448.5160 -78.5764
65.3765 449.4540 -41.1342
79.6986 458.2720 28.6488
45.2957 475.0720 87.1010
-24.8826 460.3440 86.9039
-69.5924 438.4320 34.6067
-75.5467 443.6320 -24.6707
-37.3154 448.4080 -72.4766
23.8162 448.7520 -76.2827
68.1332 449.0880 -35.8096
79.4071 461.0000 36.3014
37.5956 475.3125 90.6129
-30.8156 456.5000 82.2160
-72.2356 438.6250 28.9210
-73.5615 444.5000 -30.9816
-31.1249 448.3125 -75.2932
29.7732 449.0000 -73.5254
70.5683 448.7500 -30.2303
78.6549 463.7280 43.8217
29.6597 475.2880 93.5677
-36.5178 452.6560 77.1053
-74.4945 439.0080 23.1560
-71.1706 445.3680 -37.1333
-24.7638 448.1920 -77.6856
35.5546 449.2480 -70.3722
72.6841 448.5120 -24.4388
77.3549 466.3240 51.0456
21.7101 474.9715 95.8745
-41.9313 448.9980 71.7432
-76.3347 439.5090 17.3466
-68.3958 446.1940 -43.0176
-18.3514 448.0735 -79.6032
41.0718 449.4840 -66.8909
74.4829 448.4460 -18.4775
75.4199 468.6560 57.8088
13.9689 474.3360 97.4427
-46.9984 445.7120 66.3009
-77.7218 440.0560 11.5276
-65.2585 446.9360 -48.5261
-12.0070 447.9840 -80.9952
46.2365 449.6960 -63.1490
75.9670 448.6240 -12.3889
72.7628 470.5920 63.9472
6.6582 473.3545 98.1814
-51.6610 442.9840 60.9499
-78.6217 440.5770 5.7338
-61.7803 447.5520 -53.5505
-5.8501 447.9505 -81.8111
50.9601 449.8720 -59.2143
77.1386 449.1180 -6.2156
79.0000 450.0000 0.0000
70.0036 472.0000 70.0036
0.0000 472.0000 99.0000
-55.8614 441.0000 55.8614
-79.0000 441.0000 0.0000
-57.2756 448.0000 -57.2756
0.0000 448.0000 -81.0000
55.8614 450.0000 -55.8614
79.6764 451.4080 6.6121
65.4104 473.0305 74.8886
-6.3062 470.0160 97.6649
-59.7025 439.7130 50.7969
-78.8045 441.4480 -5.8213
-52.9815 448.2745 -61.2268
5.7907 448.1280 -80.6033
59.6452 449.9820 -51.5832
80.2335 453.3440 13.7517
59.6810 473.9040 79.5815
-12.6009 467.2880 95.1925
-63.3012 438.9040 45.5260
-78.0952 442.0640 -11.9014
-48.0732 448.4160 -64.9496
11.7864 448.3040 -79.5911
63.0976 449.7760 -46.8817
80.5847 455.6760 21.2533
53.0410 474.5935 83.9888
-18.8286 464.0020 91.7611
-66.6213 438.5010 40.0827
-76.9000 442.8060 -18.1356
-42.6614 448.4515 -68.3982
17.8931 448.5160 -78.0176
66.2204 449.4540 -41.8066
80.6435 458.2720 28.9515
45.7158 475.0720 88.0171
-24.9335 460.3440 87.5490
-69.6263 438.4320 34.5008
-75.2469 443.6320 -24.4189
-36.8572 448.4080 -71.5265
24.0171 448.7520 -75.9374
69.0154 449.0880 -36.4077
80.3232 461.0000 36.6808
37.9308 475.3125 91.5732
-30.8598 456.5000 82.7343
-72.2798 438.6250 28.8143
-73.1637 444.5000 -30.6464
-30.7714 448.3125 -74.2887
30.0643 449.0000 -73.4048
71.4843 448.7500 -30.7348
79.5371 463.7280 44.2758
29.9115 475.2880 94.5635
-36.5517 452.6560 77.4954
-74.5454 439.0080 23.0571
-70.6785 445.3680 -36.7132
-24.5149 448.1920 -76.6389
35.9408 449.2480 -70.4743
73.6290 448.5120 -24.8375
78.1988 466.3240 51.5710
21.8833 474.9715 96.8947
-41.9536 448.9980 72.0104
-76.3866 439.5090 17.2631
-67.8192 446.1940 -42.5144
-18.1986 448.0735 -78.5310
41.5527 449.4840 -67.2003
75.4511 448.4460 -18.7656
76.2215 468.6560 58.4010
14.0717 474.3360 98.4735
-47.0097 445.7120 66.4576
-77.7671 440.0560 11.4664
-64.6136 446.9360 -47.9452
-11.9334 447.9840 -79.9192
46.8060 449.6960 -63.6372
76.9525 448.6240 -12.5689
73.5186 470.5920 64.6004
6.7021 473.3545 99.2064
-51.6642 442.9840 61.0152
-78.6503 440.5770 5.7007
-61.0898 447.5520 -52.9005
-5.8303 447.9505 -80.7575
51.6069 449.8720 -59.8395
78.1349 449.1180 -6.2972
79.0000 450.0000 0.0000
70.7107 472.0000 70.7107
0.0000 472.0000 100.0000
-56.5685 442.0000 56.5685
-80.0000 442.0000 0.0000
-58.6899 449.0000 -58.6899
0.0000 449.0000 -83.0000
55.8614 450.0000 -55.8614
79.7248 451.4080 6.6561
66.1040 473.0260 75.6444
-6.3787 470.0800 98.6612
-60.4551 440.7535 51.4533
-79.8492 442.4480 -5.9378
-54.3220 449.2790 -62.7448
5.8479 449.0640 -82.4991
59.6420 449.9415 -51.5054
80.3523 453.3440 13.8545
60.3372 473.8880 80.3830
-12.7490 467.4400 96.1780
-64.0915 439.9680 46.1295
-79.1995 443.0640 -12.1523
-49.2989 449.4320 -66.5754
11.8769 449.1520 -81.3246
63.0863 449.7120 -46.7650
80.7894 455.6760 21.4266
53.6400 474.5620 84.8326
-19.0538 464.2600 92.7294
-67.4429 439.5745 40.6304
-78.0729 443.8060 -18.5340
-43.7412 449.4830 -70.1304
17.9971 449.2580 -79.5447
66.1981 449.3805 -41.6819
80.9433 458.2720 29.2034
46.2419 475.0240 88.8993
-25.2362 460.7200 88.4939
-70.4746 439.5040 34.9888
-76.4916 444.6320 -24.9734
-37.7695 449.4560 -73.3588
24.1189 449.3760 -77.2276
68.9814 449.0160 -36.2977
80.7209 461.0000 37.0161
38.3728 475.2500 92.4892
-31.2392 457.0000 83.6504
-73.1517 439.6875 29.2379
-74.4775 445.5000 -31.3611
-31.5044 449.3750 -76.2092
30.1527 449.5000 -74.4414
71.4401 448.6875 -30.6540
80.0293 463.7280 44.6960
30.2623 475.2160 95.5084
-37.0058 453.2800 78.3776
-75.4394 440.0560 23.4107
-72.0529 446.3680 -37.5874
-25.0665 449.2640 -78.6305
36.0087 449.6240 -71.2544
73.5781 448.4640 -24.7924
78.7754 466.3240 52.0742
22.1400 474.8980 97.8630
-42.4790 449.7400 72.8543
-77.3029 440.5405 17.5403
-69.2397 447.1940 -43.5430
-18.5765 449.1470 -80.5714
41.5972 449.7420 -67.7348
75.3992 448.4145 -18.7546
76.8664 468.6560 58.9819
14.2358 474.2720 99.4590
-47.6019 446.5600 67.2591
-78.7074 441.0720 11.6597
-66.0601 447.9360 -49.1183
-12.1550 449.0480 -81.9808
46.8287 449.8480 -63.9506
76.9072 448.6080 -12.5822
74.2091 470.5920 65.2504
6.7792 473.3140 100.2027
-52.3174 443.9200 61.7710
-79.6180 441.5815 5.8019
-62.5361 448.5520 -54.2037
-5.9226 448.9910 -82.8074
51.6133 449.9360 -59.9701
78.1062 449.1135 -6.3168
80.0000 450.0000 0.0000
69.2965 473.0000 69.2965
0.0000 473.0000 98.0000
-55.8614 442.0000 55.8614
-79.0000 442.0000 0.0000
-57.9828 449.0000 -57.9828
0.0000 449.0000 -82.0000
56.5685 450.0000 -56.5685
80.5758 451.4720 6.5968
64.6794 474.0710 74.1296
-6.2775 471.0160 96.7170
-59.6993 440.7130 50.8406
-78.8529 442.4480 -5.8652
-53.6752 449.2790 -61.9826
5.8632 449.0640 -81.5996
60.4073 449.9370 -52.2300
80.9814 453.4960 13.6942
58.9722 474.9680 78.7686
-12.5557 468.2880 94.3257
-63.2899 439.9040 45.6014
-78.2140 443.0640 -12.0042
-48.7294 449.4320 -65.7512
11.9344 449.1520 -80.5766
63.9218 449.6960 -47.4513
81.1435 455.9340 21.1321
52.3909 475.6670 83.1226
-18.7767 465.0020 90.9976
-66.5990 439.5010 40.1785
-77.1047 443.8060 -18.3088
-43.2603 449.4830 -69.2420
18.1183 449.2580 -78.9859
67.1088 449.3490 -42.2875
80.9888 458.6480 28.7506
45.1517 476.1440 87.1010
-24.8826 461.3440 86.9039
-69.5924 439.4320 34.6067
-75.5467 444.6320 -24.6707
-37.3833 449.4560 -72.4087
24.3198 449.3760 -76.8823
69.9655 448.9680 -36.7939
80.4437 461.5000 36.3898
37.4706 476.3750 90.6129
-30.8156 457.5000 82.2160
-72.2356 439.6250 28.9210
-73.5615 445.5000 -30.9816
-31.2133 449.3750 -75.2048
30.4437 449.5000 -74.3209
72.4888 448.6250 -31.0258
79.4350 464.3520 43.8896
29.5637 476.3360 93.5677
-36.5178 453.6560 77.1053
-74.4945 440.0080 23.1560
-71.1706 446.3680 -37.1333
-24.8656 449.2640 -77.5838
36.3949 449.6240 -71.3565
74.6757 448.3920 -25.0384
77.8894 467.0660 51.0902
21.6471 476.0030 95.8745
-41.9313 449.9980 71.7432
-76.3347 440.5090 17.3466
-68.3958 447.1940 -43.0176
-18.4553 449.1470 -79.4992
42.0781 449.7420 -68.0442
76.5233 448.3410 -18.8869
75.7333 469.5040 57.8315
13.9369 475.3520 97.4427
-46.9984 446.7120 66.3009
-77.7218 441.0560 11.5276
-65.2585 447.9360 -48.5261
-12.0975 449.0480 -80.9047
47.3982 449.8480 -64.4388
78.0285 448.5440 -12.6265
72.8934 471.5280 63.9536
6.6492 474.3590 98.1814
-51.6610 443.9840 60.9499
-78.6217 441.5770 5.7338
-61.7803 448.5520 -53.5505
-5.9073 448.9910 -81.7538
52.2601 449.9360 -60.5953
79.1884 449.0730 -6.3125
77.0000 451.0000 0.0000
70.0036 473.0000 70.0036
0.0000 473.0000 99.0000
-55.1543 442.0000 55.1543
-78.0000 442.0000 0.0000
-57.2756 449.0000 -57.2756
0.0000 449.0000 -81.0000
54.4472 451.0000 -54.4472
77.7806 452.4080 6.5549
65.4882 474.0305 74.8918
-6.2622 471.0160 97.6164
-58.9435 440.7130 50.1064
-77.8566 442.4480 -5.7926
-53.0157 449.2745 -61.2332
5.7028 449.1280 -80.5065
58.1272 450.9820 -50.2022
78.5000 454.3440 13.6612
59.7977 474.9040 79.5928
-12.4982 468.2880 95.0737
-62.4883 439.9040 44.8812
-77.2284 443.0640 -11.8562
-48.1145 449.4160 -64.9722
11.5808 449.3040 -79.3535
61.4718 450.7760 -45.5919
79.0577 456.6760 21.1494
53.1658 475.5935 84.0111
-18.6554 465.0020 91.5564
-65.7552 439.5010 39.5060
-76.1365 443.8060 -18.0836
-42.6904 449.4515 -68.4427
17.5467 449.5160 -77.6082
64.4881 450.4540 -40.6533
79.3533 459.2720 28.8497
45.8259 476.0720 88.0511
-24.6817 461.3440 87.2492
-68.7102 439.4320 34.0086
-74.6018 444.6320 -24.3680
-36.8613 449.4080 -71.5944
23.5135 449.7520 -75.3378
67.1831 450.0880 -35.4234
79.2866 462.0000 36.5925
38.0117 476.3125 91.6174
-30.5245 457.5000 82.3366
-71.3196 439.6250 28.4165
-72.6454 445.5000 -30.6022
-30.7455 449.3125 -74.3771
29.3938 450.0000 -72.6093
69.5638 449.7500 -29.9393
78.7570 464.7280 44.2080
29.9566 476.2880 94.6144
-36.1316 453.6560 77.0032
-73.5496 440.0080 22.7573
-70.2884 446.3680 -36.6793
-24.4611 449.1920 -76.7407
35.1005 450.2480 -69.4900
71.6374 449.5120 -24.2379
77.6643 467.3240 51.5265
21.8944 475.9715 96.9467
-41.4505 449.9980 71.4337
-75.3664 440.5090 17.0584
-67.5519 447.1940 -42.4922
-18.1262 449.0735 -78.6349
40.5464 450.4840 -66.0470
73.4107 449.4460 -18.3562
75.9081 469.6560 58.3784
14.0585 475.3360 98.5187
-46.4288 446.7120 65.8127
-76.7363 441.0560 11.3476
-64.4569 447.9360 -47.9339
-11.8589 448.9840 -80.0097
45.6443 450.6960 -62.3475
74.8909 449.6240 -12.3314
73.3880 471.5920 64.5940
6.6825 474.3545 99.2350
-51.0142 443.9840 60.3247
-77.6254 441.5770 5.6522
-61.0245 448.5520 -52.8974
-5.7775 448.9505 -80.8148
50.3070 450.8720 -58.4585
76.0850 450.1180 -6.2003
78.0000 451.0000 0.0000
70.7107 473.0000 70.7107
0.0000 473.0000 100.0000
-55.1543 442.0000 55.1543
-78.0000 442.0000 0.0000
-56.5685 449.0000 -56.5685
0.0000 449.0000 -80.0000
55.1543 451.0000 -55.1543
78.7769 452.4080 6.6274
66.1382 474.0305 75.6508
-6.2909 471.0160 98.5643
-58.9466 440.7130 50.0628
-77.8082 442.4480 -5.7487
-52.3284 449.2745 -60.4710
5.7181 449.1280 -79.6070
58.8830 450.9820 -50.9364
79.4855 454.3440 13.8093
60.3786 474.9040 80.4057
-12.5434 468.2880 95.9404
-62.4997 439.9040 44.8058
-77.1096 443.0640 -11.7534
-47.4810 449.4160 -64.1480
11.6383 449.3040 -78.6055
62.2734 450.7760 -46.3121
80.0259 456.6760 21.3746
53.6689 475.5935 84.8772
-18.7074 465.0020 92.3199
-65.7774 439.5010 39.4103
-75.9317 443.8060 -17.9104
-42.1360 449.4515 -67.5543
17.6680 449.5160 -77.0494
65.3320 450.4540 -41.3257
80.2982 459.2720 29.1524
46.2460 476.0720 88.9672
-24.7326 461.3440 87.8943
-68.7441 439.4320 33.9027
-74.3020 444.6320 -24.1162
-36.4031 449.4080 -70.6443
23.7144 449.7520 -74.9925
68.0653 450.0880 -36.0215
80.2026 462.0000 36.9719
38.3469 476.3125 92.5776
-30.5687 457.5000 82.8549
-71.3638 439.6250 28.3098
-72.2477 445.5000 -30.2670
-30.3920 449.3125 -73.3727
29.6848 450.0000 -72.4888
70.4799 449.7500 -30.4437
79.6392 464.7280 44.6620
30.2084 476.2880 95.6102
-36.1655 453.6560 77.3933
-73.6005 440.0080 22.6584
-69.7963 446.3680 -36.2591
-24.2122 449.1920 -75.6940
35.4867 450.2480 -69.5921
72.5823 449.5120 -24.6366
78.5082 467.3240 52.0519
22.0676 475.9715 97.9669
-41.4727 449.9980 71.7010
-75.4184 440.5090 16.9750
-66.9753 447.1940 -41.9890
-17.9734 449.0735 -77.5627
41.0273 450.4840 -66.3564
74.3789 449.4460 -18.6444
76.7097 469.6560 58.9706
14.1613 475.3360 99.5495
-46.4401 446.7120 65.9694
-76.7815 441.0560 11.2863
-63.8120 447.9360 -47.3530
-11.7854 448.9840 -78.9336
46.2138 450.6960 -62.8357
75.8764 449.6240 -12.5114
74.1438 471.5920 65.2472
6.7264 474.3545 100.2599
-51.0174 443.9840 60.3900
-77.6540 441.5770 5.6191
-60.3340 448.5520 -52.2474
-5.7577 448.9505 -79.7612
50.9538 450.8720 -59.0836
77.0813 450.1180 -6.2819
78.0000 451.0000 0.0000
68.5894 474.0000 68.5894
0.0000 474.0000 97.0000
-55.8614 443.0000 55.8614
-79.0000 443.0000 0.0000
-57.9828 450.0000 -57.9828
0.0000 450.0000 -82.0000
55.1543 451.0000 -55.1543
78.6316 452.4720 6.4956
64.0699 475.0710 73.3706
-6.2489 472.0160 95.7691
-59.6993 441.7130 50.8811
-78.8529 443.4480 -5.8652
-53.6689 450.2790 -61.9890
5.7754 450.0640 -81.5028
58.8926 450.9370 -50.8459
79.1291 454.4960 13.5009
58.4553 475.9680 77.9557
-12.5104 469.2880 93.4590
-63.2899 440.9040 45.6654
-78.2140 444.0640 -12.0042
-48.7067 450.4320 -65.7738
11.7288 450.1520 -80.3390
62.3073 450.6960 -46.1502
79.4118 456.9340 20.8550
51.9613 476.6670 82.2565
-18.7247 466.0020 90.2341
-66.5990 440.5010 40.2520
-77.1047 444.8060 -18.3088
-43.2158 450.4830 -69.2866
17.7719 450.2580 -78.5764
65.3988 450.3490 -41.1119
79.3988 459.6480 28.3970
44.8035 477.1440 86.1848
-24.8317 462.3440 86.2588
-69.5924 440.4320 34.6787
-75.5467 445.6320 -24.6707
-37.3154 450.4560 -72.4766
23.8162 450.3760 -76.2827
68.1671 449.9680 -35.7757
79.0094 462.5000 35.9662
37.1979 477.3750 89.6527
-30.7714 458.5000 81.6977
-72.2356 440.6250 28.9835
-73.5615 446.5000 -30.9816
-31.1249 450.3750 -75.2932
29.7732 450.5000 -73.5254
70.6125 449.6250 -30.1861
78.1628 465.3520 43.4016
29.3599 477.3360 92.5719
-36.4838 454.6560 76.7153
-74.4945 441.0080 23.2040
-71.1706 447.3680 -37.1333
-24.7638 450.2640 -77.6856
35.5546 450.6240 -70.3722
72.7350 449.3920 -24.3879
76.7783 468.0660 50.5425
21.5054 477.0030 94.8543
-41.9091 450.9980 71.4759
-76.3347 441.5090 17.3781
-68.3958 448.1940 -43.0176
-18.3514 450.1470 -79.6032
41.0718 450.7420 -66.8909
74.5349 449.3410 -18.4255
74.7750 470.5040 57.2280
13.8501 476.3520 96.4119
-46.9871 447.7120 66.1442
-77.7218 442.0560 11.5436
-65.2585 448.9360 -48.5261
-12.0070 450.0480 -80.9952
46.2365 450.8480 -63.1490
76.0122 449.5440 -12.3436
72.0723 472.5280 63.2972
6.6098 475.3590 97.1565
-51.6578 444.9840 60.8845
-78.6217 442.5770 5.7383
-61.7803 449.5520 -53.5505
-5.8501 449.9910 -81.8111
50.9601 450.9360 -59.2143
77.1672 450.0730 -6.1869
79.0000 451.0000 0.0000
69.2965 474.0000 69.2965
0.0000 474.0000 98.0000
-55.1543 443.0000 55.1543
-78.0000 443.0000 0.0000
-57.2756 450.0000 -57.2756
0.0000 450.0000 -81.0000
55.8614 451.0000 -55.8614
79.6279 452.4720 6.5682
64.7167 475.0710 74.1328
-6.2336 472.0160 96.6686
-58.9435 441.7130 50.1469
-77.8566 443.4480 -5.7926
-53.0220 450.2790 -61.2268
5.7907 450.0640 -80.6033
59.6484 450.9370 -51.5800
80.1147 454.4960 13.6489
59.0248 475.9680 78.7799
-12.4529 469.2880 94.2070
-62.4883 440.9040 44.9452
-77.2284 444.0640 -11.8562
-48.1372 450.4320 -64.9496
11.7864 450.1520 -79.5911
63.1089 450.6960 -46.8704
80.3800 456.9340 21.0801
52.4421 476.6670 83.1449
-18.6035 466.0020 90.7929
-65.7552 440.5010 39.5795
-76.1365 444.8060 -18.0836
-42.7349 450.4830 -68.3982
17.8931 450.2580 -78.0176
66.2427 450.3490 -41.7843
80.3437 459.6480 28.6997
45.1897 477.1440 87.1349
-24.6308 462.3440 86.6041
-68.7102 440.4320 34.0806
-74.6018 445.6320 -24.3680
-36.9292 450.4560 -71.5265
24.0171 450.3760 -75.9374
69.0493 449.9680 -36.3738
79.9254 462.5000 36.3456
37.4889 477.3750 90.6571
-30.4803 458.5000 81.8183
-71.3196 440.6250 28.4790
-72.6454 446.5000 -30.6022
-30.8339 450.3750 -74.2887
30.0643 450.5000 -73.4048
71.5285 449.6250 -30.6906
79.0450 465.3520 43.8557
29.5608 477.3360 93.6186
-36.0976 454.6560 76.6132
-73.5496 441.0080 22.8053
-70.2884 447.3680 -36.6793
-24.5629 450.2640 -76.6389
35.9408 450.6240 -70.4743
73.6799 449.3920 -24.7866
77.6221 468.0660 51.0679
21.6267 477.0030 95.9265
-41.4282 450.9980 71.1665
-75.3664 441.5090 17.0899
-67.5519 448.1940 -42.4922
-18.2301 450.1470 -78.5310
41.5527 450.7420 -67.2003
75.5031 449.3410 -18.7137
75.5766 470.5040 57.8202
13.9077 476.3520 97.4879
-46.4175 447.7120 65.6560
-76.7363 442.0560 11.3636
-64.4569 448.9360 -47.9339
-11.9494 450.0480 -79.9192
46.8060 450.8480 -63.6372
76.9977 449.5440 -12.5237
72.8281 472.5280 63.9504
6.6251 475.3590 98.2101
-51.0110 444.9840 60.2594
-77.6254 442.5770 5.6567
-61.0245 449.5520 -52.8974
-5.8348 449.9910 -80.7575
51.6069 450.9360 -59.8395
78.1635 450.0730 -6.2685
80.0000 451.0000 0.0000
70.0036 474.0000 70.0036
0.0000 474.0000 99.0000
-55.8614 444.0000 55.8614
-79.0000 444.0000 0.0000
-56.5685 450.0000 -56.5685
0.0000 450.0000 -80.0000
56.5685 451.0000 -56.5685
80.6242 452.4720 6.6408
65.3699 475.0665 74.8886
-6.3062 472.0800 97.6649
-59.7056 442.7580 50.7938
-78.7561 444.3840 -5.7773
-52.2942 450.2385 -60.4646
5.8060 450.0640 -79.7039
60.4042 450.9370 -52.3142
81.1002 454.4960 13.7970
59.6170 475.9520 79.5815
-12.6009 469.4400 95.1925
-63.3125 441.9840 45.5147
-77.9764 444.9120 -11.7986
-47.4396 450.3680 -64.1254
11.8439 450.1520 -78.8431
63.9105 450.6960 -47.5906
81.3482 456.9340 21.3053
52.9675 476.6355 83.9888
-18.8286 466.2600 91.7611
-66.6436 441.6060 40.0604
-76.6953 445.5480 -17.9624
-42.1071 450.4095 -67.5097
18.0144 450.2580 -77.4588
67.0865 450.3490 -42.4568
81.2886 459.6480 29.0024
45.6438 477.0960 88.0171
-24.9335 462.7200 87.5490
-69.6603 441.5520 34.4668
-74.9470 446.2560 -24.1671
-36.3990 450.3840 -70.5764
24.2180 450.3760 -75.5921
69.9315 449.9680 -36.9719
80.8415 462.5000 36.7250
37.8683 477.3125 91.5732
-30.8598 459.0000 82.7343
-72.3240 441.7500 28.7701
-72.7660 447.0000 -30.3111
-30.4178 450.3125 -73.2843
30.3553 450.5000 -73.2843
72.4446 449.6250 -31.1950
79.9272 465.3520 44.3098
29.8635 477.2640 94.5635
-36.5517 455.2800 77.4954
-74.5963 442.1280 23.0062
-70.1864 447.7440 -36.2931
-24.2660 450.2160 -75.5921
36.3270 450.6240 -70.5764
74.6248 449.3920 -25.1853
78.4660 468.0660 51.5933
21.8518 476.9295 96.8947
-41.9536 451.7400 72.0104
-76.4386 442.6140 17.2112
-67.2425 448.4520 -42.0113
-18.0459 450.1155 -77.4588
42.0336 450.7420 -67.5097
76.4713 449.3410 -19.0019
76.3782 470.5040 58.4124
14.0557 476.2880 98.4735
-47.0097 448.5600 66.4576
-77.8123 443.1360 11.4211
-63.9687 449.0880 -47.3643
-11.8599 450.0320 -78.8431
47.3756 450.8480 -64.1254
77.9833 449.5440 -12.7037
73.5839 472.5280 64.6035
6.6976 475.3185 99.2064
-51.6642 445.9200 61.0152
-78.6790 443.6220 5.6720
-60.3993 449.6160 -52.2506
-5.8105 449.9865 -79.7039
52.2537 450.9360 -60.4646
79.1598 450.0730 -6.3501
77.0000 452.0000 0.0000
70.7107 474.0000 70.7107
0.0000 474.0000 100.0000
-55.8614 444.0000 55.8614
-79.0000 444.0000 0.0000
-55.8614 450.0000 -55.8614
0.0000 450.0000 -79.0000
54.4472 452.0000 -54.4472
77.8291 453.4080 6.5988
66.1819 475.0260 75.6476
-6.3348 472.0800 98.6127
-59.7088 442.7580 50.7501
-78.7076 444.3840 -5.7334
-51.5942 450.2340 -59.7152
5.6455 450.1280 -78.6107
58.1240 451.9820 -50.2864
78.6188 455.3440 13.7640
60.4539 475.8880 80.3944
-12.6462 469.4400 96.0592
-63.3238 441.9840 45.4394
-77.8576 444.9120 -11.6959
-46.7608 450.3520 -63.3465
11.4903 450.3040 -77.6200
61.4605 451.7760 -45.7312
79.2624 457.6760 21.3226
53.7647 476.5620 84.8549
-18.8806 466.2600 92.5247
-66.6659 441.6060 39.9646
-76.4906 445.5480 -17.7892
-41.4636 450.3780 -66.7104
17.4428 450.5160 -76.0812
64.4658 451.4540 -40.8226
79.6531 460.2720 29.1015
46.3520 477.0240 88.9333
-24.9844 462.7200 88.1941
-69.6942 441.5520 34.3609
-74.6472 446.2560 -23.9153
-35.8050 450.3360 -69.7621
23.4116 450.7520 -74.0476
67.1492 451.0880 -35.6014
79.6843 463.0000 36.9277
38.4536 477.2500 92.5334
-30.9040 459.0000 83.2526
-72.3682 441.7500 28.6634
-72.3682 447.0000 -29.9759
-29.8875 450.2500 -72.4566
29.3054 451.0000 -71.5727
69.5196 450.7500 -30.1085
79.2492 465.7280 44.6281
30.3074 477.2160 95.5593
-36.5857 455.2800 77.8854
-74.6472 442.1280 22.9073
-69.6942 447.7440 -35.8729
-23.8134 450.1440 -74.7490
35.0326 451.2480 -68.7099
71.5865 450.5120 -24.3848
78.2410 468.3240 52.0296
22.1511 476.8980 97.9149
-41.9759 451.7400 72.2776
-76.4906 442.6140 17.1277
-66.6659 448.4520 -41.5081
-17.6853 450.0420 -76.5945
40.5018 451.4840 -65.5126
73.3587 450.4460 -18.4712
76.5530 470.6560 58.9593
14.2225 476.2720 99.5043
-47.0210 448.5600 66.6143
-77.8576 443.1360 11.3599
-63.3238 449.0880 -46.7834
-11.6053 449.9680 -77.9481
45.6216 451.6960 -62.0341
74.8456 450.6240 -12.4086
74.0785 472.5920 65.2440
6.7596 475.3140 100.2313
-51.6674 445.9200 61.0805
-78.7076 443.6220 5.6389
-59.7088 449.6160 -51.6006
-5.6761 449.9460 -78.7649
50.3006 451.8720 -58.3278
76.0564 451.1180 -6.2379
77.0000 452.0000 0.0000
67.8823 475.0000 67.8823
0.0000 475.0000 96.0000
-55.1543 444.0000 55.1543
-78.0000 444.0000 0.0000
-55.1543 450.0000 -55.1543
0.0000 450.0000 -78.0000
54.4472 452.0000 -54.4472
77.6353 453.4720 6.4230
63.4167 476.0710 72.6148
-6.1763 473.0160 94.7728
-58.9530 442.7175 50.2184
-77.7113 444.3840 -5.6608
-50.9442 450.2340 -58.9562
5.6169 450.1280 -77.6629
58.1367 451.9775 -50.3142
78.1436 455.4960 13.3528
57.8631 476.9680 77.1541
-12.3624 470.2880 92.4735
-62.5223 441.9200 45.0392
-76.8721 444.9120 -11.5478
-46.1799 450.3520 -62.5336
11.4450 450.3040 -76.7533
61.5058 451.7600 -45.7500
78.4435 457.9340 20.6298
51.4358 477.6670 81.4126
-18.4995 467.0020 89.2658
-65.8220 441.5325 39.6597
-75.5223 445.5480 -17.5640
-40.9604 450.3780 -65.8443
17.3908 450.5160 -75.3176
64.5549 451.4225 -40.8070
78.4539 460.6480 28.0943
44.3495 478.1440 85.3026
-24.5290 463.3440 85.3139
-68.8120 441.4800 34.1228
-73.7023 446.2560 -23.6125
-35.3849 450.3360 -68.8459
23.3607 450.7520 -73.4025
67.2849 451.0400 -35.5376
78.0933 463.5000 35.5867
36.8184 478.3750 88.7366
-30.3920 459.5000 80.7817
-71.4522 441.6875 28.4715
-71.4522 447.0000 -29.5965
-29.5523 450.2500 -71.4964
29.2612 451.0000 -71.0544
69.6964 450.6875 -29.9942
77.2806 466.3520 42.9475
29.0572 478.3360 91.6270
-36.0298 455.6560 75.8331
-73.7023 442.0800 22.7485
-68.8120 447.7440 -35.4188
-23.5616 450.1440 -73.7532
34.9987 451.2480 -68.3199
71.7901 450.4400 -24.2291
75.9344 469.0660 50.0171
21.2803 478.0030 93.8861
-41.3836 451.9980 70.6321
-75.5223 442.5825 16.9970
-65.8220 448.4520 -40.9827
-17.5120 450.0420 -75.5743
40.4796 451.4840 -65.2453
73.5666 450.3725 -18.2948
73.9735 471.5040 56.6358
13.7021 477.3520 95.4263
-46.3949 448.7120 65.3426
-76.8721 443.1200 11.2598
-62.5223 449.0880 -46.1912
-11.5025 449.9680 -76.9173
45.6103 451.6960 -61.8774
75.0267 450.5600 -12.2436
71.3165 473.5280 62.6440
6.5372 476.3590 96.1602
-51.0047 445.9840 60.1287
-77.7113 443.6175 5.5798
-58.9530 449.6160 -50.9474
-5.6322 449.9460 -77.7400
50.2974 451.8720 -58.2625
76.1709 451.0775 -6.1279
78.0000 452.0000 0.0000
68.5894 475.0000 68.5894
0.0000 475.0000 97.0000
-54.4472 444.0000 54.4472
-77.0000 444.0000 0.0000
-57.2756 451.0000 -57.2756
0.0000 451.0000 -81.0000
55.1543 452.0000 -55.1543
78.6316 453.4720 6.4956
64.0635 476.0710 73.3770
-6.1610 473.0160 95.6723
-58.1845 442.7130 49.4970
-76.9088 444.4480 -5.7640
-53.0594 451.2790 -61.2300
5.7467 451.0640 -80.5549
58.8926 451.9370 -50.8864
79.1291 455.4960 13.5009
58.4326 476.9680 77.9783
-12.3049 470.2880 93.2214
-61.6755 441.9040 44.3643
-76.3617 445.0640 -11.8109
-48.1899 451.4320 -64.9609
11.6836 451.1520 -79.4723
62.3073 451.6960 -46.2142
79.4118 457.9340 20.8550
51.9167 477.6670 82.3010
-18.3783 467.0020 89.8247
-64.8890 441.5010 39.0764
-75.3729 445.8060 -18.0317
-42.7862 451.4830 -68.4204
17.7199 451.2580 -77.8129
65.3988 451.3490 -41.1854
79.3988 460.6480 28.3970
44.7357 478.1440 86.2527
-24.3281 463.3440 85.6592
-67.7940 441.4320 33.6605
-73.9567 446.6320 -24.3171
-36.9673 451.4560 -71.5604
23.7653 451.3760 -75.6376
68.1671 450.9680 -35.8477
79.0094 463.5000 35.9662
37.1095 478.3750 89.7411
-30.1009 459.5000 80.9022
-70.3593 441.6250 28.1438
-72.1271 447.5000 -30.5580
-30.8522 451.3750 -74.3329
29.7290 451.5000 -73.0071
70.6125 450.6250 -30.2486
78.1628 466.3520 43.4016
29.2581 478.3360 92.6737
-35.6436 455.6560 75.7310
-72.5538 442.0080 22.5535
-69.8984 448.3680 -36.6453
-24.5600 451.2640 -76.6898
35.5206 451.6240 -69.9822
72.7350 450.3920 -24.4359
76.7783 469.0660 50.5425
21.4015 478.0030 94.9582
-40.9028 451.9980 70.3226
-74.3462 442.5090 16.9167
-67.2847 449.1940 -42.4699
-18.2096 451.1470 -78.5830
41.0495 451.7420 -66.6237
74.5349 450.3410 -18.4570
74.7750 471.5040 57.2280
13.7596 477.3520 96.5024
-45.8253 448.7120 64.8544
-75.7055 443.0560 11.2608
-64.3002 449.9360 -47.9225
-11.9202 451.0480 -79.9644
46.2252 451.8480 -62.9923
76.0122 450.5440 -12.3596
72.0723 473.5280 63.2972
6.5525 476.3590 97.2138
-50.3579 445.9840 59.5036
-76.6005 443.5770 5.6128
-60.9592 450.5520 -52.8942
-5.8106 450.9910 -80.7861
50.9569 451.9360 -59.1490
77.1672 451.0730 -6.1914
79.0000 452.0000 0.0000
69.2965 475.0000 69.2965
0.0000 475.0000 98.0000
-55.1543 445.0000 55.1543
-78.0000 445.0000 0.0000
-56.5685 451.0000 -56.5685
0.0000 451.0000 -80.0000
55.8614 452.0000 -55.8614
79.6279 453.4720 6.5682
64.7167 476.0665 74.1328
-6.2336 473.0800 96.6686
-58.9466 443.7580 50.1438
-77.8082 445.3840 -5.7487
-52.3316 451.2385 -60.4678
5.7620 451.0640 -79.6555
59.6484 451.9370 -51.6205
80.1147 455.4960 13.6489
59.0248 476.9520 78.7799
-12.4529 470.4400 94.2070
-62.4997 442.9840 44.9338
-77.1096 445.9120 -11.7534
-47.4923 451.3680 -64.1367
11.7411 451.1520 -78.7243
63.1089 451.6960 -46.9344
80.3800 457.9340 21.0801
52.4421 477.6355 83.1449
-18.6035 467.2600 90.7929
-65.7774 442.6060 39.5573
-75.9317 446.5480 -17.9104
-42.1583 451.4095 -67.5320
17.8412 451.2580 -77.2541
66.2427 451.3490 -41.8578
80.3437 460.6480 28.6997
45.1897 478.0960 87.1349
-24.6308 463.7200 86.6041
-68.7441 442.5520 34.0467
-74.3020 447.2560 -24.1162
-36.4371 451.3840 -70.6104
23.9662 451.3760 -75.2923
69.0493 450.9680 -36.4458
79.9254 463.5000 36.3456
37.4889 478.3125 90.6571
-30.4803 460.0000 81.8183
-71.3638 442.7500 28.4348
-72.2477 448.0000 -30.2670
-30.4361 451.3125 -73.3285
30.0201 451.5000 -72.8865
71.5285 450.6250 -30.7531
79.0450 466.3520 43.8557
29.5608 478.2640 93.6186
-36.0976 456.2800 76.6132
-73.6005 443.1280 22.7544
-69.7963 448.7440 -36.2591
-24.2631 451.2160 -75.6430
35.9068 451.6240 -70.0843
73.6799 450.3920 -24.8346
77.6221 469.0660 51.0679
21.6267 477.9295 95.9265
-41.4282 452.7400 71.1665
-75.4184 443.6140 17.0380
-66.9753 449.4520 -41.9890
-18.0254 451.1155 -77.5108
41.5304 451.7420 -66.9331
75.5031 450.3410 -18.7452
75.5766 471.5040 57.8202
13.9077 477.2880 97.4879
-46.4175 449.5600 65.6560
-76.7815 444.1360 11.3183
-63.8120 450.0880 -47.3530
-11.8306 451.0320 -78.8884
46.7947 451.8480 -63.4805
76.9977 450.5440 -12.5397
72.8281 473.5280 63.9504
6.6251 476.3185 98.2101
-51.0110 446.9200 60.2594
-77.6540 444.6220 5.6281
-60.3340 450.6160 -52.2474
-5.7863 450.9865 -79.7326
51.6038 451.9360 -59.7741
78.1635 451.0730 -6.2730
80.0000 452.0000 0.0000
70.0036 475.0000 70.0036
0.0000 475.0000 99.0000
-55.1543 445.0000 55.1543
-78.0000 445.0000 0.0000
-55.8614 451.0000 -55.8614
0.0000 451.0000 -79.0000
56.5685 452.0000 -56.5685
80.6242 453.4720 6.6408
65.3667 476.0665 74.8918
-6.2622 473.0800 97.6164
-58.9498 443.7580 50.1001
-77.7598 445.3840 -5.7048
-51.6443 451.2385 -59.7056
5.7773 451.0640 -78.7561
60.4042 451.9370 -52.3547
81.1002 455.4960 13.7970
59.6057 476.9520 79.5928
-12.4982 470.4400 95.0737
-62.5110 442.9840 44.8585
-76.9908 445.9120 -11.6506
-46.8587 451.3680 -63.3125
11.7986 451.1520 -77.9764
63.9105 451.6960 -47.6546
81.3482 457.9340 21.3053
52.9453 477.6355 84.0111
-18.6554 467.2600 91.5564
-65.7997 442.6060 39.4615
-75.7270 446.5480 -17.7372
-41.6039 451.4095 -66.6436
17.9624 451.2580 -76.6953
67.0865 451.3490 -42.5303
81.2886 460.6480 29.0024
45.6099 478.0960 88.0511
-24.6817 463.7200 87.2492
-68.7781 442.5520 33.9408
-74.0021 447.2560 -23.8644
-35.9788 451.3840 -69.6603
24.1671 451.3760 -74.9470
69.9315 450.9680 -37.0439
80.8415 463.5000 36.7250
37.8242 478.3125 91.6174
-30.5245 460.0000 82.3366
-71.4080 442.7500 28.3281
-71.8499 448.0000 -29.9317
-30.0826 451.3125 -72.3240
30.3111 451.5000 -72.7660
72.4446 450.6250 -31.2575
79.9272 466.3520 44.3098
29.8126 478.2640 94.6144
-36.1316 456.2800 77.0032
-73.6514 443.1280 22.6555
-69.3042 448.7440 -35.8390
-24.0142 451.2160 -74.5963
36.2931 451.6240 -70.1864
74.6248 450.3920 -25.2333
78.4660 469.0660 51.5933
21.7999 477.9295 96.9467
-41.4505 452.7400 71.4337
-75.4704 443.6140 16.9545
-66.3986 449.4520 -41.4859
-17.8727 451.1155 -76.4386
42.0113 451.7420 -67.2425
76.4713 450.3410 -19.0334
76.3782 471.5040 58.4124
14.0105 477.2880 98.5187
-46.4288 449.5600 65.8127
-76.8268 444.1360 11.2571
-63.1672 450.0880 -46.7721
-11.7571 451.0320 -77.8123
47.3643 451.8480 -63.9687
77.9833 450.5440 -12.7197
73.5839 473.5280 64.6035
6.6690 476.3185 99.2350
-51.0142 446.9200 60.3247
-77.6827 444.6220 5.5950
-59.6435 450.6160 -51.5974
-5.7665 450.9865 -78.6790
52.2506 451.9360 -60.3993
79.1598 451.0730 -6.3546
80.0000 452.0000 0.0000
66.4680 476.0000 66.4680
0.0000 476.0000 94.0000
-54.4472 445.0000 54.4472
-77.0000 445.0000 0.0000
-55.1543 451.0000 -55.1543
0.0000 451.0000 -78.0000
56.5685 452.0000 -56.5685
80.3820 453.5360 6.4211
61.9111 477.1115 71.1000
-6.0751 474.0160 92.8287
-58.1940 443.7175 49.6089
-76.7635 445.3840 -5.6322
-50.9943 451.2385 -58.9466
5.7487 451.0640 -77.8082
60.4201 451.9325 -52.3793
80.5062 455.6480 13.2830
56.3700 478.0320 75.5397
-12.1691 471.2880 90.6212
-61.7094 442.9200 44.5223
-76.0053 445.9120 -11.5025
-46.2778 451.3680 -62.4997
11.7534 451.1520 -77.1096
63.9670 451.6800 -47.6620
80.3247 458.1920 20.4393
50.0398 478.7405 79.7026
-18.2224 468.0020 87.5341
-64.9558 442.5325 39.2301
-74.7588 446.5480 -17.5120
-41.1008 451.4095 -65.7774
17.9104 451.2580 -75.9317
67.1979 451.3175 -42.4924
79.7895 461.0240 27.7434
43.1152 479.2160 83.5043
-24.1753 464.3440 83.7239
-67.8959 442.4800 33.7747
-73.0572 447.2560 -23.5616
-35.5587 451.3840 -68.7441
24.1162 451.3760 -74.3020
70.1012 450.9200 -36.9462
78.8527 464.0000 35.0488
35.7912 479.4375 86.8603
-29.9683 460.5000 79.3473
-70.4919 442.6875 28.1987
-70.9339 448.0000 -29.5523
-29.7473 451.3125 -71.3638
30.2670 451.5000 -72.2477
72.6656 450.5625 -31.0991
77.4665 466.9760 42.2090
28.2626 479.3840 89.6862
-35.5417 456.6560 74.5608
-72.7065 443.0800 22.5447
-68.4219 448.7440 -35.3849
-23.7624 451.2160 -73.6005
36.2591 451.6240 -69.7963
74.8794 450.3200 -25.0268
75.5828 469.8080 49.0776
20.7244 479.0345 91.8976
-40.8360 452.9980 69.5210
-74.5021 443.5825 16.8553
-65.5548 449.4520 -40.9604
-17.6995 451.1155 -75.4184
41.9890 451.7420 -66.9753
76.7312 450.2675 -18.8050
73.1538 472.3520 55.5079
13.3713 478.3680 93.4100
-45.7914 449.7120 64.3844
-75.8413 444.1200 11.1730
-62.3656 450.0880 -46.1799
-11.6543 451.0320 -76.7815
47.3530 451.8480 -63.8120
78.2096 450.4800 -12.5095
70.1315 474.4640 61.3536
6.3982 477.3635 94.1389
-50.3483 446.9840 59.3076
-76.6864 444.6175 5.5404
-58.8877 450.6160 -50.9442
-5.7226 450.9865 -77.6540
52.2474 451.9360 -60.3340
79.3030 451.0325 -6.2159
77.0000 453.0000 0.0000
67.1751 476.0000 67.1751
0.0000 476.0000 95.0000
-55.1543 446.0000 55.1543
-78.0000 446.0000 0.0000
-54.4472 451.0000 -54.4472
0.0000 451.0000 -77.0000
54.4472 453.0000 -54.4472
77.5869 454.4720 6.3791
62.7262 477.0665 71.8558
-6.1477 474.0800 93.8250
-58.9562 444.7625 50.2557
-77.6629 446.3200 -5.6169
-50.2537 451.1935 -58.1972
5.5882 451.1280 -76.7150
58.1399 452.9775 -50.3515
78.0248 456.4960 13.2500
57.2182 477.9520 76.3413
-12.3171 471.4400 91.6067
-62.5336 444.0000 45.0919
-76.7533 446.7600 -11.4450
-45.5350 451.2880 -61.7207
11.3998 451.3040 -75.8865
61.5171 452.7600 -45.8027
78.2388 458.9340 20.4566
50.8592 478.6355 80.5465
-18.4476 468.2600 88.5023
-65.8443 443.6375 39.7109
-75.3176 447.2900 -17.3908
-40.3838 451.3045 -64.9781
17.3388 451.5160 -74.5541
64.5772 452.4225 -40.8582
78.1541 461.6480 27.8425
43.8573 479.0960 84.3865
-24.4780 464.7200 84.6688
-68.8459 443.6000 34.1609
-73.4025 447.8800 -23.3607
-34.8927 451.2640 -67.9298
23.3098 451.7520 -72.7574
67.3189 452.0400 -35.5757
77.6956 464.5000 35.2515
36.4207 479.3125 87.7764
-30.3478 461.0000 80.2634
-71.4964 443.8125 28.4898
-71.0544 448.5000 -29.2612
-29.1545 451.1875 -70.5361
29.2170 452.0000 -70.5361
69.7406 451.6875 -30.0125
76.7884 467.3520 42.5274
28.7574 479.2640 90.6311
-35.9958 457.2800 75.4430
-73.7532 444.2000 22.7456
-68.3199 449.1200 -34.9987
-23.2618 451.0960 -72.7574
34.9647 452.2480 -67.9298
71.8410 451.4400 -24.2262
75.3577 470.0660 49.5139
21.0755 478.9295 92.8659
-41.3614 453.7400 70.3648
-75.5743 444.6875 16.9765
-65.2453 449.7100 -40.4796
-17.3073 451.0105 -74.5541
40.4573 452.4840 -64.9781
73.6186 451.3725 -18.2743
73.3286 472.5040 56.0549
13.5833 478.2880 94.3955
-46.3836 450.5600 65.1859
-76.9173 445.2000 11.2305
-61.8774 450.2400 -45.6103
-11.3838 450.9520 -75.8865
45.5990 452.6960 -61.7207
75.0719 451.5600 -12.2143
70.6260 474.5280 61.9940
6.4887 477.3185 95.1352
-51.0015 447.9200 60.0634
-77.7400 445.6625 5.5557
-58.2625 450.6800 -50.2974
-5.5837 450.9415 -76.7150
50.2942 452.8720 -58.1972
76.1995 452.0775 -6.1037
78.0000 453.0000 0.0000
67.8823 476.0000 67.8823
0.0000 476.0000 96.0000
-54.4472 446.0000 54.4472
-77.0000 446.0000 0.0000
-57.2756 452.0000 -57.2756
0.0000 452.0000 -81.0000
55.1543 453.0000 -55.1543
78.5832 454.4720 6.4517
63.3730 477.0665 72.6180
-6.1324 474.0800 94.7244
-58.1845 444.7580 49.5375
-76.9088 446.3840 -5.7640
-53.0594 452.2385 -61.2300
5.7467 452.0640 -80.5549
58.8957 452.9370 -50.8832
79.0103 456.4960 13.3981
57.7878 477.9520 77.1655
-12.2596 471.4400 92.3547
-61.6755 443.9840 44.4283
-76.3617 446.9120 -11.8109
-48.1899 452.3680 -64.9609
11.6836 452.1520 -79.4723
62.3186 452.6960 -46.2029
79.2071 458.9340 20.6818
51.3401 478.6355 81.4349
-18.3263 468.2600 89.0611
-64.8890 443.6060 39.1499
-75.3729 447.5480 -18.0317
-42.7862 452.4095 -68.4204
17.7199 452.2580 -77.8129
65.4211 452.3490 -41.1631
79.0990 461.6480 28.1452
44.2435 479.0960 85.3366
-24.2771 464.7200 85.0141
-67.7940 443.5520 33.7325
-73.9567 448.2560 -24.3171
-36.9673 452.3840 -71.5604
23.7653 452.3760 -75.6376
68.2011 451.9680 -35.8138
78.6116 464.5000 35.6309
36.7117 479.3125 88.7808
-30.0567 461.0000 80.3839
-70.3593 443.7500 28.2063
-72.1271 449.0000 -30.5580
-30.8522 452.3125 -74.3329
29.7290 452.5000 -73.0071
70.6567 451.6250 -30.2045
77.6706 467.3520 42.9815
28.9583 479.2640 91.6779
-35.6096 457.2800 75.3409
-72.5538 444.1280 22.6015
-69.8984 449.7440 -36.6453
-24.5600 452.2160 -76.6898
35.5206 452.6240 -69.9822
72.7859 451.3920 -24.3850
76.2016 470.0660 50.0393
21.1968 478.9295 93.9380
-40.8805 453.7400 70.0554
-74.3462 444.6140 16.9482
-67.2847 450.4520 -42.4699
-18.2096 452.1155 -78.5830
41.0495 452.7420 -66.6237
74.5868 451.3410 -18.4050
74.1301 472.5040 56.6471
13.6408 478.2880 95.4716
-45.8140 450.5600 64.6978
-75.7055 445.1360 11.2768
-64.3002 451.0880 -47.9225
-11.9202 452.0320 -79.9644
46.2252 452.8480 -62.9923
76.0575 451.5440 -12.3144
71.3818 474.5280 62.6472
6.5040 477.3185 96.1888
-50.3547 447.9200 59.4382
-76.6005 445.6220 5.6173
-60.9592 451.6160 -52.8942
-5.8106 451.9865 -80.7861
50.9569 452.9360 -59.1490
77.1958 452.0730 -6.1628
79.0000 453.0000 0.0000
68.5894 476.0000 68.5894
0.0000 476.0000 97.0000
-54.4472 446.0000 54.4472
-77.0000 446.0000 0.0000
-56.5685 452.0000 -56.5685
0.0000 452.0000 -80.0000
55.8614 453.0000 -55.8614
79.5795 454.4720 6.5243
64.0230 477.0665 73.3770
-6.1610 474.0800 95.6723
-58.1877 444.7580 49.4938
-76.8603 446.3840 -5.7201
-52.3721 452.2385 -60.4678
5.7620 452.0640 -79.6555
59.6515 452.9370 -51.6173
79.9959 456.4960 13.5461
58.3686 477.9520 77.9783
-12.3049 471.4400 93.2214
-61.6868 443.9840 44.3530
-76.2429 446.9120 -11.7081
-47.5563 452.3680 -64.1367
11.7411 452.1520 -78.7243
63.1202 452.6960 -46.9231
80.1753 458.9340 20.9069
51.8432 478.6355 82.3010
-18.3783 468.2600 89.8247
-64.9113 443.6060 39.0541
-75.1682 447.5480 -17.8585
-42.2318 452.4095 -67.5320
17.8412 452.2580 -77.2541
66.2649 452.3490 -41.8356
80.0439 461.6480 28.4479
44.6637 479.0960 86.2527
-24.3281 464.7200 85.6592
-67.8280 443.5520 33.6266
-73.6569 448.2560 -24.0653
-36.5091 452.3840 -70.6104
23.9662 452.3760 -75.2923
69.0833 451.9680 -36.4118
79.5277 464.5000 36.0104
37.0470 479.3125 89.7411
-30.1009 461.0000 80.9022
-70.4035 443.7500 28.0996
-71.7294 449.0000 -30.2228
-30.4986 452.3125 -73.3285
30.0201 452.5000 -72.8865
71.5727 451.6250 -30.7089
78.5528 467.3520 43.4355
29.2101 479.2640 92.6737
-35.6436 457.2800 75.7310
-72.6047 444.1280 22.5026
-69.4062 449.7440 -36.2252
-24.3111 452.2160 -75.6430
35.9068 452.6240 -70.0843
73.7308 451.3920 -24.7837
77.0455 470.0660 50.5648
21.3700 478.9295 94.9582
-40.9028 453.7400 70.3226
-74.3982 444.6140 16.8648
-66.7081 450.4520 -41.9667
-18.0569 452.1155 -77.5108
41.5304 452.7420 -66.9331
75.5551 451.3410 -18.6932
74.9317 472.5040 57.2393
13.7436 478.2880 96.5024
-45.8253 450.5600 64.8544
-75.7507 445.1360 11.2155
-63.6554 451.0880 -47.3417
-11.8466 452.0320 -78.8884
46.7947 452.8480 -63.4805
77.0430 451.5440 -12.4944
72.1376 474.5280 63.3004
6.5480 477.3185 97.2138
-50.3579 447.9200 59.5036
-76.6291 445.6220 5.5842
-60.2687 451.6160 -52.2442
-5.7908 451.9865 -79.7326
51.6038 452.9360 -59.7741
78.1921 452.0730 -6.2444
80.0000 453.0000 0.0000
69.2965 476.0000 69.2965
0.0000 476.0000 98.0000
-55.1543 447.0000 55.1543
-78.0000 447.0000 0.0000
-55.8614 452.0000 -55.8614
0.0000 452.0000 -79.0000
56.5685 453.0000 -56.5685
80.5758 454.4720 6.5968
64.6762 477.0620 74.1328
-6.2336 474.1440 96.6686
-58.9498 445.8030 50.1406
-77.7598 447.3200 -5.7048
-51.6443 452.1980 -59.7056
5.7773 452.0640 -78.7561
60.4073 452.9370 -52.3515
80.9814 456.4960 13.6942
58.9608 477.9360 78.7799
-12.4529 471.5920 94.2070
-62.5110 445.0640 44.9225
-76.9908 447.7600 -11.6506
-46.8587 452.3040 -63.3125
11.7986 452.1520 -77.9764
63.9218 452.6960 -47.6433
81.1435 458.9340 21.1321
52.3686 478.6040 83.1449
-18.6035 468.5180 90.7929
-65.7997 444.7110 39.5350
-75.7270 448.2900 -17.7372
-41.6039 452.3360 -66.6436
17.9624 452.2580 -76.6953
67.1088 452.3490 -42.5080
80.9888 461.6480 28.7506
45.1177 479.0480 87.1349
-24.6308 465.0960 86.6041
-68.7781 444.6720 34.0128
-74.0021 448.8800 -23.8644
-35.9788 452.3120 -69.6603
24.1671 452.3760 -74.9470
69.9655 451.9680 -37.0099
80.4437 464.5000 36.3898
37.4264 479.2500 90.6571
-30.4803 461.5000 81.8183
-71.4080 444.8750 28.3906
-71.8499 449.5000 -29.9317
-30.0826 452.2500 -72.3240
30.3111 452.5000 -72.7660
72.4888 451.6250 -31.2133
79.4350 467.3520 43.8896
29.5128 479.1920 93.6186
-36.0976 457.9040 76.6132
-73.6514 445.2480 22.7035
-69.3042 450.1200 -35.8390
-24.0142 452.1680 -74.5963
36.2931 452.6240 -70.1864
74.6757 451.3920 -25.1824
77.8894 470.0660 51.0902
21.5952 478.8560 95.9265
-41.4282 454.4820 71.1665
-75.4704 445.7190 16.9860
-66.3986 450.7100 -41.4859
-17.8727 452.0840 -76.4386
42.0113 452.7420 -67.2425
76.5233 451.3410 -18.9814
75.7333 472.5040 57.8315
13.8917 478.2240 97.4879
-46.4175 451.4080 65.6560
-76.8268 446.2160 11.2731
-63.1672 451.2400 -46.7721
-11.7571 452.0160 -77.8123
47.3643 452.8480 -63.9687
78.0285 451.5440 -12.6745
72.8934 474.5280 63.9536
6.6206 477.2780 98.2101
-51.0110 448.8560 60.2594
-77.6827 446.6670 5.5995
-59.6435 451.6800 -51.5974
-5.7665 451.9820 -78.6790
52.2506 452.9360 -60.3993
79.1884 452.0730 -6.3260
80.0000 453.0000 0.0000
66.4680 477.0000 66.4680
0.0000 477.0000 94.0000
-54.4472 447.0000 54.4472
-77.0000 447.0000 0.0000
-55.1543 452.0000 -55.1543
0.0000 452.0000 -78.0000
56.5685 453.0000 -56.5685
80.3820 454.5360 6.4211
61.9111 478.1070 71.1000
-6.0751 475.0800 92.8287
-58.1940 445.7625 49.6089
-76.7635 447.3200 -5.6322
-50.9943 452.1980 -58.9466
5.7487 452.0640 -77.8082
60.4201 452.9325 -52.3793
80.5062 456.6480 13.2830
56.3700 479.0160 75.5397
-12.1691 472.4400 90.6212
-61.7094 445.0000 44.5223
-76.0053 447.7600 -11.5025
-46.2778 452.3040 -62.4997
11.7534 452.1520 -77.1096
63.9670 452.6800 -47.6620
80.3247 459.1920 20.4393
50.0398 479.7090 79.7026
-18.2224 469.2600 87.5341
-64.9558 444.6375 39.2301
-74.7588 448.2900 -17.5120
-41.1008 452.3360 -65.7774
17.9104 452.2580 -75.9317
67.1979 452.3175 -42.4924
79.7895 462.0240 27.7434
43.1152 480.1680 83.5043
-24.1753 465.7200 83.7239
-67.8959 444.6000 33.7747
-73.0572 448.8800 -23.5616
-35.5587 452.3120 -68.7441
24.1162 452.3760 -74.3020
70.1012 451.9200 -36.9462
78.8527 465.0000 35.0488
35.7912 480.3750 86.8603
-29.9683 462.0000 79.3473
-70.4919 444.8125 28.1987
-70.9339 449.5000 -29.5523
-29.7473 452.2500 -71.3638
30.2670 452.5000 -72.2477
72.6656 451.5625 -31.0991
77.4665 467.9760 42.2090
28.2626 480.3120 89.6862
-35.5417 458.2800 74.5608
-72.7065 445.2000 22.5447
-68.4219 450.1200 -35.3849
-23.7624 452.1680 -73.6005
36.2591 452.6240 -69.7963
74.8794 451.3200 -25.0268
75.5828 470.8080 49.0776
20.7244 479.9610 91.8976
-40.8360 454.7400 69.5210
-74.5021 445.6875 16.8553
-65.5548 450.7100 -40.9604
-17.6995 452.0840 -75.4184
41.9890 452.7420 -66.9753
76.7312 451.2675 -18.8050
73.1538 473.3520 55.5079
13.3713 479.3040 93.4100
-45.7914 451.5600 64.3844
-75.8413 446.2000 11.1730
-62.3656 451.2400 -46.1799
-11.6543 452.0160 -76.7815
47.3530 452.8480 -63.8120
78.2096 451.4800 -12.5095
70.1315 475.4640 61.3536
6.3982 478.3230 94.1389
-50.3483 448.9200 59.3076
-76.6864 446.6625 5.5404
-58.8877 451.6800 -50.9442
-5.7226 451.9820 -77.6540
52.2474 452.9360 -60.3340
79.3030 452.0325 -6.2159
77.0000 454.0000 0.0000
67.1751 477.0000 67.1751
0.0000 477.0000 95.0000
-54.4472 448.0000 54.4472
-77.0000 448.0000 0.0000
-54.4472 452.0000 -54.4472
0.0000 452.0000 -77.0000
54.4472 454.0000 -54.4472
77.5869 455.4720 6.3791
62.7230 478.0620 71.8590
-6.1037 475.1440 93.7765
-58.1972 446.8075 49.5652
-76.7150 448.2560 -5.5882
-50.2942 452.1530 -58.1972
5.5882 452.1280 -76.7150
58.1399 453.9775 -50.3515
78.0248 457.4960 13.2500
57.2069 478.9360 76.3526
-12.2143 472.5920 91.4879
-61.7207 446.0800 44.4470
-75.8865 448.6080 -11.3998
-45.5990 452.2240 -61.7207
11.3998 452.3040 -75.8865
61.5171 453.7600 -45.8027
78.2388 459.9340 20.4566
50.8369 479.6040 80.5687
-18.2743 469.5180 88.2976
-64.9781 445.7425 39.1343
-74.5541 449.0320 -17.3388
-40.4573 452.2310 -64.9781
17.3388 452.5160 -74.5541
64.5772 453.4225 -40.8582
78.1541 462.6480 27.8425
43.8234 480.0480 84.4204
-24.2262 466.0960 84.3690
-67.9298 445.7200 33.6687
-72.7574 449.5040 -23.3098
-34.9647 452.1920 -67.9298
23.3098 452.7520 -72.7574
67.3189 453.0400 -35.5757
77.6956 465.5000 35.2515
36.3765 480.2500 87.8206
-30.0125 462.5000 79.8656
-70.5361 445.9375 28.0920
-70.5361 450.0000 -29.2170
-29.2170 452.1250 -70.5361
29.2170 453.0000 -70.5361
69.7406 452.6875 -30.0125
76.7884 468.3520 42.5274
28.7065 480.1920 90.6821
-35.5757 458.9040 74.9509
-72.7574 446.3200 22.4458
-67.9298 450.4960 -34.9647
-23.3098 452.0480 -72.7574
34.9647 453.2480 -67.9298
71.8410 452.4400 -24.2262
75.3577 471.0660 49.5139
