ply
format ascii 1.0
element vertex 979
property float x
property float y
property float z
element face 0
property list uchar int vertex_index
end_header
-2.8284 303.0000 -2.8284
-2.1213 303.0000 -2.1213
-1.4142 303.0000 -1.4142
-0.7071 303.0000 -0.7071
0.0000 303.0000 0.0000
-9.8995 304.0000 -9.8995
-9.1924 304.0000 -9.1924
-8.4853 304.0000 -8.4853
-7.7782 304.0000 -7.7782
-7.0711 304.0000 -7.0711
-6.3640 304.0000 -6.3640
-5.6569 304.0000 -5.6569
-4.9497 304.0000 -4.9497
-4.2426 304.0000 -4.2426
-3.5355 304.0000 -3.5355
-2.8284 304.0000 -2.8284
-2.1213 304.0000 -2.1213
-1.4142 304.0000 -1.4142
-0.7071 304.0000 -0.7071
0.0000 304.0000 0.0000
-12.7279 305.0000 -12.7279
-12.0208 305.0000 -12.0208
-11.3137 305.0000 -11.3137
-10.6066 305.0000 -10.6066
-9.8995 305.0000 -9.8995
-9.1924 305.0000 -9.1924
-8.4853 305.0000 -8.4853
-7.7782 305.0000 -7.7782
-7.0711 305.0000 -7.0711
-6.3640 305.0000 -6.3640
-5.6569 305.0000 -5.6569
-4.9497 305.0000 -4.9497
-4.2426 305.0000 -4.2426
-3.5355 305.0000 -3.5355
-2.8284 305.0000 -2.8284
-2.1213 305.0000 -2.1213
-1.4142 305.0000 -1.4142
-0.7071 305.0000 -0.7071
0.0000 305.0000 0.0000
-16.9706 306.0000 -16.9706
-16.2635 306.0000 -16.2635
-15.5563 306.0000 -15.5563
-14.8492 306.0000 -14.8492
-14.1421 306.0000 -14.1421
-13.4350 306.0000 -13.4350
-12.7279 306.0000 -12.7279
-12.0208 306.0000 -12.0208
-11.3137 306.0000 -11.3137
-10.6066 306.0000 -10.6066
-9.8995 306.0000 -9.8995
-9.1924 306.0000 -9.1924
-8.4853 306.0000 -8.4853
-7.7782 306.0000 -7.7782
-7.0711 306.0000 -7.0711
-6.3640 306.0000 -6.3640
-5.6569 306.0000 -5.6569
-4.9497 306.0000 -4.9497
-4.2426 306.0000 -4.2426
-3.5355 306.0000 -3.5355
-2.8284 306.0000 -2.8284
-2.1213 306.0000 -2.1213
-1.4142 306.0000 -1.4142
-0.7071 306.0000 -0.7071
0.0000 306.0000 0.0000
-19.7990 307.0000 -19.7990
-19.0919 307.0000 -19.0919
-18.3848 307.0000 -18.3848
-17.6777 307.0000 -17.6777
-16.9706 307.0000 -16.9706
-16.2635 307.0000 -16.2635
-15.5563 307.0000 -15.5563
-14.8492 307.0000 -14.8492
-14.1421 307.0000 -14.1421
-13.4350 307.0000 -13.4350
-12.7279 307.0000 -12.7279
-12.0208 307.0000 -12.0208
-11.3137 307.0000 -11.3137
-10.6066 307.0000 -10.6066
-9.8995 307.0000 -9.8995
-9.1924 307.0000 -9.1924
-8.4853 307.0000 -8.4853
-25.4558 308.0000 -25.4558
-24.7487 308.0000 -24.7487
-24.0416 308.0000 -24.0416
-23.3345 308.0000 -23.3345
-22.6274 308.0000 -22.6274
-21.9203 308.0000 -21.9203
-21.2132 308.0000 -21.2132
-20.5061 308.0000 -20.5061
-19.7990 308.0000 -19.7990
-19.0919 308.0000 -19.0919
-18.3848 308.0000 -18.3848
-17.6777 308.0000 -17.6777
-16.9706 308.0000 -16.9706
-16.2635 308.0000 -16.2635
-15.5563 308.0000 -15.5563
-14.8492 308.0000 -14.8492
-14.1421 308.0000 -14.1421
-13.4350 308.0000 -13.4350
-12.7279 308.0000 -12.7279
-28.9914 309.0000 -28.9914
-28.2843 309.0000 -28.2843
-27.5772 309.0000 -27.5772
-26.8701 309.0000 -26.8701
-26.1630 309.0000 -26.1630
-25.4558 309.0000 -25.4558
-24.7487 309.0000 -24.7487
-24.0416 309.0000 -24.0416
-23.3345 309.0000 -23.3345
-22.6274 309.0000 -22.6274
-21.9203 309.0000 -21.9203
-21.2132 309.0000 -21.2132
-20.5061 309.0000 -20.5061
-19.7990 309.0000 -19.7990
-19.0919 309.0000 -19.0919
-18.3848 309.0000 -18.3848
-17.6777 309.0000 -17.6777
-16.9706 309.0000 -16.9706
-31.8198 310.0000 -31.8198
-31.1127 310.0000 -31.1127
-30.4056 310.0000 -30.4056
-29.6985 310.0000 -29.6985
-28.9914 310.0000 -28.9914
-28.2843 310.0000 -28.2843
-27.5772 310.0000 -27.5772
-26.8701 310.0000 -26.8701
-26.1630 310.0000 -26.1630
-25.4558 310.0000 -25.4558
-24.7487 310.0000 -24.7487
-24.0416 310.0000 -24.0416
-23.3345 310.0000 -23.3345
-22.6274 310.0000 -22.6274
-21.9203 310.0000 -21.9203
-33.2340 311.0000 -33.2340
-32.5269 311.0000 -32.5269
-31.8198 311.0000 -31.8198
-31.1127 311.0000 -31.1127
-30.4056 311.0000 -30.4056
-29.6985 311.0000 -29.6985
-28.9914 311.0000 -28.9914
-28.2843 311.0000 -28.2843
-27.5772 311.0000 -27.5772
-26.8701 311.0000 -26.8701
-26.1630 311.0000 -26.1630
-25.4558 311.0000 -25.4558
-34.6482 312.0000 -34.6482
-33.9411 312.0000 -33.9411
-33.2340 312.0000 -33.2340
-32.5269 312.0000 -32.5269
-31.8198 312.0000 -31.8198
-31.1127 312.0000 -31.1127
-30.4056 312.0000 -30.4056
-29.6985 312.0000 -29.6985
-28.9914 312.0000 -28.9914
-36.0624 313.0000 -36.0624
-35.3553 313.0000 -35.3553
-34.6482 313.0000 -34.6482
-33.9411 313.0000 -33.9411
-33.2340 313.0000 -33.2340
-32.5269 313.0000 -32.5269
-31.8198 313.0000 -31.8198
-31.1127 313.0000 -31.1127
-37.4767 314.0000 -37.4767
-36.7696 314.0000 -36.7696
-36.0624 314.0000 -36.0624
-35.3553 314.0000 -35.3553
-34.6482 314.0000 -34.6482
-33.9411 314.0000 -33.9411
-33.2340 314.0000 -33.2340
-32.5269 314.0000 -32.5269
-38.8909 315.0000 -38.8909
-38.1838 315.0000 -38.1838
-37.4767 315.0000 -37.4767
-36.7696 315.0000 -36.7696
-36.0624 315.0000 -36.0624
-35.3553 315.0000 -35.3553
-34.6482 315.0000 -34.6482
-39.5980 316.0000 -39.5980
-38.8909 316.0000 -38.8909
-38.1838 316.0000 -38.1838
-37.4767 316.0000 -37.4767
-36.7696 316.0000 -36.7696
-41.7193 317.0000 -41.7193
-41.0122 317.0000 -41.0122
-40.3051 317.0000 -40.3051
-39.5980 317.0000 -39.5980
-38.8909 317.0000 -38.8909
-38.1838 317.0000 -38.1838
-37.4767 317.0000 -37.4767
-42.4264 318.0000 -42.4264
-41.7193 318.0000 -41.7193
-41.0122 318.0000 -41.0122
-40.3051 318.0000 -40.3051
-39.5980 318.0000 -39.5980
-38.8909 318.0000 -38.8909
-43.8406 319.0000 -43.8406
-43.1335 319.0000 -43.1335
-42.4264 319.0000 -42.4264
-41.7193 319.0000 -41.7193
-41.0122 319.0000 -41.0122
-45.2548 320.0000 -45.2548
-44.5477 320.0000 -44.5477
-43.8406 320.0000 -43.8406
-43.1335 320.0000 -43.1335
-42.4264 320.0000 -42.4264
-45.9619 321.0000 -45.9619
-45.2548 321.0000 -45.2548
-44.5477 321.0000 -44.5477
-43.8406 321.0000 -43.8406
-43.1335 321.0000 -43.1335
-48.0833 322.0000 -48.0833
-47.3762 322.0000 -47.3762
-46.6690 322.0000 -46.6690
-45.9619 322.0000 -45.9619
-45.2548 322.0000 -45.2548
-44.5477 322.0000 -44.5477
-48.7904 323.0000 -48.7904
-48.0833 323.0000 -48.0833
-47.3762 323.0000 -47.3762
-46.6690 323.0000 -46.6690
-45.9619 323.0000 -45.9619
-50.2046 324.0000 -50.2046
-49.4975 324.0000 -49.4975
-48.7904 324.0000 -48.7904
-48.0833 324.0000 -48.0833
-47.3762 324.0000 -47.3762
-50.9117 325.0000 -50.9117
-50.2046 325.0000 -50.2046
-49.4975 325.0000 -49.4975
-48.7904 325.0000 -48.7904
-51.6188 326.0000 -51.6188
-50.9117 326.0000 -50.9117
-50.2046 326.0000 -50.2046
-49.4975 326.0000 -49.4975
-52.3259 327.0000 -52.3259
-51.6188 327.0000 -51.6188
-50.9117 327.0000 -50.9117
-50.2046 327.0000 -50.2046
-54.4472 328.0000 -54.4472
-53.7401 328.0000 -53.7401
-53.0330 328.0000 -53.0330
-52.3259 328.0000 -52.3259
-51.6188 328.0000 -51.6188
-50.9117 328.0000 -50.9117
-55.1543 329.0000 -55.1543
-54.4472 329.0000 -54.4472
-53.7401 329.0000 -53.7401
-53.0330 329.0000 -53.0330
-52.3259 329.0000 -52.3259
-55.1543 330.0000 -55.1543
-54.4472 330.0000 -54.4472
-53.7401 330.0000 -53.7401
-55.8614 332.0000 -55.8614
-58.6899 335.0000 -58.6899
-60.1041 337.0000 -60.1041
-59.3970 337.0000 -59.3970
-60.8112 338.0000 -60.8112
-60.1041 338.0000 -60.1041
-61.5183 339.0000 -61.5183
-62.2254 340.0000 -62.2254
-61.5183 340.0000 -61.5183
-62.9325 341.0000 -62.9325
-62.2254 341.0000 -62.2254
-63.6396 342.0000 -63.6396
-62.9325 342.0000 -62.9325
-64.3467 343.0000 -64.3467
-63.6396 343.0000 -63.6396
-65.0538 344.0000 -65.0538
-64.3467 344.0000 -64.3467
-65.7609 345.0000 -65.7609
-65.0538 345.0000 -65.0538
-64.3467 345.0000 -64.3467
-66.4680 346.0000 -66.4680
-65.7609 346.0000 -65.7609
-65.0538 346.0000 -65.0538
-67.1751 347.0000 -67.1751
-66.4680 347.0000 -66.4680
-65.7609 347.0000 -65.7609
-67.8823 348.0000 -67.8823
-67.1751 348.0000 -67.1751
-66.4680 348.0000 -66.4680
-65.7609 348.0000 -65.7609
-67.8823 349.0000 -67.8823
-67.1751 349.0000 -67.1751
-66.4680 349.0000 -66.4680
-67.8823 350.0000 -67.8823
-67.1751 350.0000 -67.1751
-68.5894 351.0000 -68.5894
-67.8823 351.0000 -67.8823
-67.1751 351.0000 -67.1751
-68.5894 352.0000 -68.5894
-67.8823 352.0000 -67.8823
-69.2965 353.0000 -69.2965
-68.5894 353.0000 -68.5894
-67.8823 353.0000 -67.8823
-69.2965 354.0000 -69.2965
-68.5894 354.0000 -68.5894
-67.8823 354.0000 -67.8823
-70.0036 355.0000 -70.0036
-69.2965 355.0000 -69.2965
-68.5894 355.0000 -68.5894
-70.7107 356.0000 -70.7107
-70.0036 356.0000 -70.0036
-69.2965 356.0000 -69.2965
-68.5894 356.0000 -68.5894
-70.7107 357.0000 -70.7107
-70.0036 357.0000 -70.0036
-69.2965 357.0000 -69.2965
-70.7107 358.0000 -70.7107
-70.0036 358.0000 -70.0036
-69.2965 358.0000 -69.2965
-71.4178 359.0000 -71.4178
-70.7107 359.0000 -70.7107
-70.0036 359.0000 -70.0036
-69.2965 359.0000 -69.2965
-71.4178 360.0000 -71.4178
-70.7107 360.0000 -70.7107
-70.0036 360.0000 -70.0036
-72.1249 361.0000 -72.1249
-71.4178 361.0000 -71.4178
-70.7107 361.0000 -70.7107
-70.0036 361.0000 -70.0036
-72.1249 362.0000 -72.1249
-71.4178 362.0000 -71.4178
-70.7107 362.0000 -70.7107
-70.0036 362.0000 -70.0036
-72.1249 363.0000 -72.1249
-71.4178 363.0000 -71.4178
-70.7107 363.0000 -70.7107
-72.1249 364.0000 -72.1249
-71.4178 364.0000 -71.4178
-70.7107 364.0000 -70.7107
-72.8320 365.0000 -72.8320
-72.1249 365.0000 -72.1249
-71.4178 365.0000 -71.4178
-70.7107 365.0000 -70.7107
-72.8320 366.0000 -72.8320
-72.1249 366.0000 -72.1249
-71.4178 366.0000 -71.4178
-70.7107 366.0000 -70.7107
-72.8320 367.0000 -72.8320
-72.1249 367.0000 -72.1249
-71.4178 367.0000 -71.4178
-70.7107 367.0000 -70.7107
-73.5391 368.0000 -73.5391
-72.8320 368.0000 -72.8320
-72.1249 368.0000 -72.1249
-71.4178 368.0000 -71.4178
-73.5391 369.0000 -73.5391
-72.8320 369.0000 -72.8320
-72.1249 369.0000 -72.1249
-71.4178 369.0000 -71.4178
-73.5391 370.0000 -73.5391
-72.8320 370.0000 -72.8320
-72.1249 370.0000 -72.1249
-71.4178 370.0000 -71.4178
-73.5391 371.0000 -73.5391
-72.8320 371.0000 -72.8320
-72.1249 371.0000 -72.1249
-71.4178 371.0000 -71.4178
-73.5391 372.0000 -73.5391
-72.8320 372.0000 -72.8320
-72.1249 372.0000 -72.1249
-73.5391 373.0000 -73.5391
-72.8320 373.0000 -72.8320
-72.1249 373.0000 -72.1249
-74.2462 374.0000 -74.2462
-73.5391 374.0000 -73.5391
-72.8320 374.0000 -72.8320
-72.1249 374.0000 -72.1249
-74.2462 375.0000 -74.2462
-73.5391 375.0000 -73.5391
-72.8320 375.0000 -72.8320
-72.1249 375.0000 -72.1249
-74.2462 376.0000 -74.2462
-73.5391 376.0000 -73.5391
-72.8320 376.0000 -72.8320
-72.1249 376.0000 -72.1249
-74.2462 377.0000 -74.2462
-73.5391 377.0000 -73.5391
-72.8320 377.0000 -72.8320
-72.1249 377.0000 -72.1249
-74.2462 378.0000 -74.2462
-73.5391 378.0000 -73.5391
-72.8320 378.0000 -72.8320
-72.1249 378.0000 -72.1249
-74.2462 379.0000 -74.2462
-73.5391 379.0000 -73.5391
-72.8320 379.0000 -72.8320
-72.1249 379.0000 -72.1249
-74.2462 380.0000 -74.2462
-73.5391 380.0000 -73.5391
-72.8320 380.0000 -72.8320
-72.1249 380.0000 -72.1249
-74.2462 381.0000 -74.2462
-73.5391 381.0000 -73.5391
-72.8320 381.0000 -72.8320
-72.1249 381.0000 -72.1249
-74.2462 382.0000 -74.2462
-73.5391 382.0000 -73.5391
-72.8320 382.0000 -72.8320
-74.2462 383.0000 -74.2462
-73.5391 383.0000 -73.5391
-72.8320 383.0000 -72.8320
-74.2462 384.0000 -74.2462
-73.5391 384.0000 -73.5391
-72.8320 384.0000 -72.8320
-74.2462 385.0000 -74.2462
-73.5391 385.0000 -73.5391
-72.8320 385.0000 -72.8320
-74.2462 386.0000 -74.2462
-73.5391 386.0000 -73.5391
-72.8320 386.0000 -72.8320
-74.2462 387.0000 -74.2462
-73.5391 387.0000 -73.5391
-72.8320 387.0000 -72.8320
-74.2462 388.0000 -74.2462
-73.5391 388.0000 -73.5391
-72.8320 388.0000 -72.8320
-74.2462 389.0000 -74.2462
-73.5391 389.0000 -73.5391
-72.8320 389.0000 -72.8320
-74.2462 390.0000 -74.2462
-73.5391 390.0000 -73.5391
-72.8320 390.0000 -72.8320
-74.2462 391.0000 -74.2462
-73.5391 391.0000 -73.5391
-72.8320 391.0000 -72.8320
-74.2462 392.0000 -74.2462
-73.5391 392.0000 -73.5391
-72.8320 392.0000 -72.8320
-74.2462 393.0000 -74.2462
-73.5391 393.0000 -73.5391
-72.8320 393.0000 -72.8320
-74.2462 394.0000 -74.2462
-73.5391 394.0000 -73.5391
-72.8320 394.0000 -72.8320
-74.2462 395.0000 -74.2462
-73.5391 395.0000 -73.5391
-72.8320 395.0000 -72.8320
-74.2462 396.0000 -74.2462
-73.5391 396.0000 -73.5391
-72.8320 396.0000 -72.8320
-74.2462 397.0000 -74.2462
-73.5391 397.0000 -73.5391
-72.8320 397.0000 -72.8320
-74.2462 398.0000 -74.2462
-73.5391 398.0000 -73.5391
-72.8320 398.0000 -72.8320
-73.5391 399.0000 -73.5391
-72.8320 399.0000 -72.8320
-72.1249 399.0000 -72.1249
-73.5391 400.0000 -73.5391
-72.8320 400.0000 -72.8320
-72.1249 400.0000 -72.1249
-73.5391 401.0000 -73.5391
-72.8320 401.0000 -72.8320
-72.1249 401.0000 -72.1249
-71.4178 401.0000 -71.4178
-73.5391 402.0000 -73.5391
-72.8320 402.0000 -72.8320
-72.1249 402.0000 -72.1249
-71.4178 402.0000 -71.4178
-73.5391 403.0000 -73.5391
-72.8320 403.0000 -72.8320
-72.1249 403.0000 -72.1249
-71.4178 403.0000 -71.4178
-72.8320 404.0000 -72.8320
-72.1249 404.0000 -72.1249
-71.4178 404.0000 -71.4178
-72.8320 405.0000 -72.8320
-72.1249 405.0000 -72.1249
-71.4178 405.0000 -71.4178
-70.7107 405.0000 -70.7107
-72.8320 406.0000 -72.8320
-72.1249 406.0000 -72.1249
-71.4178 406.0000 -71.4178
-70.7107 406.0000 -70.7107
-72.8320 407.0000 -72.8320
-72.1249 407.0000 -72.1249
-71.4178 407.0000 -71.4178
-70.7107 407.0000 -70.7107
-72.8320 408.0000 -72.8320
-72.1249 408.0000 -72.1249
-71.4178 408.0000 -71.4178
-70.7107 408.0000 -70.7107
-72.8320 409.0000 -72.8320
-72.1249 409.0000 -72.1249
-71.4178 409.0000 -71.4178
-70.7107 409.0000 -70.7107
-72.8320 410.0000 -72.8320
-72.1249 410.0000 -72.1249
-71.4178 410.0000 -71.4178
-70.7107 410.0000 -70.7107
-70.0036 410.0000 -70.0036
-72.8320 411.0000 -72.8320
-72.1249 411.0000 -72.1249
-71.4178 411.0000 -71.4178
-70.7107 411.0000 -70.7107
-70.0036 411.0000 -70.0036
-72.8320 412.0000 -72.8320
-72.1249 412.0000 -72.1249
-71.4178 412.0000 -71.4178
-70.7107 412.0000 -70.7107
-70.0036 412.0000 -70.0036
-72.1249 413.0000 -72.1249
-71.4178 413.0000 -71.4178
-70.7107 413.0000 -70.7107
-70.0036 413.0000 -70.0036
-72.1249 414.0000 -72.1249
-71.4178 414.0000 -71.4178
-70.7107 414.0000 -70.7107
-70.0036 414.0000 -70.0036
-72.1249 415.0000 -72.1249
-71.4178 415.0000 -71.4178
-70.7107 415.0000 -70.7107
-70.0036 415.0000 -70.0036
-69.2965 415.0000 -69.2965
-72.1249 416.0000 -72.1249
-71.4178 416.0000 -71.4178
-70.7107 416.0000 -70.7107
-70.0036 416.0000 -70.0036
-69.2965 416.0000 -69.2965
-71.4178 417.0000 -71.4178
-70.7107 417.0000 -70.7107
-70.0036 417.0000 -70.0036
-69.2965 417.0000 -69.2965
-71.4178 418.0000 -71.4178
-70.7107 418.0000 -70.7107
-70.0036 418.0000 -70.0036
-69.2965 418.0000 -69.2965
-70.7107 419.0000 -70.7107
-70.0036 419.0000 -70.0036
-69.2965 419.0000 -69.2965
-68.5894 419.0000 -68.5894
-70.7107 420.0000 -70.7107
-70.0036 420.0000 -70.0036
-69.2965 420.0000 -69.2965
-68.5894 420.0000 -68.5894
-70.0036 421.0000 -70.0036
-69.2965 421.0000 -69.2965
-68.5894 421.0000 -68.5894
-70.0036 422.0000 -70.0036
-69.2965 422.0000 -69.2965
-68.5894 422.0000 -68.5894
-67.8823 422.0000 -67.8823
-69.2965 423.0000 -69.2965
-68.5894 423.0000 -68.5894
-67.8823 423.0000 -67.8823
-69.2965 424.0000 -69.2965
-68.5894 424.0000 -68.5894
-67.8823 424.0000 -67.8823
-69.2965 425.0000 -69.2965
-68.5894 425.0000 -68.5894
-67.8823 425.0000 -67.8823
-67.1751 425.0000 -67.1751
-68.5894 426.0000 -68.5894
-67.8823 426.0000 -67.8823
-67.1751 426.0000 -67.1751
-68.5894 427.0000 -68.5894
-67.8823 427.0000 -67.8823
-67.1751 427.0000 -67.1751
-66.4680 427.0000 -66.4680
-67.8823 428.0000 -67.8823
-67.1751 428.0000 -67.1751
-66.4680 428.0000 -66.4680
-67.8823 429.0000 -67.8823
-67.1751 429.0000 -67.1751
-66.4680 429.0000 -66.4680
-65.7609 429.0000 -65.7609
-67.1751 430.0000 -67.1751
-66.4680 430.0000 -66.4680
-65.7609 430.0000 -65.7609
-67.1751 431.0000 -67.1751
-66.4680 431.0000 -66.4680
-65.7609 431.0000 -65.7609
-66.4680 432.0000 -66.4680
-65.7609 432.0000 -65.7609
-65.0538 432.0000 -65.0538
-65.7609 433.0000 -65.7609
-65.0538 433.0000 -65.0538
-65.7609 434.0000 -65.7609
-65.0538 434.0000 -65.0538
-64.3467 434.0000 -64.3467
-65.0538 435.0000 -65.0538
-64.3467 435.0000 -64.3467
-63.6396 435.0000 -63.6396
-65.0538 436.0000 -65.0538
-64.3467 436.0000 -64.3467
-63.6396 436.0000 -63.6396
-65.0538 437.0000 -65.0538
-64.3467 437.0000 -64.3467
-63.6396 437.0000 -63.6396
-62.9325 437.0000 -62.9325
-64.3467 438.0000 -64.3467
-63.6396 438.0000 -63.6396
-62.9325 438.0000 -62.9325
-62.2254 438.0000 -62.2254
-64.3467 439.0000 -64.3467
-63.6396 439.0000 -63.6396
-62.9325 439.0000 -62.9325
-62.2254 439.0000 -62.2254
-61.5183 439.0000 -61.5183
-63.6396 440.0000 -63.6396
-62.9325 440.0000 -62.9325
-62.2254 440.0000 -62.2254
-61.5183 440.0000 -61.5183
-60.8112 440.0000 -60.8112
-62.9325 441.0000 -62.9325
-62.2254 441.0000 -62.2254
-61.5183 441.0000 -61.5183
-60.8112 441.0000 -60.8112
-62.9325 442.0000 -62.9325
-62.2254 442.0000 -62.2254
-61.5183 442.0000 -61.5183
-60.8112 442.0000 -60.8112
-60.1041 442.0000 -60.1041
-62.2254 443.0000 -62.2254
-61.5183 443.0000 -61.5183
-60.8112 443.0000 -60.8112
-60.1041 443.0000 -60.1041
-59.3970 443.0000 -59.3970
-61.5183 444.0000 -61.5183
-60.8112 444.0000 -60.8112
-60.1041 444.0000 -60.1041
-59.3970 444.0000 -59.3970
-58.6899 444.0000 -58.6899
-60.8112 445.0000 -60.8112
-60.1041 445.0000 -60.1041
-59.3970 445.0000 -59.3970
-58.6899 445.0000 -58.6899
-60.8112 446.0000 -60.8112
-60.1041 446.0000 -60.1041
-59.3970 446.0000 -59.3970
-58.6899 446.0000 -58.6899
-57.9828 446.0000 -57.9828
-60.1041 447.0000 -60.1041
-59.3970 447.0000 -59.3970
-58.6899 447.0000 -58.6899
-57.9828 447.0000 -57.9828
-57.2756 447.0000 -57.2756
-59.3970 448.0000 -59.3970
-58.6899 448.0000 -58.6899
-57.9828 448.0000 -57.9828
-57.2756 448.0000 -57.2756
-58.6899 449.0000 -58.6899
-57.9828 449.0000 -57.9828
-57.2756 449.0000 -57.2756
-56.5685 449.0000 -56.5685
-57.9828 450.0000 -57.9828
-57.2756 450.0000 -57.2756
-56.5685 450.0000 -56.5685
-55.8614 450.0000 -55.8614
-55.1543 450.0000 -55.1543
-57.2756 451.0000 -57.2756
-56.5685 451.0000 -56.5685
-55.8614 451.0000 -55.8614
-55.1543 451.0000 -55.1543
-54.4472 451.0000 -54.4472
-57.2756 452.0000 -57.2756
-56.5685 452.0000 -56.5685
-55.8614 452.0000 -55.8614
-55.1543 452.0000 -55.1543
-54.4472 452.0000 -54.4472
-53.7401 452.0000 -53.7401
-56.5685 453.0000 -56.5685
-55.8614 453.0000 -55.8614
-55.1543 453.0000 -55.1543
-54.4472 453.0000 -54.4472
-53.7401 453.0000 -53.7401
-53.0330 453.0000 -53.0330
-55.8614 454.0000 -55.8614
-55.1543 454.0000 -55.1543
-54.4472 454.0000 -54.4472
-53.7401 454.0000 -53.7401
-53.0330 454.0000 -53.0330
-52.3259 454.0000 -52.3259
-55.1543 455.0000 -55.1543
-54.4472 455.0000 -54.4472
-53.7401 455.0000 -53.7401
-53.0330 455.0000 -53.0330
-52.3259 455.0000 -52.3259
-51.6188 455.0000 -51.6188
-54.4472 456.0000 -54.4472
-53.7401 456.0000 -53.7401
-53.0330 456.0000 -53.0330
-52.3259 456.0000 -52.3259
-51.6188 456.0000 -51.6188
-50.9117 456.0000 -50.9117
-53.7401 457.0000 -53.7401
-53.0330 457.0000 -53.0330
-52.3259 457.0000 -52.3259
-51.6188 457.0000 -51.6188
-50.9117 457.0000 -50.9117
-50.2046 457.0000 -50.2046
-53.0330 458.0000 -53.0330
-52.3259 458.0000 -52.3259
-51.6188 458.0000 -51.6188
-50.9117 458.0000 -50.9117
-50.2046 458.0000 -50.2046
-49.4975 458.0000 -49.4975
-48.7904 458.0000 -48.7904
-52.3259 459.0000 -52.3259
-51.6188 459.0000 -51.6188
-50.9117 459.0000 -50.9117
-50.2046 459.0000 -50.2046
-49.4975 459.0000 -49.4975
-48.7904 459.0000 -48.7904
-48.0833 459.0000 -48.0833
-51.6188 460.0000 -51.6188
-50.9117 460.0000 -50.9117
-50.2046 460.0000 -50.2046
-49.4975 460.0000 -49.4975
-48.7904 460.0000 -48.7904
-48.0833 460.0000 -48.0833
-47.3762 460.0000 -47.3762
-50.9117 461.0000 -50.9117
-50.2046 461.0000 -50.2046
-49.4975 461.0000 -49.4975
-48.7904 461.0000 -48.7904
-48.0833 461.0000 -48.0833
-47.3762 461.0000 -47.3762
-46.6690 461.0000 -46.6690
-49.4975 462.0000 -49.4975
-48.7904 462.0000 -48.7904
-48.0833 462.0000 -48.0833
-47.3762 462.0000 -47.3762
-46.6690 462.0000 -46.6690
-45.9619 462.0000 -45.9619
-48.0833 463.0000 -48.0833
-47.3762 463.0000 -47.3762
-46.6690 463.0000 -46.6690
-45.9619 463.0000 -45.9619
-45.2548 463.0000 -45.2548
-47.3762 464.0000 -47.3762
-46.6690 464.0000 -46.6690
-45.9619 464.0000 -45.9619
-45.2548 464.0000 -45.2548
-44.5477 464.0000 -44.5477
-43.8406 464.0000 -43.8406
-46.6690 465.0000 -46.6690
-45.9619 465.0000 -45.9619
-45.2548 465.0000 -45.2548
-44.5477 465.0000 -44.5477
-43.8406 465.0000 -43.8406
-43.1335 465.0000 -43.1335
-45.9619 466.0000 -45.9619
-45.2548 466.0000 -45.2548
-44.5477 466.0000 -44.5477
-43.8406 466.0000 -43.8406
-43.1335 466.0000 -43.1335
-42.4264 466.0000 -42.4264
-44.5477 467.0000 -44.5477
-43.8406 467.0000 -43.8406
-43.1335 467.0000 -43.1335
-42.4264 467.0000 -42.4264
-41.7193 467.0000 -41.7193
-43.8406 468.0000 -43.8406
-43.1335 468.0000 -43.1335
-42.4264 468.0000 -42.4264
-41.7193 468.0000 -41.7193
-43.8406 469.0000 -43.8406
-43.1335 469.0000 -43.1335
-42.4264 469.0000 -42.4264
-41.7193 469.0000 -41.7193
-43.1335 470.0000 -43.1335
-42.4264 470.0000 -42.4264
-41.7193 470.0000 -41.7193
-43.1335 471.0000 -43.1335
-42.4264 471.0000 -42.4264
-41.7193 471.0000 -41.7193
-42.4264 472.0000 -42.4264
-41.7193 472.0000 -41.7193
-41.0122 472.0000 -41.0122
-42.4264 473.0000 -42.4264
-41.7193 473.0000 -41.7193
-41.0122 473.0000 -41.0122
-42.4264 474.0000 -42.4264
-41.7193 474.0000 -41.7193
-41.0122 474.0000 -41.0122
-40.3051 474.0000 -40.3051
-42.4264 475.0000 -42.4264
-41.7193 475.0000 -41.7193
-41.0122 475.0000 -41.0122
-40.3051 475.0000 -40.3051
-41.7193 476.0000 -41.7193
-41.0122 476.0000 -41.0122
-40.3051 476.0000 -40.3051
-39.5980 476.0000 -39.5980
-41.7193 477.0000 -41.7193
-41.0122 477.0000 -41.0122
-40.3051 477.0000 -40.3051
-39.5980 477.0000 -39.5980
-41.7193 478.0000 -41.7193
-41.0122 478.0000 -41.0122
-40.3051 478.0000 -40.3051
-39.5980 478.0000 -39.5980
-41.0122 479.0000 -41.0122
-40.3051 479.0000 -40.3051
-39.5980 479.0000 -39.5980
-38.8909 479.0000 -38.8909
-40.3051 480.0000 -40.3051
-39.5980 480.0000 -39.5980
-38.8909 480.0000 -38.8909
-40.3051 481.0000 -40.3051
-39.5980 481.0000 -39.5980
-38.8909 481.0000 -38.8909
-38.1838 481.0000 -38.1838
-39.5980 482.0000 -39.5980
-38.8909 482.0000 -38.8909
-38.1838 482.0000 -38.1838
-39.5980 483.0000 -39.5980
-38.8909 483.0000 -38.8909
-38.1838 483.0000 -38.1838
-37.4767 483.0000 -37.4767
-39.5980 484.0000 -39.5980
-38.8909 484.0000 -38.8909
-38.1838 484.0000 -38.1838
-38.8909 485.0000 -38.8909
-38.1838 485.0000 -38.1838
-38.8909 486.0000 -38.8909
-38.1838 486.0000 -38.1838
-38.8909 487.0000 -38.8909
-38.1838 487.0000 -38.1838
-37.4767 487.0000 -37.4767
-38.8909 488.0000 -38.8909
-38.1838 488.0000 -38.1838
-37.4767 488.0000 -37.4767
-38.8909 489.0000 -38.8909
-38.1838 489.0000 -38.1838
-37.4767 489.0000 -37.4767
-38.8909 490.0000 -38.8909
-38.1838 490.0000 -38.1838
-37.4767 490.0000 -37.4767
-38.8909 491.0000 -38.8909
-38.1838 491.0000 -38.1838
-37.4767 491.0000 -37.4767
-38.8909 492.0000 -38.8909
-38.1838 492.0000 -38.1838
-37.4767 492.0000 -37.4767
-38.8909 493.0000 -38.8909
-38.1838 493.0000 -38.1838
-37.4767 493.0000 -37.4767
-38.8909 494.0000 -38.8909
-38.1838 494.0000 -38.1838
-37.4767 494.0000 -37.4767
-38.8909 495.0000 -38.8909
-38.1838 495.0000 -38.1838
-37.4767 495.0000 -37.4767
-38.8909 496.0000 -38.8909
-38.1838 496.0000 -38.1838
-37.4767 496.0000 -37.4767
-38.8909 497.0000 -38.8909
-38.1838 497.0000 -38.1838
-37.4767 497.0000 -37.4767
-38.8909 498.0000 -38.8909
-38.1838 498.0000 -38.1838
-37.4767 498.0000 -37.4767
-38.8909 499.0000 -38.8909
-38.1838 499.0000 -38.1838
-37.4767 499.0000 -37.4767
-38.8909 500.0000 -38.8909
-38.1838 500.0000 -38.1838
-37.4767 500.0000 -37.4767
-38.8909 501.0000 -38.8909
-38.1838 501.0000 -38.1838
-37.4767 501.0000 -37.4767
-38.8909 502.0000 -38.8909
-38.1838 502.0000 -38.1838
-37.4767 502.0000 -37.4767
-38.8909 503.0000 -38.8909
-38.1838 503.0000 -38.1838
-37.4767 503.0000 -37.4767
-38.8909 504.0000 -38.8909
-38.1838 504.0000 -38.1838
-37.4767 504.0000 -37.4767
-38.1838 505.0000 -38.1838
-37.4767 505.0000 -37.4767
-38.1838 506.0000 -38.1838
-37.4767 506.0000 -37.4767
-38.8909 507.0000 -38.8909
-38.1838 507.0000 -38.1838
-37.4767 507.0000 -37.4767
-38.8909 508.0000 -38.8909
-38.1838 508.0000 -38.1838
-37.4767 508.0000 -37.4767
-36.7696 508.0000 -36.7696
-38.8909 509.0000 -38.8909
-38.1838 509.0000 -38.1838
-37.4767 509.0000 -37.4767
-38.8909 510.0000 -38.8909
-38.1838 510.0000 -38.1838
-37.4767 510.0000 -37.4767
-38.8909 511.0000 -38.8909
-38.1838 511.0000 -38.1838
-37.4767 511.0000 -37.4767
-38.8909 512.0000 -38.8909
-38.1838 512.0000 -38.1838
-37.4767 512.0000 -37.4767
-39.5980 513.0000 -39.5980
-38.8909 513.0000 -38.8909
-38.1838 513.0000 -38.1838
-39.5980 514.0000 -39.5980
-38.8909 514.0000 -38.8909
-38.1838 514.0000 -38.1838
-40.3051 515.0000 -40.3051
-39.5980 515.0000 -39.5980
-38.8909 515.0000 -38.8909
-38.1838 515.0000 -38.1838
-40.3051 516.0000 -40.3051
-39.5980 516.0000 -39.5980
-38.8909 516.0000 -38.8909
-38.1838 516.0000 -38.1838
-40.3051 517.0000 -40.3051
-39.5980 517.0000 -39.5980
-38.8909 517.0000 -38.8909
-41.0122 518.0000 -41.0122
-40.3051 518.0000 -40.3051
-39.5980 518.0000 -39.5980
-38.8909 518.0000 -38.8909
-41.0122 519.0000 -41.0122
-40.3051 519.0000 -40.3051
-39.5980 519.0000 -39.5980
-38.8909 519.0000 -38.8909
-41.7193 520.0000 -41.7193
-41.0122 520.0000 -41.0122
-40.3051 520.0000 -40.3051
-39.5980 520.0000 -39.5980
-41.7193 521.0000 -41.7193
-41.0122 521.0000 -41.0122
-40.3051 521.0000 -40.3051
-39.5980 521.0000 -39.5980
-41.7193 522.0000 -41.7193
-41.0122 522.0000 -41.0122
-40.3051 522.0000 -40.3051
-42.4264 523.0000 -42.4264
-41.7193 523.0000 -41.7193
-41.0122 523.0000 -41.0122
-40.3051 523.0000 -40.3051
-42.4264 524.0000 -42.4264
-41.7193 524.0000 -41.7193
-41.0122 524.0000 -41.0122
-43.1335 525.0000 -43.1335
-42.4264 525.0000 -42.4264
-41.7193 525.0000 -41.7193
-41.0122 525.0000 -41.0122
-43.1335 526.0000 -43.1335
-42.4264 526.0000 -42.4264
-41.7193 526.0000 -41.7193
-43.8406 527.0000 -43.8406
-43.1335 527.0000 -43.1335
-42.4264 527.0000 -42.4264
-41.7193 527.0000 -41.7193
-43.8406 528.0000 -43.8406
-43.1335 528.0000 -43.1335
-42.4264 528.0000 -42.4264
-41.7193 528.0000 -41.7193
-44.5477 529.0000 -44.5477
-43.8406 529.0000 -43.8406
-43.1335 529.0000 -43.1335
-42.4264 529.0000 -42.4264
-44.5477 530.0000 -44.5477
-43.8406 530.0000 -43.8406
-43.1335 530.0000 -43.1335
-42.4264 530.0000 -42.4264
-45.2548 531.0000 -45.2548
-44.5477 531.0000 -44.5477
-43.8406 531.0000 -43.8406
-43.1335 531.0000 -43.1335
-45.2548 532.0000 -45.2548
-44.5477 532.0000 -44.5477
-43.8406 532.0000 -43.8406
-45.2548 533.0000 -45.2548
-44.5477 533.0000 -44.5477
-43.8406 533.0000 -43.8406
-45.9619 534.0000 -45.9619
-45.2548 534.0000 -45.2548
-44.5477 534.0000 -44.5477
-43.8406 534.0000 -43.8406
