ply
format ascii 1.0
element vertex 962
property float x
property float y
property float z
element face 0
property list uchar int vertex_index
end_header
0.7071 303.0000 0.7071
1.4142 303.0000 1.4142
2.1213 303.0000 2.1213
2.8284 303.0000 2.8284
3.5355 303.0000 3.5355
4.2426 303.0000 4.2426
4.9497 303.0000 4.9497
5.6569 303.0000 5.6569
6.3640 303.0000 6.3640
7.0711 303.0000 7.0711
7.7782 303.0000 7.7782
8.4853 303.0000 8.4853
0.7071 304.0000 0.7071
1.4142 304.0000 1.4142
2.1213 304.0000 2.1213
2.8284 304.0000 2.8284
3.5355 304.0000 3.5355
4.2426 304.0000 4.2426
4.9497 304.0000 4.9497
5.6569 304.0000 5.6569
6.3640 304.0000 6.3640
7.0711 304.0000 7.0711
7.7782 304.0000 7.7782
8.4853 304.0000 8.4853
9.1924 304.0000 9.1924
9.8995 304.0000 9.8995
10.6066 304.0000 10.6066
11.3137 304.0000 11.3137
12.0208 304.0000 12.0208
12.7279 304.0000 12.7279
13.4350 304.0000 13.4350
14.1421 304.0000 14.1421
0.7071 305.0000 0.7071
1.4142 305.0000 1.4142
2.1213 305.0000 2.1213
2.8284 305.0000 2.8284
3.5355 305.0000 3.5355
4.2426 305.0000 4.2426
4.9497 305.0000 4.9497
5.6569 305.0000 5.6569
6.3640 305.0000 6.3640
7.0711 305.0000 7.0711
7.7782 305.0000 7.7782
8.4853 305.0000 8.4853
9.1924 305.0000 9.1924
9.8995 305.0000 9.8995
10.6066 305.0000 10.6066
11.3137 305.0000 11.3137
12.0208 305.0000 12.0208
12.7279 305.0000 12.7279
13.4350 305.0000 13.4350
14.1421 305.0000 14.1421
14.8492 305.0000 14.8492
15.5563 305.0000 15.5563
16.2635 305.0000 16.2635
16.9706 305.0000 16.9706
17.6777 305.0000 17.6777
18.3848 305.0000 18.3848
19.0919 305.0000 19.0919
0.7071 306.0000 0.7071
1.4142 306.0000 1.4142
2.1213 306.0000 2.1213
2.8284 306.0000 2.8284
3.5355 306.0000 3.5355
4.2426 306.0000 4.2426
4.9497 306.0000 4.9497
5.6569 306.0000 5.6569
6.3640 306.0000 6.3640
7.0711 306.0000 7.0711
7.7782 306.0000 7.7782
8.4853 306.0000 8.4853
9.1924 306.0000 9.1924
9.8995 306.0000 9.8995
10.6066 306.0000 10.6066
11.3137 306.0000 11.3137
12.0208 306.0000 12.0208
12.7279 306.0000 12.7279
13.4350 306.0000 13.4350
14.1421 306.0000 14.1421
14.8492 306.0000 14.8492
15.5563 306.0000 15.5563
16.2635 306.0000 16.2635
16.9706 306.0000 16.9706
17.6777 306.0000 17.6777
18.3848 306.0000 18.3848
19.0919 306.0000 19.0919
19.7990 306.0000 19.7990
20.5061 306.0000 20.5061
21.2132 306.0000 21.2132
21.9203 306.0000 21.9203
22.6274 306.0000 22.6274
12.7279 307.0000 12.7279
13.4350 307.0000 13.4350
14.1421 307.0000 14.1421
14.8492 307.0000 14.8492
15.5563 307.0000 15.5563
16.2635 307.0000 16.2635
16.9706 307.0000 16.9706
17.6777 307.0000 17.6777
18.3848 307.0000 18.3848
19.0919 307.0000 19.0919
19.7990 307.0000 19.7990
20.5061 307.0000 20.5061
21.2132 307.0000 21.2132
21.9203 307.0000 21.9203
22.6274 307.0000 22.6274
23.3345 307.0000 23.3345
24.0416 307.0000 24.0416
16.2635 308.0000 16.2635
16.9706 308.0000 16.9706
17.6777 308.0000 17.6777
18.3848 308.0000 18.3848
19.0919 308.0000 19.0919
19.7990 308.0000 19.7990
20.5061 308.0000 20.5061
21.2132 308.0000 21.2132
21.9203 308.0000 21.9203
22.6274 308.0000 22.6274
23.3345 308.0000 23.3345
24.0416 308.0000 24.0416
24.7487 308.0000 24.7487
25.4558 308.0000 25.4558
26.1630 308.0000 26.1630
26.8701 308.0000 26.8701
21.2132 309.0000 21.2132
21.9203 309.0000 21.9203
22.6274 309.0000 22.6274
23.3345 309.0000 23.3345
24.0416 309.0000 24.0416
24.7487 309.0000 24.7487
25.4558 309.0000 25.4558
26.1630 309.0000 26.1630
26.8701 309.0000 26.8701
27.5772 309.0000 27.5772
28.2843 309.0000 28.2843
24.0416 310.0000 24.0416
24.7487 310.0000 24.7487
25.4558 310.0000 25.4558
26.1630 310.0000 26.1630
26.8701 310.0000 26.8701
27.5772 310.0000 27.5772
28.2843 310.0000 28.2843
28.9914 310.0000 28.9914
29.6985 310.0000 29.6985
30.4056 310.0000 30.4056
26.8701 311.0000 26.8701
27.5772 311.0000 27.5772
28.2843 311.0000 28.2843
28.9914 311.0000 28.9914
29.6985 311.0000 29.6985
30.4056 311.0000 30.4056
31.1127 311.0000 31.1127
27.5772 312.0000 27.5772
28.2843 312.0000 28.2843
28.9914 312.0000 28.9914
29.6985 312.0000 29.6985
30.4056 312.0000 30.4056
31.1127 312.0000 31.1127
31.8198 312.0000 31.8198
32.5269 312.0000 32.5269
33.2340 312.0000 33.2340
30.4056 313.0000 30.4056
31.1127 313.0000 31.1127
31.8198 313.0000 31.8198
32.5269 313.0000 32.5269
33.2340 313.0000 33.2340
33.9411 313.0000 33.9411
34.6482 313.0000 34.6482
32.5269 314.0000 32.5269
33.2340 314.0000 33.2340
33.9411 314.0000 33.9411
34.6482 314.0000 34.6482
35.3553 314.0000 35.3553
36.0624 314.0000 36.0624
36.7696 314.0000 36.7696
37.4767 314.0000 37.4767
33.9411 315.0000 33.9411
34.6482 315.0000 34.6482
35.3553 315.0000 35.3553
36.0624 315.0000 36.0624
36.7696 315.0000 36.7696
37.4767 315.0000 37.4767
38.1838 315.0000 38.1838
34.6482 316.0000 34.6482
35.3553 316.0000 35.3553
36.0624 316.0000 36.0624
36.7696 316.0000 36.7696
37.4767 316.0000 37.4767
38.1838 316.0000 38.1838
38.8909 316.0000 38.8909
37.4767 317.0000 37.4767
38.1838 317.0000 38.1838
38.8909 317.0000 38.8909
39.5980 317.0000 39.5980
38.1838 318.0000 38.1838
38.8909 318.0000 38.8909
39.5980 318.0000 39.5980
40.3051 318.0000 40.3051
39.5980 319.0000 39.5980
40.3051 319.0000 40.3051
41.0122 319.0000 41.0122
41.7193 319.0000 41.7193
40.3051 320.0000 40.3051
41.0122 320.0000 41.0122
41.7193 320.0000 41.7193
42.4264 320.0000 42.4264
41.7193 321.0000 41.7193
42.4264 321.0000 42.4264
43.1335 321.0000 43.1335
42.4264 322.0000 42.4264
43.1335 322.0000 43.1335
43.8406 322.0000 43.8406
44.5477 322.0000 44.5477
43.1335 323.0000 43.1335
43.8406 323.0000 43.8406
44.5477 323.0000 44.5477
45.2548 323.0000 45.2548
43.8406 324.0000 43.8406
44.5477 324.0000 44.5477
45.2548 324.0000 45.2548
45.9619 324.0000 45.9619
45.2548 325.0000 45.2548
45.9619 325.0000 45.9619
46.6690 325.0000 46.6690
45.9619 326.0000 45.9619
46.6690 326.0000 46.6690
47.3762 326.0000 47.3762
46.6690 327.0000 46.6690
47.3762 327.0000 47.3762
48.0833 327.0000 48.0833
48.0833 328.0000 48.0833
48.7904 328.0000 48.7904
48.7904 329.0000 48.7904
49.4975 329.0000 49.4975
48.7904 330.0000 48.7904
49.4975 330.0000 49.4975
50.2046 330.0000 50.2046
49.4975 331.0000 49.4975
50.2046 331.0000 50.2046
50.9117 331.0000 50.9117
50.2046 332.0000 50.2046
50.9117 332.0000 50.9117
51.6188 332.0000 51.6188
52.3259 332.0000 52.3259
50.9117 333.0000 50.9117
51.6188 333.0000 51.6188
52.3259 333.0000 52.3259
51.6188 334.0000 51.6188
52.3259 334.0000 52.3259
53.0330 334.0000 53.0330
52.3259 335.0000 52.3259
53.0330 335.0000 53.0330
53.7401 335.0000 53.7401
52.3259 336.0000 52.3259
53.0330 336.0000 53.0330
53.7401 336.0000 53.7401
54.4472 336.0000 54.4472
53.0330 337.0000 53.0330
53.7401 337.0000 53.7401
54.4472 337.0000 54.4472
53.7401 338.0000 53.7401
54.4472 338.0000 54.4472
55.1543 338.0000 55.1543
54.4472 339.0000 54.4472
55.1543 339.0000 55.1543
55.1543 340.0000 55.1543
55.8614 340.0000 55.8614
55.1543 341.0000 55.1543
55.8614 341.0000 55.8614
56.5685 341.0000 56.5685
55.8614 342.0000 55.8614
56.5685 342.0000 56.5685
56.5685 343.0000 56.5685
56.5685 344.0000 56.5685
57.2756 344.0000 57.2756
57.2756 345.0000 57.2756
56.5685 346.0000 56.5685
57.2756 346.0000 57.2756
56.5685 347.0000 56.5685
57.2756 347.0000 57.2756
57.9828 347.0000 57.9828
58.6899 347.0000 58.6899
59.3970 347.0000 59.3970
56.5685 348.0000 56.5685
57.2756 348.0000 57.2756
57.9828 348.0000 57.9828
58.6899 348.0000 58.6899
59.3970 348.0000 59.3970
59.3970 349.0000 59.3970
60.1041 349.0000 60.1041
58.6899 350.0000 58.6899
59.3970 350.0000 59.3970
60.1041 350.0000 60.1041
60.8112 350.0000 60.8112
59.3970 351.0000 59.3970
60.1041 351.0000 60.1041
60.8112 351.0000 60.8112
60.1041 352.0000 60.1041
60.8112 352.0000 60.8112
61.5183 352.0000 61.5183
60.1041 353.0000 60.1041
60.8112 353.0000 60.8112
61.5183 353.0000 61.5183
62.2254 353.0000 62.2254
60.8112 354.0000 60.8112
61.5183 354.0000 61.5183
62.2254 354.0000 62.2254
61.5183 355.0000 61.5183
62.2254 355.0000 62.2254
62.9325 355.0000 62.9325
61.5183 356.0000 61.5183
62.2254 356.0000 62.2254
62.9325 356.0000 62.9325
61.5183 357.0000 61.5183
62.2254 357.0000 62.2254
62.9325 357.0000 62.9325
63.6396 357.0000 63.6396
62.2254 358.0000 62.2254
62.9325 358.0000 62.9325
63.6396 358.0000 63.6396
62.9325 359.0000 62.9325
63.6396 359.0000 63.6396
62.9325 360.0000 62.9325
63.6396 360.0000 63.6396
64.3467 360.0000 64.3467
63.6396 361.0000 63.6396
64.3467 361.0000 64.3467
63.6396 362.0000 63.6396
64.3467 362.0000 64.3467
63.6396 363.0000 63.6396
64.3467 363.0000 64.3467
65.0538 363.0000 65.0538
63.6396 364.0000 63.6396
64.3467 364.0000 64.3467
65.0538 364.0000 65.0538
64.3467 365.0000 64.3467
65.0538 365.0000 65.0538
65.7609 365.0000 65.7609
65.0538 366.0000 65.0538
65.7609 366.0000 65.7609
65.0538 367.0000 65.0538
65.7609 367.0000 65.7609
66.4680 367.0000 66.4680
65.0538 368.0000 65.0538
65.7609 368.0000 65.7609
66.4680 368.0000 66.4680
65.0538 369.0000 65.0538
65.7609 369.0000 65.7609
66.4680 369.0000 66.4680
65.7609 370.0000 65.7609
66.4680 370.0000 66.4680
66.4680 371.0000 66.4680
66.4680 372.0000 66.4680
66.4680 373.0000 66.4680
67.1751 373.0000 67.1751
66.4680 374.0000 66.4680
67.1751 374.0000 67.1751
67.1751 375.0000 67.1751
67.1751 376.0000 67.1751
67.8823 376.0000 67.8823
67.1751 377.0000 67.1751
67.8823 377.0000 67.8823
67.1751 378.0000 67.1751
67.8823 378.0000 67.8823
67.1751 379.0000 67.1751
67.8823 379.0000 67.8823
67.8823 380.0000 67.8823
68.5894 380.0000 68.5894
67.8823 381.0000 67.8823
68.5894 381.0000 68.5894
67.8823 382.0000 67.8823
68.5894 382.0000 68.5894
67.8823 383.0000 67.8823
68.5894 383.0000 68.5894
67.8823 384.0000 67.8823
68.5894 384.0000 68.5894
67.8823 385.0000 67.8823
68.5894 385.0000 68.5894
68.5894 386.0000 68.5894
69.2965 386.0000 69.2965
68.5894 387.0000 68.5894
69.2965 387.0000 69.2965
68.5894 388.0000 68.5894
69.2965 388.0000 69.2965
68.5894 389.0000 68.5894
69.2965 389.0000 69.2965
68.5894 390.0000 68.5894
69.2965 390.0000 69.2965
70.0036 390.0000 70.0036
68.5894 391.0000 68.5894
69.2965 391.0000 69.2965
70.0036 391.0000 70.0036
68.5894 392.0000 68.5894
69.2965 392.0000 69.2965
70.0036 392.0000 70.0036
68.5894 393.0000 68.5894
69.2965 393.0000 69.2965
70.0036 393.0000 70.0036
68.5894 394.0000 68.5894
69.2965 394.0000 69.2965
70.0036 394.0000 70.0036
68.5894 395.0000 68.5894
69.2965 395.0000 69.2965
70.0036 395.0000 70.0036
68.5894 396.0000 68.5894
69.2965 396.0000 69.2965
70.0036 396.0000 70.0036
68.5894 397.0000 68.5894
69.2965 397.0000 69.2965
70.0036 397.0000 70.0036
68.5894 398.0000 68.5894
69.2965 398.0000 69.2965
70.0036 398.0000 70.0036
68.5894 399.0000 68.5894
69.2965 399.0000 69.2965
70.0036 399.0000 70.0036
68.5894 400.0000 68.5894
69.2965 400.0000 69.2965
68.5894 401.0000 68.5894
69.2965 401.0000 69.2965
68.5894 402.0000 68.5894
69.2965 402.0000 69.2965
68.5894 403.0000 68.5894
69.2965 403.0000 69.2965
68.5894 404.0000 68.5894
68.5894 405.0000 68.5894
67.8823 406.0000 67.8823
68.5894 406.0000 68.5894
69.2965 406.0000 69.2965
67.8823 407.0000 67.8823
68.5894 407.0000 68.5894
69.2965 407.0000 69.2965
67.8823 408.0000 67.8823
68.5894 408.0000 68.5894
69.2965 408.0000 69.2965
68.5894 409.0000 68.5894
69.2965 409.0000 69.2965
68.5894 410.0000 68.5894
69.2965 410.0000 69.2965
70.0036 410.0000 70.0036
69.2965 411.0000 69.2965
70.0036 411.0000 70.0036
69.2965 412.0000 69.2965
70.0036 412.0000 70.0036
69.2965 413.0000 69.2965
70.0036 413.0000 70.0036
69.2965 414.0000 69.2965
70.0036 414.0000 70.0036
70.7107 414.0000 70.7107
70.0036 415.0000 70.0036
70.7107 415.0000 70.7107
70.0036 416.0000 70.0036
70.7107 416.0000 70.7107
71.4178 416.0000 71.4178
70.0036 417.0000 70.0036
70.7107 417.0000 70.7107
71.4178 417.0000 71.4178
70.0036 418.0000 70.0036
70.7107 418.0000 70.7107
71.4178 418.0000 71.4178
70.0036 419.0000 70.0036
70.7107 419.0000 70.7107
71.4178 419.0000 71.4178
70.0036 420.0000 70.0036
70.7107 420.0000 70.7107
71.4178 420.0000 71.4178
70.7107 421.0000 70.7107
71.4178 421.0000 71.4178
70.7107 422.0000 70.7107
71.4178 422.0000 71.4178
70.7107 423.0000 70.7107
71.4178 423.0000 71.4178
70.7107 424.0000 70.7107
71.4178 424.0000 71.4178
72.1249 424.0000 72.1249
70.7107 425.0000 70.7107
71.4178 425.0000 71.4178
72.1249 425.0000 72.1249
70.7107 426.0000 70.7107
71.4178 426.0000 71.4178
72.1249 426.0000 72.1249
70.7107 427.0000 70.7107
71.4178 427.0000 71.4178
72.1249 427.0000 72.1249
70.7107 428.0000 70.7107
71.4178 428.0000 71.4178
72.1249 428.0000 72.1249
72.8320 428.0000 72.8320
70.7107 429.0000 70.7107
71.4178 429.0000 71.4178
72.1249 429.0000 72.1249
72.8320 429.0000 72.8320
71.4178 430.0000 71.4178
72.1249 430.0000 72.1249
72.8320 430.0000 72.8320
71.4178 431.0000 71.4178
72.1249 431.0000 72.1249
72.8320 431.0000 72.8320
71.4178 432.0000 71.4178
72.1249 432.0000 72.1249
72.8320 432.0000 72.8320
71.4178 433.0000 71.4178
72.1249 433.0000 72.1249
72.8320 433.0000 72.8320
72.1249 434.0000 72.1249
72.8320 434.0000 72.8320
72.1249 435.0000 72.1249
72.8320 435.0000 72.8320
72.1249 436.0000 72.1249
72.8320 436.0000 72.8320
72.1249 437.0000 72.1249
72.8320 437.0000 72.8320
73.5391 437.0000 73.5391
72.1249 438.0000 72.1249
72.8320 438.0000 72.8320
73.5391 438.0000 73.5391
72.8320 439.0000 72.8320
73.5391 439.0000 73.5391
72.8320 440.0000 72.8320
73.5391 440.0000 73.5391
74.2462 440.0000 74.2462
72.8320 441.0000 72.8320
73.5391 441.0000 73.5391
74.2462 441.0000 74.2462
72.8320 442.0000 72.8320
73.5391 442.0000 73.5391
74.2462 442.0000 74.2462
72.8320 443.0000 72.8320
73.5391 443.0000 73.5391
74.2462 443.0000 74.2462
72.8320 444.0000 72.8320
73.5391 444.0000 73.5391
74.2462 444.0000 74.2462
73.5391 445.0000 73.5391
74.2462 445.0000 74.2462
74.9533 445.0000 74.9533
73.5391 446.0000 73.5391
74.2462 446.0000 74.2462
74.9533 446.0000 74.9533
74.2462 447.0000 74.2462
74.9533 447.0000 74.9533
75.6604 447.0000 75.6604
74.2462 448.0000 74.2462
74.9533 448.0000 74.9533
75.6604 448.0000 75.6604
74.2462 449.0000 74.2462
74.9533 449.0000 74.9533
75.6604 449.0000 75.6604
74.9533 450.0000 74.9533
75.6604 450.0000 75.6604
76.3675 450.0000 76.3675
74.9533 451.0000 74.9533
75.6604 451.0000 75.6604
76.3675 451.0000 76.3675
74.9533 452.0000 74.9533
75.6604 452.0000 75.6604
76.3675 452.0000 76.3675
74.9533 453.0000 74.9533
75.6604 453.0000 75.6604
76.3675 453.0000 76.3675
74.9533 454.0000 74.9533
75.6604 454.0000 75.6604
76.3675 454.0000 76.3675
75.6604 455.0000 75.6604
76.3675 455.0000 76.3675
75.6604 456.0000 75.6604
76.3675 456.0000 76.3675
74.9533 457.0000 74.9533
75.6604 457.0000 75.6604
76.3675 457.0000 76.3675
74.9533 458.0000 74.9533
75.6604 458.0000 75.6604
76.3675 458.0000 76.3675
71.4178 459.0000 71.4178
72.1249 459.0000 72.1249
72.8320 459.0000 72.8320
73.5391 459.0000 73.5391
74.2462 459.0000 74.2462
74.9533 459.0000 74.9533
75.6604 459.0000 75.6604
70.0036 460.0000 70.0036
70.7107 460.0000 70.7107
71.4178 460.0000 71.4178
72.1249 460.0000 72.1249
72.8320 460.0000 72.8320
73.5391 460.0000 73.5391
74.2462 460.0000 74.2462
74.9533 460.0000 74.9533
75.6604 460.0000 75.6604
68.5894 461.0000 68.5894
69.2965 461.0000 69.2965
70.0036 461.0000 70.0036
70.7107 461.0000 70.7107
71.4178 461.0000 71.4178
72.1249 461.0000 72.1249
72.8320 461.0000 72.8320
73.5391 461.0000 73.5391
67.8823 462.0000 67.8823
68.5894 462.0000 68.5894
69.2965 462.0000 69.2965
70.0036 462.0000 70.0036
70.7107 462.0000 70.7107
67.1751 463.0000 67.1751
69.2965 463.0000 69.2965
70.0036 463.0000 70.0036
66.4680 464.0000 66.4680
67.1751 464.0000 67.1751
69.2965 464.0000 69.2965
70.0036 464.0000 70.0036
66.4680 465.0000 66.4680
67.1751 465.0000 67.1751
68.5894 465.0000 68.5894
69.2965 465.0000 69.2965
66.4680 466.0000 66.4680
68.5894 466.0000 68.5894
69.2965 466.0000 69.2965
68.5894 467.0000 68.5894
69.2965 467.0000 69.2965
68.5894 468.0000 68.5894
69.2965 468.0000 69.2965
67.8823 469.0000 67.8823
68.5894 469.0000 68.5894
69.2965 469.0000 69.2965
70.0036 469.0000 70.0036
67.8823 470.0000 67.8823
68.5894 470.0000 68.5894
69.2965 470.0000 69.2965
70.0036 470.0000 70.0036
68.5894 471.0000 68.5894
69.2965 471.0000 69.2965
70.0036 471.0000 70.0036
69.2965 472.0000 69.2965
70.0036 472.0000 70.0036
70.7107 472.0000 70.7107
69.2965 473.0000 69.2965
70.0036 473.0000 70.0036
70.7107 473.0000 70.7107
68.5894 474.0000 68.5894
69.2965 474.0000 69.2965
70.0036 474.0000 70.0036
70.7107 474.0000 70.7107
67.8823 475.0000 67.8823
68.5894 475.0000 68.5894
69.2965 475.0000 69.2965
70.0036 475.0000 70.0036
66.4680 476.0000 66.4680
67.1751 476.0000 67.1751
67.8823 476.0000 67.8823
68.5894 476.0000 68.5894
69.2965 476.0000 69.2965
66.4680 477.0000 66.4680
67.1751 477.0000 67.1751
67.8823 477.0000 67.8823
68.5894 477.0000 68.5894
65.7609 478.0000 65.7609
66.4680 478.0000 66.4680
67.1751 478.0000 67.1751
67.8823 478.0000 67.8823
65.0538 479.0000 65.0538
65.7609 479.0000 65.7609
66.4680 479.0000 66.4680
65.7609 480.0000 65.7609
66.4680 480.0000 66.4680
65.0538 481.0000 65.0538
65.7609 481.0000 65.7609
66.4680 481.0000 66.4680
64.3467 482.0000 64.3467
65.0538 482.0000 65.0538
65.7609 482.0000 65.7609
63.6396 483.0000 63.6396
64.3467 483.0000 64.3467
61.5183 484.0000 61.5183
62.2254 484.0000 62.2254
62.9325 484.0000 62.9325
63.6396 484.0000 63.6396
60.8112 485.0000 60.8112
61.5183 485.0000 61.5183
62.2254 485.0000 62.2254
62.9325 485.0000 62.9325
60.8112 486.0000 60.8112
61.5183 486.0000 61.5183
62.2254 486.0000 62.2254
62.9325 486.0000 62.9325
61.5183 487.0000 61.5183
62.2254 487.0000 62.2254
62.9325 487.0000 62.9325
63.6396 487.0000 63.6396
61.5183 488.0000 61.5183
62.2254 488.0000 62.2254
62.9325 488.0000 62.9325
63.6396 488.0000 63.6396
64.3467 488.0000 64.3467
62.9325 489.0000 62.9325
63.6396 489.0000 63.6396
64.3467 489.0000 64.3467
63.6396 490.0000 63.6396
64.3467 490.0000 64.3467
65.0538 490.0000 65.0538
64.3467 491.0000 64.3467
65.0538 491.0000 65.0538
64.3467 492.0000 64.3467
65.0538 492.0000 65.0538
65.7609 492.0000 65.7609
65.0538 493.0000 65.0538
65.7609 493.0000 65.7609
65.0538 494.0000 65.0538
65.7609 494.0000 65.7609
65.0538 495.0000 65.0538
65.7609 495.0000 65.7609
65.0538 496.0000 65.0538
65.7609 496.0000 65.7609
66.4680 496.0000 66.4680
65.0538 497.0000 65.0538
65.7609 497.0000 65.7609
66.4680 497.0000 66.4680
65.0538 498.0000 65.0538
65.7609 498.0000 65.7609
66.4680 498.0000 66.4680
65.0538 499.0000 65.0538
65.7609 499.0000 65.7609
65.0538 500.0000 65.0538
65.7609 500.0000 65.7609
65.0538 501.0000 65.0538
65.7609 501.0000 65.7609
65.0538 502.0000 65.0538
65.7609 502.0000 65.7609
65.0538 503.0000 65.0538
65.7609 503.0000 65.7609
64.3467 504.0000 64.3467
65.0538 504.0000 65.0538
65.7609 504.0000 65.7609
64.3467 505.0000 64.3467
65.0538 505.0000 65.0538
65.7609 505.0000 65.7609
63.6396 506.0000 63.6396
64.3467 506.0000 64.3467
65.0538 506.0000 65.0538
65.7609 506.0000 65.7609
63.6396 507.0000 63.6396
64.3467 507.0000 64.3467
65.0538 507.0000 65.0538
62.9325 508.0000 62.9325
63.6396 508.0000 63.6396
64.3467 508.0000 64.3467
65.0538 508.0000 65.0538
62.9325 509.0000 62.9325
63.6396 509.0000 63.6396
64.3467 509.0000 64.3467
62.2254 510.0000 62.2254
62.9325 510.0000 62.9325
63.6396 510.0000 63.6396
61.5183 511.0000 61.5183
62.2254 511.0000 62.2254
62.9325 511.0000 62.9325
60.8112 512.0000 60.8112
61.5183 512.0000 61.5183
62.2254 512.0000 62.2254
62.9325 512.0000 62.9325
53.0330 513.0000 53.0330
53.7401 513.0000 53.7401
59.3970 513.0000 59.3970
60.1041 513.0000 60.1041
60.8112 513.0000 60.8112
61.5183 513.0000 61.5183
62.2254 513.0000 62.2254
51.6188 514.0000 51.6188
52.3259 514.0000 52.3259
53.0330 514.0000 53.0330
53.7401 514.0000 53.7401
54.4472 514.0000 54.4472
55.1543 514.0000 55.1543
55.8614 514.0000 55.8614
56.5685 514.0000 56.5685
57.2756 514.0000 57.2756
57.9828 514.0000 57.9828
58.6899 514.0000 58.6899
59.3970 514.0000 59.3970
60.1041 514.0000 60.1041
60.8112 514.0000 60.8112
61.5183 514.0000 61.5183
33.2340 515.0000 33.2340
50.9117 515.0000 50.9117
51.6188 515.0000 51.6188
52.3259 515.0000 52.3259
53.0330 515.0000 53.0330
53.7401 515.0000 53.7401
54.4472 515.0000 54.4472
55.1543 515.0000 55.1543
55.8614 515.0000 55.8614
56.5685 515.0000 56.5685
57.2756 515.0000 57.2756
57.9828 515.0000 57.9828
58.6899 515.0000 58.6899
59.3970 515.0000 59.3970
60.1041 515.0000 60.1041
60.8112 515.0000 60.8112
32.5269 516.0000 32.5269
33.2340 516.0000 33.2340
33.9411 516.0000 33.9411
34.6482 516.0000 34.6482
35.3553 516.0000 35.3553
36.0624 516.0000 36.0624
48.7904 516.0000 48.7904
49.4975 516.0000 49.4975
50.2046 516.0000 50.2046
50.9117 516.0000 50.9117
51.6188 516.0000 51.6188
52.3259 516.0000 52.3259
53.0330 516.0000 53.0330
53.7401 516.0000 53.7401
54.4472 516.0000 54.4472
55.1543 516.0000 55.1543
55.8614 516.0000 55.8614
56.5685 516.0000 56.5685
57.2756 516.0000 57.2756
57.9828 516.0000 57.9828
58.6899 516.0000 58.6899
59.3970 516.0000 59.3970
60.1041 516.0000 60.1041
31.8198 517.0000 31.8198
32.5269 517.0000 32.5269
33.2340 517.0000 33.2340
33.9411 517.0000 33.9411
34.6482 517.0000 34.6482
35.3553 517.0000 35.3553
36.0624 517.0000 36.0624
36.7696 517.0000 36.7696
37.4767 517.0000 37.4767
38.1838 517.0000 38.1838
38.8909 517.0000 38.8909
39.5980 517.0000 39.5980
40.3051 517.0000 40.3051
41.0122 517.0000 41.0122
41.7193 517.0000 41.7193
45.9619 517.0000 45.9619
46.6690 517.0000 46.6690
47.3762 517.0000 47.3762
48.0833 517.0000 48.0833
48.7904 517.0000 48.7904
49.4975 517.0000 49.4975
50.2046 517.0000 50.2046
50.9117 517.0000 50.9117
51.6188 517.0000 51.6188
52.3259 517.0000 52.3259
55.1543 517.0000 55.1543
55.8614 517.0000 55.8614
56.5685 517.0000 56.5685
57.2756 517.0000 57.2756
57.9828 517.0000 57.9828
58.6899 517.0000 58.6899
31.1127 518.0000 31.1127
31.8198 518.0000 31.8198
32.5269 518.0000 32.5269
33.2340 518.0000 33.2340
33.9411 518.0000 33.9411
34.6482 518.0000 34.6482
35.3553 518.0000 35.3553
36.0624 518.0000 36.0624
36.7696 518.0000 36.7696
37.4767 518.0000 37.4767
38.1838 518.0000 38.1838
38.8909 518.0000 38.8909
39.5980 518.0000 39.5980
40.3051 518.0000 40.3051
41.0122 518.0000 41.0122
41.7193 518.0000 41.7193
42.4264 518.0000 42.4264
43.1335 518.0000 43.1335
43.8406 518.0000 43.8406
44.5477 518.0000 44.5477
45.2548 518.0000 45.2548
45.9619 518.0000 45.9619
46.6690 518.0000 46.6690
47.3762 518.0000 47.3762
48.0833 518.0000 48.0833
48.7904 518.0000 48.7904
49.4975 518.0000 49.4975
50.2046 518.0000 50.2046
50.9117 518.0000 50.9117
30.4056 519.0000 30.4056
31.1127 519.0000 31.1127
31.8198 519.0000 31.8198
32.5269 519.0000 32.5269
34.6482 519.0000 34.6482
35.3553 519.0000 35.3553
36.0624 519.0000 36.0624
36.7696 519.0000 36.7696
37.4767 519.0000 37.4767
38.1838 519.0000 38.1838
38.8909 519.0000 38.8909
39.5980 519.0000 39.5980
40.3051 519.0000 40.3051
41.0122 519.0000 41.0122
41.7193 519.0000 41.7193
42.4264 519.0000 42.4264
43.1335 519.0000 43.1335
43.8406 519.0000 43.8406
44.5477 519.0000 44.5477
45.2548 519.0000 45.2548
45.9619 519.0000 45.9619
46.6690 519.0000 46.6690
47.3762 519.0000 47.3762
48.0833 519.0000 48.0833
48.7904 519.0000 48.7904
49.4975 519.0000 49.4975
29.6985 520.0000 29.6985
30.4056 520.0000 30.4056
31.1127 520.0000 31.1127
31.8198 520.0000 31.8198
42.4264 520.0000 42.4264
43.1335 520.0000 43.1335
43.8406 520.0000 43.8406
44.5477 520.0000 44.5477
45.2548 520.0000 45.2548
45.9619 520.0000 45.9619
46.6690 520.0000 46.6690
47.3762 520.0000 47.3762
29.6985 521.0000 29.6985
30.4056 521.0000 30.4056
31.1127 521.0000 31.1127
31.8198 521.0000 31.8198
28.9914 522.0000 28.9914
29.6985 522.0000 29.6985
30.4056 522.0000 30.4056
31.1127 522.0000 31.1127
28.9914 523.0000 28.9914
29.6985 523.0000 29.6985
30.4056 523.0000 30.4056
31.1127 523.0000 31.1127
29.6985 524.0000 29.6985
30.4056 524.0000 30.4056
31.1127 524.0000 31.1127
29.6985 525.0000 29.6985
30.4056 525.0000 30.4056
31.1127 525.0000 31.1127
29.6985 526.0000 29.6985
30.4056 526.0000 30.4056
31.1127 526.0000 31.1127
29.6985 527.0000 29.6985
30.4056 527.0000 30.4056
31.1127 527.0000 31.1127
29.6985 528.0000 29.6985
30.4056 528.0000 30.4056
31.1127 528.0000 31.1127
29.6985 529.0000 29.6985
30.4056 529.0000 30.4056
31.1127 529.0000 31.1127
29.6985 530.0000 29.6985
30.4056 530.0000 30.4056
31.1127 530.0000 31.1127
29.6985 531.0000 29.6985
30.4056 531.0000 30.4056
31.1127 531.0000 31.1127
29.6985 532.0000 29.6985
30.4056 532.0000 30.4056
31.1127 532.0000 31.1127
29.6985 533.0000 29.6985
30.4056 533.0000 30.4056
31.1127 533.0000 31.1127
29.6985 534.0000 29.6985
30.4056 534.0000 30.4056
31.1127 534.0000 31.1127
