ply
format ascii 1.0
element vertex 751
property float x
property float y
property float z
element face 0
property list uchar int vertex_index
end_header
7.0711 306.0000 -7.0711
7.7782 306.0000 -7.7782
0.7071 307.0000 -0.7071
1.4142 307.0000 -1.4142
2.1213 307.0000 -2.1213
2.8284 307.0000 -2.8284
3.5355 307.0000 -3.5355
4.2426 307.0000 -4.2426
4.9497 307.0000 -4.9497
5.6569 307.0000 -5.6569
6.3640 307.0000 -6.3640
7.0711 307.0000 -7.0711
7.7782 307.0000 -7.7782
8.4853 307.0000 -8.4853
9.1924 307.0000 -9.1924
9.8995 307.0000 -9.8995
10.6066 307.0000 -10.6066
12.0208 307.0000 -12.0208
12.7279 307.0000 -12.7279
13.4350 307.0000 -13.4350
14.1421 307.0000 -14.1421
0.7071 308.0000 -0.7071
1.4142 308.0000 -1.4142
2.1213 308.0000 -2.1213
2.8284 308.0000 -2.8284
3.5355 308.0000 -3.5355
4.2426 308.0000 -4.2426
4.9497 308.0000 -4.9497
5.6569 308.0000 -5.6569
6.3640 308.0000 -6.3640
7.0711 308.0000 -7.0711
7.7782 308.0000 -7.7782
8.4853 308.0000 -8.4853
9.1924 308.0000 -9.1924
9.8995 308.0000 -9.8995
10.6066 308.0000 -10.6066
11.3137 308.0000 -11.3137
12.0208 308.0000 -12.0208
12.7279 308.0000 -12.7279
13.4350 308.0000 -13.4350
14.1421 308.0000 -14.1421
14.8492 308.0000 -14.8492
15.5563 308.0000 -15.5563
16.2635 308.0000 -16.2635
16.9706 308.0000 -16.9706
17.6777 308.0000 -17.6777
0.7071 309.0000 -0.7071
1.4142 309.0000 -1.4142
2.1213 309.0000 -2.1213
2.8284 309.0000 -2.8284
3.5355 309.0000 -3.5355
6.3640 309.0000 -6.3640
7.0711 309.0000 -7.0711
7.7782 309.0000 -7.7782
9.1924 309.0000 -9.1924
12.7279 309.0000 -12.7279
13.4350 309.0000 -13.4350
14.1421 309.0000 -14.1421
14.8492 309.0000 -14.8492
15.5563 309.0000 -15.5563
16.2635 309.0000 -16.2635
16.9706 309.0000 -16.9706
17.6777 309.0000 -17.6777
18.3848 309.0000 -18.3848
19.0919 309.0000 -19.0919
19.7990 309.0000 -19.7990
20.5061 309.0000 -20.5061
21.2132 309.0000 -21.2132
21.9203 309.0000 -21.9203
16.2635 310.0000 -16.2635
16.9706 310.0000 -16.9706
17.6777 310.0000 -17.6777
18.3848 310.0000 -18.3848
19.0919 310.0000 -19.0919
19.7990 310.0000 -19.7990
20.5061 310.0000 -20.5061
21.2132 310.0000 -21.2132
21.9203 310.0000 -21.9203
22.6274 310.0000 -22.6274
23.3345 310.0000 -23.3345
24.0416 310.0000 -24.0416
19.7990 311.0000 -19.7990
20.5061 311.0000 -20.5061
21.2132 311.0000 -21.2132
21.9203 311.0000 -21.9203
22.6274 311.0000 -22.6274
23.3345 311.0000 -23.3345
24.0416 311.0000 -24.0416
24.7487 311.0000 -24.7487
25.4558 311.0000 -25.4558
22.6274 312.0000 -22.6274
23.3345 312.0000 -23.3345
24.0416 312.0000 -24.0416
24.7487 312.0000 -24.7487
25.4558 312.0000 -25.4558
26.1630 312.0000 -26.1630
26.8701 312.0000 -26.8701
27.5772 312.0000 -27.5772
24.7487 313.0000 -24.7487
25.4558 313.0000 -25.4558
26.1630 313.0000 -26.1630
26.8701 313.0000 -26.8701
27.5772 313.0000 -27.5772
28.2843 313.0000 -28.2843
28.9914 313.0000 -28.9914
29.6985 313.0000 -29.6985
30.4056 313.0000 -30.4056
26.1630 314.0000 -26.1630
26.8701 314.0000 -26.8701
27.5772 314.0000 -27.5772
28.2843 314.0000 -28.2843
28.9914 314.0000 -28.9914
29.6985 314.0000 -29.6985
30.4056 314.0000 -30.4056
31.1127 314.0000 -31.1127
27.5772 315.0000 -27.5772
28.2843 315.0000 -28.2843
28.9914 315.0000 -28.9914
29.6985 315.0000 -29.6985
30.4056 315.0000 -30.4056
31.1127 315.0000 -31.1127
31.8198 315.0000 -31.8198
29.6985 316.0000 -29.6985
30.4056 316.0000 -30.4056
31.1127 316.0000 -31.1127
31.8198 316.0000 -31.8198
32.5269 316.0000 -32.5269
33.2340 316.0000 -33.2340
31.8198 317.0000 -31.8198
32.5269 317.0000 -32.5269
33.2340 317.0000 -33.2340
33.9411 317.0000 -33.9411
34.6482 317.0000 -34.6482
33.2340 318.0000 -33.2340
33.9411 318.0000 -33.9411
34.6482 318.0000 -34.6482
35.3553 318.0000 -35.3553
36.0624 318.0000 -36.0624
33.9411 319.0000 -33.9411
34.6482 319.0000 -34.6482
35.3553 319.0000 -35.3553
36.0624 319.0000 -36.0624
36.7696 319.0000 -36.7696
35.3553 320.0000 -35.3553
36.0624 320.0000 -36.0624
36.7696 320.0000 -36.7696
37.4767 320.0000 -37.4767
37.4767 321.0000 -37.4767
38.1838 321.0000 -38.1838
38.8909 321.0000 -38.8909
39.5980 321.0000 -39.5980
38.1838 322.0000 -38.1838
38.8909 322.0000 -38.8909
39.5980 322.0000 -39.5980
40.3051 322.0000 -40.3051
39.5980 323.0000 -39.5980
40.3051 323.0000 -40.3051
43.1335 326.0000 -43.1335
43.8406 326.0000 -43.8406
43.8406 327.0000 -43.8406
44.5477 327.0000 -44.5477
45.2548 327.0000 -45.2548
44.5477 328.0000 -44.5477
45.2548 328.0000 -45.2548
45.9619 328.0000 -45.9619
45.2548 329.0000 -45.2548
45.9619 329.0000 -45.9619
46.6690 330.0000 -46.6690
46.6690 331.0000 -46.6690
47.3762 331.0000 -47.3762
47.3762 332.0000 -47.3762
48.0833 332.0000 -48.0833
48.7904 332.0000 -48.7904
48.0833 333.0000 -48.0833
48.7904 333.0000 -48.7904
48.0833 334.0000 -48.0833
48.7904 334.0000 -48.7904
49.4975 334.0000 -49.4975
49.4975 335.0000 -49.4975
50.2046 335.0000 -50.2046
50.9117 335.0000 -50.9117
49.4975 336.0000 -49.4975
50.2046 336.0000 -50.2046
50.9117 336.0000 -50.9117
51.6188 336.0000 -51.6188
50.2046 337.0000 -50.2046
50.9117 337.0000 -50.9117
51.6188 337.0000 -51.6188
50.2046 338.0000 -50.2046
50.9117 338.0000 -50.9117
51.6188 338.0000 -51.6188
52.3259 338.0000 -52.3259
51.6188 339.0000 -51.6188
52.3259 339.0000 -52.3259
53.0330 339.0000 -53.0330
51.6188 340.0000 -51.6188
52.3259 340.0000 -52.3259
53.0330 340.0000 -53.0330
53.7401 340.0000 -53.7401
52.3259 341.0000 -52.3259
53.0330 341.0000 -53.0330
53.7401 341.0000 -53.7401
54.4472 341.0000 -54.4472
53.0330 342.0000 -53.0330
53.7401 342.0000 -53.7401
54.4472 342.0000 -54.4472
53.7401 343.0000 -53.7401
54.4472 343.0000 -54.4472
55.1543 343.0000 -55.1543
54.4472 344.0000 -54.4472
55.1543 344.0000 -55.1543
55.8614 344.0000 -55.8614
54.4472 345.0000 -54.4472
55.1543 345.0000 -55.1543
55.8614 345.0000 -55.8614
56.5685 345.0000 -56.5685
55.1543 346.0000 -55.1543
55.8614 346.0000 -55.8614
56.5685 346.0000 -56.5685
55.8614 347.0000 -55.8614
56.5685 347.0000 -56.5685
57.2756 347.0000 -57.2756
56.5685 348.0000 -56.5685
57.2756 348.0000 -57.2756
57.2756 349.0000 -57.2756
57.9828 349.0000 -57.9828
58.6899 349.0000 -58.6899
57.9828 350.0000 -57.9828
58.6899 350.0000 -58.6899
59.3970 350.0000 -59.3970
60.1041 350.0000 -60.1041
57.9828 351.0000 -57.9828
58.6899 351.0000 -58.6899
59.3970 351.0000 -59.3970
60.1041 351.0000 -60.1041
60.8112 351.0000 -60.8112
58.6899 352.0000 -58.6899
59.3970 352.0000 -59.3970
60.1041 352.0000 -60.1041
60.8112 352.0000 -60.8112
58.6899 353.0000 -58.6899
59.3970 353.0000 -59.3970
60.1041 353.0000 -60.1041
60.8112 353.0000 -60.8112
58.6899 354.0000 -58.6899
59.3970 354.0000 -59.3970
60.1041 354.0000 -60.1041
60.8112 354.0000 -60.8112
59.3970 355.0000 -59.3970
60.1041 355.0000 -60.1041
60.8112 355.0000 -60.8112
59.3970 356.0000 -59.3970
60.1041 356.0000 -60.1041
60.8112 356.0000 -60.8112
59.3970 357.0000 -59.3970
60.1041 357.0000 -60.1041
60.8112 357.0000 -60.8112
60.1041 358.0000 -60.1041
60.8112 358.0000 -60.8112
61.5183 358.0000 -61.5183
60.1041 359.0000 -60.1041
60.8112 359.0000 -60.8112
61.5183 359.0000 -61.5183
60.8112 360.0000 -60.8112
61.5183 360.0000 -61.5183
60.8112 361.0000 -60.8112
61.5183 361.0000 -61.5183
62.2254 361.0000 -62.2254
61.5183 362.0000 -61.5183
62.2254 362.0000 -62.2254
61.5183 363.0000 -61.5183
62.2254 363.0000 -62.2254
62.2254 364.0000 -62.2254
62.2254 365.0000 -62.2254
62.9325 365.0000 -62.9325
62.2254 366.0000 -62.2254
62.9325 366.0000 -62.9325
62.2254 367.0000 -62.2254
62.9325 367.0000 -62.9325
62.2254 368.0000 -62.2254
62.9325 368.0000 -62.9325
62.2254 369.0000 -62.2254
62.9325 369.0000 -62.9325
63.6396 369.0000 -63.6396
62.9325 370.0000 -62.9325
63.6396 370.0000 -63.6396
62.9325 371.0000 -62.9325
63.6396 371.0000 -63.6396
62.9325 372.0000 -62.9325
63.6396 372.0000 -63.6396
62.9325 373.0000 -62.9325
63.6396 373.0000 -63.6396
62.9325 374.0000 -62.9325
63.6396 374.0000 -63.6396
62.9325 375.0000 -62.9325
63.6396 375.0000 -63.6396
62.9325 376.0000 -62.9325
63.6396 376.0000 -63.6396
64.3467 376.0000 -64.3467
62.9325 377.0000 -62.9325
63.6396 377.0000 -63.6396
64.3467 377.0000 -64.3467
62.9325 378.0000 -62.9325
63.6396 378.0000 -63.6396
64.3467 378.0000 -64.3467
62.9325 379.0000 -62.9325
63.6396 379.0000 -63.6396
64.3467 379.0000 -64.3467
62.9325 380.0000 -62.9325
63.6396 380.0000 -63.6396
64.3467 380.0000 -64.3467
62.9325 381.0000 -62.9325
63.6396 381.0000 -63.6396
64.3467 381.0000 -64.3467
62.9325 382.0000 -62.9325
63.6396 382.0000 -63.6396
64.3467 382.0000 -64.3467
62.9325 383.0000 -62.9325
63.6396 383.0000 -63.6396
64.3467 383.0000 -64.3467
62.9325 384.0000 -62.9325
63.6396 384.0000 -63.6396
64.3467 384.0000 -64.3467
62.9325 385.0000 -62.9325
63.6396 385.0000 -63.6396
64.3467 385.0000 -64.3467
62.9325 386.0000 -62.9325
63.6396 386.0000 -63.6396
62.9325 387.0000 -62.9325
63.6396 387.0000 -63.6396
62.9325 388.0000 -62.9325
63.6396 388.0000 -63.6396
62.9325 389.0000 -62.9325
63.6396 389.0000 -63.6396
62.9325 390.0000 -62.9325
63.6396 390.0000 -63.6396
62.9325 391.0000 -62.9325
63.6396 391.0000 -63.6396
62.9325 392.0000 -62.9325
63.6396 392.0000 -63.6396
62.9325 393.0000 -62.9325
63.6396 393.0000 -63.6396
62.9325 394.0000 -62.9325
63.6396 394.0000 -63.6396
62.2254 395.0000 -62.2254
62.9325 395.0000 -62.9325
63.6396 395.0000 -63.6396
62.2254 396.0000 -62.2254
62.9325 396.0000 -62.9325
63.6396 396.0000 -63.6396
62.2254 397.0000 -62.2254
62.9325 397.0000 -62.9325
61.5183 398.0000 -61.5183
62.2254 398.0000 -62.2254
62.9325 398.0000 -62.9325
61.5183 399.0000 -61.5183
62.2254 399.0000 -62.2254
62.9325 399.0000 -62.9325
61.5183 400.0000 -61.5183
62.2254 400.0000 -62.2254
62.9325 400.0000 -62.9325
61.5183 401.0000 -61.5183
62.2254 401.0000 -62.2254
61.5183 402.0000 -61.5183
62.2254 402.0000 -62.2254
61.5183 403.0000 -61.5183
62.2254 403.0000 -62.2254
60.8112 404.0000 -60.8112
61.5183 404.0000 -61.5183
62.2254 404.0000 -62.2254
60.8112 405.0000 -60.8112
61.5183 405.0000 -61.5183
62.2254 405.0000 -62.2254
60.8112 406.0000 -60.8112
61.5183 406.0000 -61.5183
60.8112 407.0000 -60.8112
61.5183 407.0000 -61.5183
60.8112 408.0000 -60.8112
60.1041 409.0000 -60.1041
60.8112 409.0000 -60.8112
60.1041 410.0000 -60.1041
60.8112 410.0000 -60.8112
60.1041 411.0000 -60.1041
60.8112 411.0000 -60.8112
59.3970 412.0000 -59.3970
60.1041 412.0000 -60.1041
60.8112 412.0000 -60.8112
59.3970 413.0000 -59.3970
60.1041 413.0000 -60.1041
58.6899 414.0000 -58.6899
59.3970 414.0000 -59.3970
60.1041 414.0000 -60.1041
57.9828 415.0000 -57.9828
58.6899 415.0000 -58.6899
59.3970 415.0000 -59.3970
60.1041 415.0000 -60.1041
56.5685 416.0000 -56.5685
57.2756 416.0000 -57.2756
57.9828 416.0000 -57.9828
58.6899 416.0000 -58.6899
59.3970 416.0000 -59.3970
56.5685 417.0000 -56.5685
57.2756 417.0000 -57.2756
57.9828 417.0000 -57.9828
58.6899 417.0000 -58.6899
59.3970 417.0000 -59.3970
56.5685 418.0000 -56.5685
57.2756 418.0000 -57.2756
57.9828 418.0000 -57.9828
58.6899 418.0000 -58.6899
56.5685 419.0000 -56.5685
57.2756 419.0000 -57.2756
57.9828 419.0000 -57.9828
56.5685 420.0000 -56.5685
57.2756 420.0000 -57.2756
56.5685 421.0000 -56.5685
57.2756 421.0000 -57.2756
56.5685 422.0000 -56.5685
57.2756 422.0000 -57.2756
56.5685 423.0000 -56.5685
57.2756 423.0000 -57.2756
56.5685 424.0000 -56.5685
57.2756 424.0000 -57.2756
56.5685 425.0000 -56.5685
57.2756 425.0000 -57.2756
56.5685 426.0000 -56.5685
57.2756 426.0000 -57.2756
56.5685 427.0000 -56.5685
57.2756 427.0000 -57.2756
56.5685 428.0000 -56.5685
57.2756 428.0000 -57.2756
57.9828 428.0000 -57.9828
56.5685 429.0000 -56.5685
57.2756 429.0000 -57.2756
56.5685 430.0000 -56.5685
57.2756 430.0000 -57.2756
56.5685 431.0000 -56.5685
57.2756 431.0000 -57.2756
56.5685 432.0000 -56.5685
57.2756 432.0000 -57.2756
57.9828 432.0000 -57.9828
56.5685 433.0000 -56.5685
57.2756 433.0000 -57.2756
57.9828 433.0000 -57.9828
56.5685 434.0000 -56.5685
57.2756 434.0000 -57.2756
57.9828 434.0000 -57.9828
56.5685 435.0000 -56.5685
57.2756 435.0000 -57.2756
57.9828 435.0000 -57.9828
56.5685 436.0000 -56.5685
57.2756 436.0000 -57.2756
56.5685 437.0000 -56.5685
57.2756 437.0000 -57.2756
56.5685 438.0000 -56.5685
57.2756 438.0000 -57.2756
55.8614 439.0000 -55.8614
56.5685 439.0000 -56.5685
57.2756 439.0000 -57.2756
55.8614 440.0000 -55.8614
56.5685 440.0000 -56.5685
57.2756 440.0000 -57.2756
55.8614 441.0000 -55.8614
56.5685 441.0000 -56.5685
57.2756 441.0000 -57.2756
55.8614 442.0000 -55.8614
56.5685 442.0000 -56.5685
57.2756 442.0000 -57.2756
55.8614 443.0000 -55.8614
56.5685 443.0000 -56.5685
57.2756 443.0000 -57.2756
55.8614 444.0000 -55.8614
56.5685 444.0000 -56.5685
57.2756 444.0000 -57.2756
55.1543 445.0000 -55.1543
55.8614 445.0000 -55.8614
56.5685 445.0000 -56.5685
55.1543 446.0000 -55.1543
55.8614 446.0000 -55.8614
56.5685 446.0000 -56.5685
55.1543 447.0000 -55.1543
55.8614 447.0000 -55.8614
56.5685 447.0000 -56.5685
57.2756 447.0000 -57.2756
54.4472 448.0000 -54.4472
55.1543 448.0000 -55.1543
55.8614 448.0000 -55.8614
56.5685 448.0000 -56.5685
54.4472 449.0000 -54.4472
55.1543 449.0000 -55.1543
55.8614 449.0000 -55.8614
56.5685 449.0000 -56.5685
54.4472 450.0000 -54.4472
55.1543 450.0000 -55.1543
55.8614 450.0000 -55.8614
56.5685 450.0000 -56.5685
54.4472 451.0000 -54.4472
55.1543 451.0000 -55.1543
55.8614 451.0000 -55.8614
56.5685 451.0000 -56.5685
54.4472 452.0000 -54.4472
55.1543 452.0000 -55.1543
55.8614 452.0000 -55.8614
56.5685 452.0000 -56.5685
54.4472 453.0000 -54.4472
55.1543 453.0000 -55.1543
55.8614 453.0000 -55.8614
56.5685 453.0000 -56.5685
54.4472 454.0000 -54.4472
55.1543 454.0000 -55.1543
55.8614 454.0000 -55.8614
53.7401 455.0000 -53.7401
54.4472 455.0000 -54.4472
55.1543 455.0000 -55.1543
53.7401 456.0000 -53.7401
54.4472 456.0000 -54.4472
55.1543 456.0000 -55.1543
53.0330 457.0000 -53.0330
53.7401 457.0000 -53.7401
54.4472 457.0000 -54.4472
53.0330 458.0000 -53.0330
53.7401 458.0000 -53.7401
53.0330 459.0000 -53.0330
53.7401 459.0000 -53.7401
55.1543 459.0000 -55.1543
52.3259 460.0000 -52.3259
53.0330 460.0000 -53.0330
53.7401 460.0000 -53.7401
52.3259 461.0000 -52.3259
53.0330 461.0000 -53.0330
53.7401 461.0000 -53.7401
52.3259 462.0000 -52.3259
53.0330 462.0000 -53.0330
53.7401 462.0000 -53.7401
52.3259 463.0000 -52.3259
53.0330 463.0000 -53.0330
51.6188 464.0000 -51.6188
52.3259 464.0000 -52.3259
51.6188 465.0000 -51.6188
52.3259 465.0000 -52.3259
51.6188 466.0000 -51.6188
52.3259 466.0000 -52.3259
50.9117 467.0000 -50.9117
51.6188 467.0000 -51.6188
52.3259 467.0000 -52.3259
50.9117 468.0000 -50.9117
51.6188 468.0000 -51.6188
52.3259 468.0000 -52.3259
50.2046 469.0000 -50.2046
50.9117 469.0000 -50.9117
51.6188 469.0000 -51.6188
50.2046 470.0000 -50.2046
50.9117 470.0000 -50.9117
50.2046 471.0000 -50.2046
50.9117 471.0000 -50.9117
49.4975 472.0000 -49.4975
50.2046 472.0000 -50.2046
50.9117 472.0000 -50.9117
49.4975 473.0000 -49.4975
50.2046 473.0000 -50.2046
48.7904 474.0000 -48.7904
49.4975 474.0000 -49.4975
50.2046 474.0000 -50.2046
48.7904 475.0000 -48.7904
49.4975 475.0000 -49.4975
48.7904 476.0000 -48.7904
49.4975 476.0000 -49.4975
48.0833 477.0000 -48.0833
48.7904 477.0000 -48.7904
49.4975 477.0000 -49.4975
48.0833 478.0000 -48.0833
48.7904 478.0000 -48.7904
49.4975 478.0000 -49.4975
47.3762 479.0000 -47.3762
48.0833 479.0000 -48.0833
48.7904 479.0000 -48.7904
47.3762 480.0000 -47.3762
48.0833 480.0000 -48.0833
48.7904 480.0000 -48.7904
47.3762 481.0000 -47.3762
48.0833 481.0000 -48.0833
48.7904 481.0000 -48.7904
46.6690 482.0000 -46.6690
47.3762 482.0000 -47.3762
48.0833 482.0000 -48.0833
46.6690 483.0000 -46.6690
47.3762 483.0000 -47.3762
48.0833 483.0000 -48.0833
45.9619 484.0000 -45.9619
46.6690 484.0000 -46.6690
47.3762 484.0000 -47.3762
48.0833 484.0000 -48.0833
45.9619 485.0000 -45.9619
46.6690 485.0000 -46.6690
47.3762 485.0000 -47.3762
45.2548 486.0000 -45.2548
45.9619 486.0000 -45.9619
46.6690 486.0000 -46.6690
47.3762 486.0000 -47.3762
45.2548 487.0000 -45.2548
45.9619 487.0000 -45.9619
46.6690 487.0000 -46.6690
44.5477 488.0000 -44.5477
45.2548 488.0000 -45.2548
45.9619 488.0000 -45.9619
46.6690 488.0000 -46.6690
44.5477 489.0000 -44.5477
45.2548 489.0000 -45.2548
45.9619 489.0000 -45.9619
43.8406 490.0000 -43.8406
44.5477 490.0000 -44.5477
45.2548 490.0000 -45.2548
45.9619 490.0000 -45.9619
43.8406 491.0000 -43.8406
44.5477 491.0000 -44.5477
45.2548 491.0000 -45.2548
43.1335 492.0000 -43.1335
43.8406 492.0000 -43.8406
44.5477 492.0000 -44.5477
45.2548 492.0000 -45.2548
43.1335 493.0000 -43.1335
43.8406 493.0000 -43.8406
44.5477 493.0000 -44.5477
43.1335 494.0000 -43.1335
43.8406 494.0000 -43.8406
44.5477 494.0000 -44.5477
42.4264 495.0000 -42.4264
43.1335 495.0000 -43.1335
43.8406 495.0000 -43.8406
41.7193 496.0000 -41.7193
42.4264 496.0000 -42.4264
43.1335 496.0000 -43.1335
41.0122 497.0000 -41.0122
41.7193 497.0000 -41.7193
42.4264 497.0000 -42.4264
41.0122 498.0000 -41.0122
41.7193 498.0000 -41.7193
42.4264 498.0000 -42.4264
40.3051 499.0000 -40.3051
41.0122 499.0000 -41.0122
41.7193 499.0000 -41.7193
39.5980 500.0000 -39.5980
40.3051 500.0000 -40.3051
41.0122 500.0000 -41.0122
41.7193 500.0000 -41.7193
39.5980 501.0000 -39.5980
40.3051 501.0000 -40.3051
41.0122 501.0000 -41.0122
38.8909 502.0000 -38.8909
39.5980 502.0000 -39.5980
40.3051 502.0000 -40.3051
38.8909 503.0000 -38.8909
39.5980 503.0000 -39.5980
40.3051 503.0000 -40.3051
38.1838 504.0000 -38.1838
38.8909 504.0000 -38.8909
39.5980 504.0000 -39.5980
37.4767 505.0000 -37.4767
38.1838 505.0000 -38.1838
38.8909 505.0000 -38.8909
37.4767 506.0000 -37.4767
38.1838 506.0000 -38.1838
38.8909 506.0000 -38.8909
36.7696 507.0000 -36.7696
37.4767 507.0000 -37.4767
38.1838 507.0000 -38.1838
36.0624 508.0000 -36.0624
36.7696 508.0000 -36.7696
37.4767 508.0000 -37.4767
35.3553 509.0000 -35.3553
36.0624 509.0000 -36.0624
36.7696 509.0000 -36.7696
37.4767 509.0000 -37.4767
35.3553 510.0000 -35.3553
36.0624 510.0000 -36.0624
36.7696 510.0000 -36.7696
34.6482 511.0000 -34.6482
35.3553 511.0000 -35.3553
36.0624 511.0000 -36.0624
33.9411 512.0000 -33.9411
34.6482 512.0000 -34.6482
35.3553 512.0000 -35.3553
36.0624 512.0000 -36.0624
33.2340 513.0000 -33.2340
33.9411 513.0000 -33.9411
34.6482 513.0000 -34.6482
35.3553 513.0000 -35.3553
36.0624 513.0000 -36.0624
33.2340 514.0000 -33.2340
33.9411 514.0000 -33.9411
34.6482 514.0000 -34.6482
35.3553 514.0000 -35.3553
36.0624 514.0000 -36.0624
33.2340 515.0000 -33.2340
33.9411 515.0000 -33.9411
34.6482 515.0000 -34.6482
35.3553 515.0000 -35.3553
33.9411 516.0000 -33.9411
34.6482 516.0000 -34.6482
35.3553 516.0000 -35.3553
33.9411 517.0000 -33.9411
34.6482 517.0000 -34.6482
35.3553 517.0000 -35.3553
33.9411 518.0000 -33.9411
34.6482 518.0000 -34.6482
35.3553 518.0000 -35.3553
33.9411 519.0000 -33.9411
34.6482 519.0000 -34.6482
35.3553 519.0000 -35.3553
33.9411 520.0000 -33.9411
34.6482 520.0000 -34.6482
35.3553 520.0000 -35.3553
33.9411 521.0000 -33.9411
34.6482 521.0000 -34.6482
35.3553 521.0000 -35.3553
33.2340 522.0000 -33.2340
33.9411 522.0000 -33.9411
34.6482 522.0000 -34.6482
35.3553 522.0000 -35.3553
33.9411 523.0000 -33.9411
34.6482 523.0000 -34.6482
35.3553 523.0000 -35.3553
33.9411 524.0000 -33.9411
34.6482 524.0000 -34.6482
35.3553 524.0000 -35.3553
33.9411 525.0000 -33.9411
34.6482 525.0000 -34.6482
35.3553 525.0000 -35.3553
33.9411 526.0000 -33.9411
34.6482 526.0000 -34.6482
35.3553 526.0000 -35.3553
33.9411 527.0000 -33.9411
34.6482 527.0000 -34.6482
35.3553 527.0000 -35.3553
33.9411 528.0000 -33.9411
34.6482 528.0000 -34.6482
35.3553 528.0000 -35.3553
33.9411 529.0000 -33.9411
34.6482 529.0000 -34.6482
35.3553 529.0000 -35.3553
33.9411 530.0000 -33.9411
34.6482 530.0000 -34.6482
35.3553 530.0000 -35.3553
34.6482 531.0000 -34.6482
35.3553 531.0000 -35.3553
34.6482 532.0000 -34.6482
35.3553 532.0000 -35.3553
34.6482 533.0000 -34.6482
35.3553 533.0000 -35.3553
34.6482 534.0000 -34.6482
35.3553 534.0000 -35.3553
