ply
format ascii 1.0
element vertex 740
property float x
property float y
property float z
element face 0
property list uchar int vertex_index
end_header
-11.3137 307.0000 11.3137
-10.6066 307.0000 10.6066
-9.8995 307.0000 9.8995
-9.1924 307.0000 9.1924
-8.4853 307.0000 8.4853
-7.7782 307.0000 7.7782
-7.0711 307.0000 7.0711
-6.3640 307.0000 6.3640
-5.6569 307.0000 5.6569
-4.9497 307.0000 4.9497
-4.2426 307.0000 4.2426
-3.5355 307.0000 3.5355
-2.8284 307.0000 2.8284
-2.1213 307.0000 2.1213
-1.4142 307.0000 1.4142
-0.7071 307.0000 0.7071
0.0000 307.0000 0.0000
-16.9706 308.0000 16.9706
-16.2635 308.0000 16.2635
-15.5563 308.0000 15.5563
-14.8492 308.0000 14.8492
-14.1421 308.0000 14.1421
-13.4350 308.0000 13.4350
-12.7279 308.0000 12.7279
-12.0208 308.0000 12.0208
-11.3137 308.0000 11.3137
-10.6066 308.0000 10.6066
-9.8995 308.0000 9.8995
-9.1924 308.0000 9.1924
-8.4853 308.0000 8.4853
-7.7782 308.0000 7.7782
-7.0711 308.0000 7.0711
-6.3640 308.0000 6.3640
-5.6569 308.0000 5.6569
-4.9497 308.0000 4.9497
-4.2426 308.0000 4.2426
-3.5355 308.0000 3.5355
-2.8284 308.0000 2.8284
-2.1213 308.0000 2.1213
-1.4142 308.0000 1.4142
-0.7071 308.0000 0.7071
0.0000 308.0000 0.0000
-20.5061 309.0000 20.5061
-19.7990 309.0000 19.7990
-19.0919 309.0000 19.0919
-18.3848 309.0000 18.3848
-17.6777 309.0000 17.6777
-16.9706 309.0000 16.9706
-16.2635 309.0000 16.2635
-15.5563 309.0000 15.5563
-14.8492 309.0000 14.8492
-14.1421 309.0000 14.1421
-13.4350 309.0000 13.4350
-12.7279 309.0000 12.7279
-12.0208 309.0000 12.0208
-11.3137 309.0000 11.3137
-10.6066 309.0000 10.6066
-9.8995 309.0000 9.8995
-9.1924 309.0000 9.1924
-8.4853 309.0000 8.4853
-7.7782 309.0000 7.7782
-7.0711 309.0000 7.0711
-0.7071 309.0000 0.7071
0.0000 309.0000 0.0000
-25.4558 310.0000 25.4558
-24.7487 310.0000 24.7487
-24.0416 310.0000 24.0416
-23.3345 310.0000 23.3345
-22.6274 310.0000 22.6274
-21.9203 310.0000 21.9203
-21.2132 310.0000 21.2132
-20.5061 310.0000 20.5061
-19.7990 310.0000 19.7990
-19.0919 310.0000 19.0919
-18.3848 310.0000 18.3848
-17.6777 310.0000 17.6777
-16.9706 310.0000 16.9706
-16.2635 310.0000 16.2635
-15.5563 310.0000 15.5563
-14.8492 310.0000 14.8492
-14.1421 310.0000 14.1421
-27.5772 311.0000 27.5772
-26.8701 311.0000 26.8701
-26.1630 311.0000 26.1630
-25.4558 311.0000 25.4558
-24.7487 311.0000 24.7487
-24.0416 311.0000 24.0416
-23.3345 311.0000 23.3345
-22.6274 311.0000 22.6274
-21.9203 311.0000 21.9203
-21.2132 311.0000 21.2132
-20.5061 311.0000 20.5061
-18.3848 311.0000 18.3848
-17.6777 311.0000 17.6777
-28.9914 312.0000 28.9914
-28.2843 312.0000 28.2843
-27.5772 312.0000 27.5772
-26.8701 312.0000 26.8701
-26.1630 312.0000 26.1630
-25.4558 312.0000 25.4558
-24.7487 312.0000 24.7487
-31.1127 313.0000 31.1127
-30.4056 313.0000 30.4056
-29.6985 313.0000 29.6985
-28.9914 313.0000 28.9914
-28.2843 313.0000 28.2843
-27.5772 313.0000 27.5772
-26.8701 313.0000 26.8701
-32.5269 314.0000 32.5269
-31.8198 314.0000 31.8198
-31.1127 314.0000 31.1127
-30.4056 314.0000 30.4056
-29.6985 314.0000 29.6985
-28.9914 314.0000 28.9914
-28.2843 314.0000 28.2843
-33.9411 315.0000 33.9411
-33.2340 315.0000 33.2340
-32.5269 315.0000 32.5269
-31.8198 315.0000 31.8198
-31.1127 315.0000 31.1127
-30.4056 315.0000 30.4056
-36.7696 316.0000 36.7696
-36.0624 316.0000 36.0624
-35.3553 316.0000 35.3553
-34.6482 316.0000 34.6482
-33.9411 316.0000 33.9411
-33.2340 316.0000 33.2340
-38.1838 317.0000 38.1838
-37.4767 317.0000 37.4767
-36.7696 317.0000 36.7696
-36.0624 317.0000 36.0624
-35.3553 317.0000 35.3553
-34.6482 317.0000 34.6482
-33.9411 317.0000 33.9411
-38.8909 318.0000 38.8909
-38.1838 318.0000 38.1838
-37.4767 318.0000 37.4767
-36.7696 318.0000 36.7696
-36.0624 318.0000 36.0624
-35.3553 318.0000 35.3553
-40.3051 319.0000 40.3051
-39.5980 319.0000 39.5980
-38.8909 319.0000 38.8909
-38.1838 319.0000 38.1838
-37.4767 319.0000 37.4767
-36.7696 319.0000 36.7696
-41.7193 320.0000 41.7193
-41.0122 320.0000 41.0122
-40.3051 320.0000 40.3051
-39.5980 320.0000 39.5980
-38.8909 320.0000 38.8909
-38.1838 320.0000 38.1838
-43.1335 321.0000 43.1335
-42.4264 321.0000 42.4264
-41.7193 321.0000 41.7193
-41.0122 321.0000 41.0122
-40.3051 321.0000 40.3051
-43.8406 322.0000 43.8406
-43.1335 322.0000 43.1335
-42.4264 322.0000 42.4264
-41.7193 322.0000 41.7193
-41.0122 322.0000 41.0122
-44.5477 323.0000 44.5477
-43.8406 323.0000 43.8406
-43.1335 323.0000 43.1335
-42.4264 323.0000 42.4264
-41.7193 323.0000 41.7193
-45.2548 324.0000 45.2548
-44.5477 324.0000 44.5477
-43.8406 324.0000 43.8406
-43.1335 324.0000 43.1335
-42.4264 324.0000 42.4264
-46.6690 325.0000 46.6690
-45.9619 325.0000 45.9619
-45.2548 325.0000 45.2548
-44.5477 325.0000 44.5477
-43.8406 325.0000 43.8406
-47.3762 326.0000 47.3762
-46.6690 326.0000 46.6690
-45.9619 326.0000 45.9619
-45.2548 326.0000 45.2548
-48.0833 327.0000 48.0833
-47.3762 327.0000 47.3762
-46.6690 327.0000 46.6690
-48.7904 328.0000 48.7904
-48.0833 328.0000 48.0833
-47.3762 328.0000 47.3762
-49.4975 329.0000 49.4975
-48.7904 329.0000 48.7904
-50.2046 330.0000 50.2046
-49.4975 330.0000 49.4975
-48.7904 330.0000 48.7904
-50.9117 331.0000 50.9117
-50.2046 331.0000 50.2046
-49.4975 331.0000 49.4975
-51.6188 332.0000 51.6188
-50.9117 332.0000 50.9117
-50.2046 332.0000 50.2046
-52.3259 333.0000 52.3259
-51.6188 333.0000 51.6188
-50.9117 333.0000 50.9117
-52.3259 334.0000 52.3259
-51.6188 334.0000 51.6188
-50.9117 334.0000 50.9117
-53.0330 335.0000 53.0330
-52.3259 335.0000 52.3259
-51.6188 335.0000 51.6188
-53.7401 336.0000 53.7401
-53.0330 336.0000 53.0330
-52.3259 336.0000 52.3259
-53.7401 337.0000 53.7401
-53.0330 337.0000 53.0330
-54.4472 338.0000 54.4472
-53.7401 338.0000 53.7401
-55.1543 339.0000 55.1543
-54.4472 339.0000 54.4472
-53.7401 339.0000 53.7401
-55.8614 340.0000 55.8614
-55.1543 340.0000 55.1543
-54.4472 340.0000 54.4472
-56.5685 341.0000 56.5685
-55.8614 341.0000 55.8614
-55.1543 341.0000 55.1543
-56.5685 342.0000 56.5685
-55.8614 342.0000 55.8614
-55.1543 342.0000 55.1543
-57.2756 343.0000 57.2756
-56.5685 343.0000 56.5685
-55.8614 343.0000 55.8614
-57.9828 344.0000 57.9828
-57.2756 344.0000 57.2756
-56.5685 344.0000 56.5685
-55.8614 344.0000 55.8614
-57.9828 345.0000 57.9828
-57.2756 345.0000 57.2756
-56.5685 345.0000 56.5685
-58.6899 346.0000 58.6899
-57.9828 346.0000 57.9828
-57.2756 346.0000 57.2756
-58.6899 347.0000 58.6899
-57.9828 347.0000 57.9828
-57.2756 347.0000 57.2756
-59.3970 348.0000 59.3970
-58.6899 348.0000 58.6899
-57.9828 348.0000 57.9828
-59.3970 349.0000 59.3970
-58.6899 349.0000 58.6899
-57.9828 349.0000 57.9828
-60.1041 350.0000 60.1041
-59.3970 350.0000 59.3970
-58.6899 350.0000 58.6899
-60.8112 351.0000 60.8112
-60.1041 351.0000 60.1041
-59.3970 351.0000 59.3970
-58.6899 351.0000 58.6899
-60.8112 352.0000 60.8112
-60.1041 352.0000 60.1041
-59.3970 352.0000 59.3970
-60.8112 353.0000 60.8112
-60.1041 353.0000 60.1041
-59.3970 353.0000 59.3970
-60.8112 354.0000 60.8112
-60.1041 354.0000 60.1041
-59.3970 354.0000 59.3970
-61.5183 355.0000 61.5183
-60.8112 355.0000 60.8112
-60.1041 355.0000 60.1041
-61.5183 356.0000 61.5183
-60.8112 356.0000 60.8112
-60.1041 356.0000 60.1041
-61.5183 357.0000 61.5183
-60.8112 357.0000 60.8112
-61.5183 358.0000 61.5183
-60.8112 358.0000 60.8112
-62.2254 359.0000 62.2254
-61.5183 359.0000 61.5183
-60.8112 359.0000 60.8112
-62.2254 360.0000 62.2254
-61.5183 360.0000 61.5183
-62.2254 361.0000 62.2254
-61.5183 361.0000 61.5183
-62.9325 362.0000 62.9325
-62.2254 362.0000 62.2254
-61.5183 362.0000 61.5183
-62.9325 363.0000 62.9325
-62.2254 363.0000 62.2254
-61.5183 363.0000 61.5183
-62.9325 364.0000 62.9325
-62.2254 364.0000 62.2254
-61.5183 364.0000 61.5183
-63.6396 365.0000 63.6396
-62.9325 365.0000 62.9325
-62.2254 365.0000 62.2254
-63.6396 366.0000 63.6396
-62.9325 366.0000 62.9325
-62.2254 366.0000 62.2254
-63.6396 367.0000 63.6396
-62.9325 367.0000 62.9325
-62.2254 367.0000 62.2254
-64.3467 368.0000 64.3467
-63.6396 368.0000 63.6396
-62.9325 368.0000 62.9325
-62.2254 368.0000 62.2254
-64.3467 369.0000 64.3467
-63.6396 369.0000 63.6396
-62.9325 369.0000 62.9325
-63.6396 370.0000 63.6396
-62.9325 370.0000 62.9325
-64.3467 371.0000 64.3467
-63.6396 371.0000 63.6396
-62.9325 371.0000 62.9325
-64.3467 372.0000 64.3467
-63.6396 372.0000 63.6396
-62.9325 372.0000 62.9325
-64.3467 373.0000 64.3467
-63.6396 373.0000 63.6396
-62.9325 373.0000 62.9325
-64.3467 374.0000 64.3467
-63.6396 374.0000 63.6396
-62.9325 374.0000 62.9325
-64.3467 375.0000 64.3467
-63.6396 375.0000 63.6396
-62.9325 375.0000 62.9325
-64.3467 376.0000 64.3467
-63.6396 376.0000 63.6396
-62.9325 376.0000 62.9325
-64.3467 377.0000 64.3467
-63.6396 377.0000 63.6396
-62.9325 377.0000 62.9325
-64.3467 378.0000 64.3467
-63.6396 378.0000 63.6396
-62.9325 378.0000 62.9325
-64.3467 379.0000 64.3467
-63.6396 379.0000 63.6396
-62.9325 379.0000 62.9325
-63.6396 380.0000 63.6396
-62.9325 380.0000 62.9325
-64.3467 381.0000 64.3467
-63.6396 381.0000 63.6396
-62.9325 381.0000 62.9325
-64.3467 382.0000 64.3467
-63.6396 382.0000 63.6396
-62.9325 382.0000 62.9325
-64.3467 383.0000 64.3467
-63.6396 383.0000 63.6396
-62.9325 383.0000 62.9325
-64.3467 384.0000 64.3467
-63.6396 384.0000 63.6396
-62.9325 384.0000 62.9325
-64.3467 385.0000 64.3467
-63.6396 385.0000 63.6396
-62.9325 385.0000 62.9325
-64.3467 386.0000 64.3467
-63.6396 386.0000 63.6396
-62.9325 386.0000 62.9325
-64.3467 387.0000 64.3467
-63.6396 387.0000 63.6396
-62.9325 387.0000 62.9325
-64.3467 388.0000 64.3467
-63.6396 388.0000 63.6396
-62.9325 388.0000 62.9325
-64.3467 389.0000 64.3467
-63.6396 389.0000 63.6396
-62.9325 389.0000 62.9325
-64.3467 390.0000 64.3467
-63.6396 390.0000 63.6396
-62.9325 390.0000 62.9325
-64.3467 391.0000 64.3467
-63.6396 391.0000 63.6396
-62.9325 391.0000 62.9325
-64.3467 392.0000 64.3467
-63.6396 392.0000 63.6396
-62.9325 392.0000 62.9325
-63.6396 393.0000 63.6396
-62.9325 393.0000 62.9325
-63.6396 394.0000 63.6396
-62.9325 394.0000 62.9325
-62.2254 394.0000 62.2254
-63.6396 395.0000 63.6396
-62.9325 395.0000 62.9325
-62.2254 395.0000 62.2254
-63.6396 396.0000 63.6396
-62.9325 396.0000 62.9325
-62.2254 396.0000 62.2254
-63.6396 397.0000 63.6396
-62.9325 397.0000 62.9325
-62.2254 397.0000 62.2254
-61.5183 397.0000 61.5183
-62.9325 398.0000 62.9325
-62.2254 398.0000 62.2254
-61.5183 398.0000 61.5183
-62.9325 399.0000 62.9325
-62.2254 399.0000 62.2254
-61.5183 399.0000 61.5183
-62.2254 400.0000 62.2254
-61.5183 400.0000 61.5183
-62.2254 401.0000 62.2254
-61.5183 401.0000 61.5183
-62.2254 402.0000 62.2254
-61.5183 402.0000 61.5183
-60.8112 402.0000 60.8112
-62.2254 403.0000 62.2254
-61.5183 403.0000 61.5183
-60.8112 403.0000 60.8112
-61.5183 404.0000 61.5183
-60.8112 404.0000 60.8112
-61.5183 405.0000 61.5183
-60.8112 405.0000 60.8112
-60.1041 405.0000 60.1041
-61.5183 406.0000 61.5183
-60.8112 406.0000 60.8112
-60.1041 406.0000 60.1041
-61.5183 407.0000 61.5183
-60.8112 407.0000 60.8112
-60.1041 407.0000 60.1041
-59.3970 407.0000 59.3970
-60.8112 408.0000 60.8112
-60.1041 408.0000 60.1041
-59.3970 408.0000 59.3970
-60.8112 409.0000 60.8112
-60.1041 409.0000 60.1041
-59.3970 409.0000 59.3970
-60.1041 410.0000 60.1041
-59.3970 410.0000 59.3970
-59.3970 411.0000 59.3970
-58.6899 411.0000 58.6899
-59.3970 412.0000 59.3970
-58.6899 412.0000 58.6899
-57.9828 412.0000 57.9828
-59.3970 413.0000 59.3970
-58.6899 413.0000 58.6899
-57.9828 413.0000 57.9828
-59.3970 414.0000 59.3970
-58.6899 414.0000 58.6899
-57.9828 414.0000 57.9828
-59.3970 415.0000 59.3970
-58.6899 415.0000 58.6899
-57.9828 415.0000 57.9828
-57.2756 415.0000 57.2756
-59.3970 416.0000 59.3970
-58.6899 416.0000 58.6899
-57.9828 416.0000 57.9828
-57.2756 416.0000 57.2756
-58.6899 417.0000 58.6899
-57.9828 417.0000 57.9828
-57.2756 417.0000 57.2756
-58.6899 418.0000 58.6899
-57.9828 418.0000 57.9828
-57.2756 418.0000 57.2756
-57.9828 419.0000 57.9828
-57.2756 419.0000 57.2756
-57.9828 420.0000 57.9828
-57.2756 420.0000 57.2756
-57.9828 421.0000 57.9828
-57.2756 421.0000 57.2756
-57.2756 422.0000 57.2756
-57.2756 423.0000 57.2756
-57.2756 424.0000 57.2756
-57.2756 425.0000 57.2756
-57.2756 426.0000 57.2756
-57.2756 427.0000 57.2756
-57.2756 428.0000 57.2756
-57.2756 429.0000 57.2756
-57.9828 430.0000 57.9828
-57.2756 430.0000 57.2756
-57.9828 431.0000 57.9828
-57.2756 431.0000 57.2756
-57.9828 432.0000 57.9828
-57.2756 432.0000 57.2756
-56.5685 432.0000 56.5685
-57.9828 433.0000 57.9828
-57.2756 433.0000 57.2756
-56.5685 433.0000 56.5685
-57.2756 434.0000 57.2756
-56.5685 434.0000 56.5685
-57.2756 435.0000 57.2756
-56.5685 435.0000 56.5685
-57.2756 436.0000 57.2756
-56.5685 436.0000 56.5685
-57.2756 437.0000 57.2756
-56.5685 437.0000 56.5685
-57.2756 438.0000 57.2756
-56.5685 438.0000 56.5685
-56.5685 439.0000 56.5685
-56.5685 440.0000 56.5685
-56.5685 441.0000 56.5685
-55.8614 441.0000 55.8614
-56.5685 442.0000 56.5685
-55.8614 442.0000 55.8614
-55.1543 442.0000 55.1543
-55.8614 443.0000 55.8614
-55.1543 443.0000 55.1543
-55.8614 444.0000 55.8614
-55.1543 444.0000 55.1543
-54.4472 444.0000 54.4472
-55.1543 445.0000 55.1543
-54.4472 445.0000 54.4472
-55.1543 446.0000 55.1543
-54.4472 446.0000 54.4472
-55.1543 447.0000 55.1543
-54.4472 447.0000 54.4472
-54.4472 448.0000 54.4472
-54.4472 449.0000 54.4472
-53.7401 449.0000 53.7401
-54.4472 450.0000 54.4472
-53.7401 450.0000 53.7401
-54.4472 451.0000 54.4472
-53.7401 451.0000 53.7401
-54.4472 452.0000 54.4472
-53.7401 452.0000 53.7401
-53.0330 452.0000 53.0330
-54.4472 453.0000 54.4472
-53.7401 453.0000 53.7401
-53.0330 453.0000 53.0330
-53.7401 454.0000 53.7401
-53.0330 454.0000 53.0330
-52.3259 454.0000 52.3259
-53.7401 455.0000 53.7401
-53.0330 455.0000 53.0330
-52.3259 455.0000 52.3259
-53.7401 456.0000 53.7401
-53.0330 456.0000 53.0330
-52.3259 456.0000 52.3259
-53.0330 457.0000 53.0330
-52.3259 457.0000 52.3259
-53.0330 458.0000 53.0330
-52.3259 458.0000 52.3259
-51.6188 458.0000 51.6188
-52.3259 459.0000 52.3259
-51.6188 459.0000 51.6188
-52.3259 460.0000 52.3259
-51.6188 460.0000 51.6188
-50.9117 460.0000 50.9117
-52.3259 461.0000 52.3259
-51.6188 461.0000 51.6188
-50.9117 461.0000 50.9117
-52.3259 462.0000 52.3259
-51.6188 462.0000 51.6188
-50.9117 462.0000 50.9117
-51.6188 463.0000 51.6188
-50.9117 463.0000 50.9117
-51.6188 464.0000 51.6188
-50.9117 464.0000 50.9117
-50.9117 465.0000 50.9117
-50.2046 465.0000 50.2046
-50.9117 466.0000 50.9117
-50.2046 466.0000 50.2046
-50.9117 467.0000 50.9117
-50.2046 467.0000 50.2046
-50.2046 468.0000 50.2046
-49.4975 468.0000 49.4975
-50.2046 469.0000 50.2046
-49.4975 469.0000 49.4975
-50.2046 470.0000 50.2046
-49.4975 470.0000 49.4975
-48.7904 470.0000 48.7904
-50.2046 471.0000 50.2046
-49.4975 471.0000 49.4975
-48.7904 471.0000 48.7904
-49.4975 472.0000 49.4975
-48.7904 472.0000 48.7904
-49.4975 473.0000 49.4975
-48.7904 473.0000 48.7904
-48.7904 474.0000 48.7904
-48.0833 474.0000 48.0833
-48.7904 475.0000 48.7904
-48.0833 475.0000 48.0833
-47.3762 475.0000 47.3762
-48.7904 476.0000 48.7904
-48.0833 476.0000 48.0833
-47.3762 476.0000 47.3762
-48.0833 477.0000 48.0833
-47.3762 477.0000 47.3762
-46.6690 477.0000 46.6690
-48.0833 478.0000 48.0833
-47.3762 478.0000 47.3762
-46.6690 478.0000 46.6690
-47.3762 479.0000 47.3762
-46.6690 479.0000 46.6690
-45.9619 479.0000 45.9619
-47.3762 480.0000 47.3762
-46.6690 480.0000 46.6690
-45.9619 480.0000 45.9619
-47.3762 481.0000 47.3762
-46.6690 481.0000 46.6690
-45.9619 481.0000 45.9619
-46.6690 482.0000 46.6690
-45.9619 482.0000 45.9619
-45.2548 482.0000 45.2548
-46.6690 483.0000 46.6690
-45.9619 483.0000 45.9619
-45.2548 483.0000 45.2548
-45.9619 484.0000 45.9619
-45.2548 484.0000 45.2548
-44.5477 484.0000 44.5477
-45.9619 485.0000 45.9619
-45.2548 485.0000 45.2548
-44.5477 485.0000 44.5477
-45.9619 486.0000 45.9619
-45.2548 486.0000 45.2548
-44.5477 486.0000 44.5477
-45.2548 487.0000 45.2548
-44.5477 487.0000 44.5477
-43.8406 487.0000 43.8406
-44.5477 488.0000 44.5477
-43.8406 488.0000 43.8406
-44.5477 489.0000 44.5477
-43.8406 489.0000 43.8406
-43.1335 489.0000 43.1335
-44.5477 490.0000 44.5477
-43.8406 490.0000 43.8406
-43.1335 490.0000 43.1335
-43.8406 491.0000 43.8406
-43.1335 491.0000 43.1335
-42.4264 491.0000 42.4264
-43.8406 492.0000 43.8406
-43.1335 492.0000 43.1335
-42.4264 492.0000 42.4264
-41.7193 492.0000 41.7193
-43.1335 493.0000 43.1335
-42.4264 493.0000 42.4264
-41.7193 493.0000 41.7193
-43.1335 494.0000 43.1335
-42.4264 494.0000 42.4264
-41.7193 494.0000 41.7193
-43.1335 495.0000 43.1335
-42.4264 495.0000 42.4264
-41.7193 495.0000 41.7193
-41.0122 495.0000 41.0122
-42.4264 496.0000 42.4264
-41.7193 496.0000 41.7193
-41.0122 496.0000 41.0122
-42.4264 497.0000 42.4264
-41.7193 497.0000 41.7193
-41.0122 497.0000 41.0122
-40.3051 497.0000 40.3051
-41.7193 498.0000 41.7193
-41.0122 498.0000 41.0122
-40.3051 498.0000 40.3051
-39.5980 498.0000 39.5980
-41.7193 499.0000 41.7193
-41.0122 499.0000 41.0122
-40.3051 499.0000 40.3051
-39.5980 499.0000 39.5980
-38.8909 499.0000 38.8909
-41.0122 500.0000 41.0122
-40.3051 500.0000 40.3051
-39.5980 500.0000 39.5980
-38.8909 500.0000 38.8909
-38.1838 500.0000 38.1838
-41.0122 501.0000 41.0122
-40.3051 501.0000 40.3051
-39.5980 501.0000 39.5980
-38.8909 501.0000 38.8909
-38.1838 501.0000 38.1838
-37.4767 501.0000 37.4767
-40.3051 502.0000 40.3051
-39.5980 502.0000 39.5980
-38.8909 502.0000 38.8909
-38.1838 502.0000 38.1838
-37.4767 502.0000 37.4767
-39.5980 503.0000 39.5980
-38.8909 503.0000 38.8909
-38.1838 503.0000 38.1838
-37.4767 503.0000 37.4767
-39.5980 504.0000 39.5980
-38.8909 504.0000 38.8909
-38.1838 504.0000 38.1838
-37.4767 504.0000 37.4767
-36.7696 504.0000 36.7696
-38.8909 505.0000 38.8909
-38.1838 505.0000 38.1838
-37.4767 505.0000 37.4767
-36.7696 505.0000 36.7696
-36.0624 505.0000 36.0624
-38.8909 506.0000 38.8909
-38.1838 506.0000 38.1838
-37.4767 506.0000 37.4767
-36.7696 506.0000 36.7696
-36.0624 506.0000 36.0624
-38.1838 507.0000 38.1838
-37.4767 507.0000 37.4767
-36.7696 507.0000 36.7696
-38.1838 508.0000 38.1838
-37.4767 508.0000 37.4767
-36.7696 508.0000 36.7696
-38.1838 509.0000 38.1838
-37.4767 509.0000 37.4767
-36.7696 509.0000 36.7696
-37.4767 510.0000 37.4767
-37.4767 511.0000 37.4767
-36.7696 511.0000 36.7696
-37.4767 512.0000 37.4767
-36.7696 512.0000 36.7696
-37.4767 513.0000 37.4767
-36.7696 513.0000 36.7696
-36.7696 514.0000 36.7696
-36.7696 515.0000 36.7696
-36.7696 516.0000 36.7696
-36.7696 517.0000 36.7696
-37.4767 518.0000 37.4767
-36.7696 518.0000 36.7696
-37.4767 519.0000 37.4767
-36.7696 519.0000 36.7696
-37.4767 520.0000 37.4767
-36.7696 520.0000 36.7696
-37.4767 521.0000 37.4767
-36.7696 521.0000 36.7696
-37.4767 522.0000 37.4767
-36.7696 522.0000 36.7696
-37.4767 523.0000 37.4767
-36.7696 523.0000 36.7696
-37.4767 524.0000 37.4767
-36.7696 524.0000 36.7696
-37.4767 525.0000 37.4767
-36.7696 525.0000 36.7696
-37.4767 526.0000 37.4767
-36.7696 526.0000 36.7696
-38.1838 527.0000 38.1838
-37.4767 527.0000 37.4767
-36.7696 527.0000 36.7696
-38.1838 528.0000 38.1838
-37.4767 528.0000 37.4767
-36.7696 528.0000 36.7696
-38.1838 529.0000 38.1838
-37.4767 529.0000 37.4767
-36.7696 529.0000 36.7696
-38.1838 530.0000 38.1838
-37.4767 530.0000 37.4767
-36.7696 530.0000 36.7696
-38.1838 531.0000 38.1838
-37.4767 531.0000 37.4767
-38.1838 532.0000 38.1838
-37.4767 532.0000 37.4767
-38.8909 533.0000 38.8909
-38.1838 533.0000 38.1838
-37.4767 533.0000 37.4767
-38.8909 534.0000 38.8909
-38.1838 534.0000 38.1838
-37.4767 534.0000 37.4767
