ply
format ascii 1.0
element vertex 1819
property float x
property float y
property float z
element face 0
property list uchar int vertex_index
end_header
36.7211 1238.7400 5.5258
8.4417 1262.5750 15.8108
-6.0105 1266.1600 20.4435
-24.6059 1282.7850 15.8385
-26.8506 1278.4200 -5.4910
-12.0891 1271.5250 -18.9636
8.6433 1260.6800 -26.3636
36.8211 1227.1150 -23.5285
33.4352 1242.2800 6.9737
7.2391 1262.2000 16.4225
-8.2699 1268.5200 20.9513
-25.7876 1282.9200 13.6849
-25.6033 1277.2400 -7.2681
-10.6908 1272.2000 -19.6119
11.9989 1255.9600 -27.7290
38.7494 1226.6800 -20.1512
29.8444 1246.0000 8.2701
6.1513 1261.6250 16.9631
-10.5619 1271.0000 21.3825
-26.8307 1282.8750 11.3636
-24.1791 1276.0000 -8.9923
-9.2360 1272.8750 -20.1853
15.4321 1251.0000 -29.0242
40.4510 1226.6250 -16.5053
26.1233 1249.7200 9.4422
5.1089 1261.0000 17.4440
-12.8291 1273.4800 21.6834
-27.7076 1282.6800 8.9536
-22.6311 1274.7600 -10.6477
-7.6929 1273.4000 -20.7145
18.8469 1246.0400 -30.1336
41.8526 1226.9200 -12.7553
22.4470 1253.2600 10.5175
4.0421 1260.4750 17.8767
-15.0144 1275.8400 21.8000
-28.3907 1282.3650 6.5334
-21.0124 1273.5800 -12.2183
-6.0296 1273.6250 -21.2300
22.1476 1241.3200 -30.9420
42.8814 1227.5350 -9.0654
18.9903 1256.4400 11.5232
2.8815 1260.2000 18.2727
-17.0605 1277.9600 21.6786
-28.8522 1281.9600 4.1819
-19.3762 1272.5200 -13.6884
-4.2142 1273.4000 -21.7623
25.2381 1237.0800 -31.3337
43.4643 1228.4400 -5.6000
15.9280 1259.0800 12.4866
1.5573 1260.3250 18.6433
-18.9102 1279.7200 21.2652
-29.0645 1281.4950 1.9778
-17.7755 1271.6400 -15.0420
-2.2150 1272.5750 -22.3421
28.0227 1233.5600 -31.1934
43.5282 1229.6050 -2.5234
41.0000 1232.0000 0.0000
14.1421 1261.0000 14.1421
0.0000 1261.0000 20.0000
-13.4350 1281.0000 13.4350
-19.0000 1281.0000 0.0000
-15.5563 1271.0000 -15.5563
0.0000 1271.0000 -22.0000
28.9914 1232.0000 -28.9914
39.8311 1233.8560 2.0529
12.2098 1262.0845 15.1193
-1.4076 1262.2800 19.8775
-14.3508 1281.8550 12.3793
-19.0750 1280.3600 -1.5107
-14.5517 1270.7705 -16.5673
2.4314 1268.5040 -22.8389
31.0549 1230.2900 -27.4827
37.9124 1236.4080 3.9113
10.4886 1262.5360 16.0427
-2.8582 1264.0400 19.5920
-15.1958 1282.4400 11.2216
-19.0816 1279.4800 -3.1213
-13.4353 1270.9840 -17.4195
5.2102 1265.0720 -23.9389
33.1019 1229.0400 -25.2584
35.3988 1239.4820 5.5950
8.9426 1262.5015 16.8997
-4.3304 1266.1600 19.1600
-15.9667 1282.7850 9.9763
-19.0106 1278.4200 -4.7980
-12.2029 1271.4935 -18.1420
8.2449 1260.9380 -25.1906
35.0665 1228.2200 -22.4709
32.4449 1242.9040 7.1236
7.5358 1262.1280 17.6780
-5.8027 1268.5200 18.5982
-16.6601 1282.9200 8.6575
-18.8526 1277.2400 -6.5072
-10.8508 1272.1520 -18.7636
11.4444 1256.3360 -26.4843
36.8832 1227.8000 -19.2728
29.2055 1246.5000 8.5169
6.2321 1261.5625 18.3653
-7.2536 1271.0000 17.9233
-17.2724 1282.8750 7.2795
-18.5983 1276.0000 -8.2151
-9.3749 1272.8125 -19.3135
14.7174 1251.5000 -27.7104
38.4863 1227.7500 -15.8165
25.8353 1250.0960 9.7945
4.9956 1260.9520 18.9489
-8.6616 1273.4800 17.1520
-17.8004 1282.6800 5.8565
-18.2383 1274.7600 -9.8881
-7.7713 1273.3280 -19.8205
17.9727 1246.6640 -28.7593
39.8101 1228.0400 -12.2546
22.4892 1253.5180 10.9761
3.7901 1260.4435 19.4167
-10.0052 1275.8400 16.3008
-18.2405 1282.3650 4.4028
-17.7635 1273.5800 -11.4924
-6.0359 1273.5515 -20.3137
21.1190 1242.0620 -29.5214
40.7891 1228.6400 -8.7395
19.3218 1256.5920 12.0815
2.5797 1260.1840 19.7560
-11.2630 1277.9600 15.3865
-18.5895 1281.9600 2.9327
-17.1644 1272.5200 -12.9944
-4.1649 1273.3360 -20.8220
24.0650 1237.9280 -29.8872
41.3575 1229.5200 -5.4236
16.4878 1259.1440 13.1303
1.3284 1260.3205 19.9546
-12.4134 1279.7200 14.4257
-18.8438 1281.4950 1.4603
-16.4318 1271.6400 -14.3602
-2.1543 1272.5345 -21.3745
26.7196 1234.4960 -29.7471
41.4497 1230.6500 -2.4597
41.0000 1232.0000 0.0000
6.3640 1262.0000 6.3640
0.0000 1262.0000 9.0000
-13.4350 1281.0000 13.4350
-19.0000 1281.0000 0.0000
-14.8492 1271.0000 -14.8492
0.0000 1271.0000 -21.0000
28.9914 1232.0000 -28.9914
39.2983 1233.9200 1.5696
4.6144 1263.1295 6.7705
-1.0925 1263.2160 9.4511
-14.3540 1281.8145 12.8216
-19.0266 1280.3600 -1.4668
-13.8612 1270.7705 -15.8083
2.4028 1268.5040 -21.8910
31.0899 1230.2855 -27.4882
36.6057 1236.5600 2.7806
3.3949 1263.6160 7.1010
-2.3604 1264.8880 10.0578
-15.2072 1282.3760 11.9143
-18.9628 1279.4800 -3.0185
-12.7904 1270.9840 -16.6066
5.1649 1265.0720 -23.0722
33.2263 1229.0240 -25.1980
33.1470 1239.7400 3.6897
2.5995 1263.6065 7.3721
-3.7587 1266.9020 10.7612
-15.9890 1282.7115 10.7625
-18.8059 1278.4200 -4.6248
-11.6263 1271.4935 -17.2758
8.1929 1260.9380 -24.4271
35.3115 1228.1885 -22.2994
29.1469 1243.2800 4.3537
2.1222 1263.2480 7.6004
-5.2427 1269.1440 11.5022
-16.6940 1282.8480 9.4155
-18.5528 1277.2400 -6.2554
-10.3587 1272.1520 -17.8475
11.3935 1256.3360 -25.8392
37.2565 1227.7520 -18.9715
24.8303 1247.0000 4.8292
1.8569 1262.6875 7.8025
-6.7675 1271.5000 12.2220
-17.3166 1282.8125 7.9228
-18.2005 1276.0000 -7.8799
-8.9772 1272.8125 -18.3532
14.6732 1251.5000 -27.1921
38.9724 1227.6875 -15.3929
20.4217 1250.7200 5.1729
1.6976 1262.0720 7.9950
-8.2883 1273.8560 12.8613
-17.8513 1282.6320 6.3336
-17.7462 1274.7600 -9.4680
-7.4715 1273.3280 -18.8247
17.9388 1246.6640 -28.3692
40.3701 1227.9680 -11.7425
16.1461 1254.2600 5.4415
1.5383 1261.5485 8.1944
-9.7602 1276.0980 13.3613
-18.2925 1282.3335 4.6974
-17.1869 1273.5800 -10.9893
-5.8312 1273.5515 -19.2935
21.0967 1242.0620 -29.2542
41.3608 1228.5665 -8.1993
12.2281 1257.4400 5.6918
1.2730 1261.2640 8.4173
-11.1386 1278.1120 13.6629
-18.6347 1281.9440 3.0634
-16.5195 1272.5200 -12.4135
-4.0461 1273.3360 -19.7912
24.0537 1237.9280 -29.7305
41.8553 1229.4560 -4.9418
8.8924 1260.0800 5.9804
0.7955 1261.3655 8.6803
-12.3784 1279.7840 13.7072
-18.8724 1281.4905 1.4812
-15.7413 1271.6400 -13.7102
-2.1058 1272.5345 -20.3495
26.7164 1234.4960 -29.6818
41.7647 1230.6095 -2.1491
42.0000 1232.0000 0.0000
12.0208 1262.0000 12.0208
0.0000 1262.0000 17.0000
-28.9914 1282.0000 28.9914
-41.0000 1282.0000 0.0000
-13.4350 1271.0000 -13.4350
0.0000 1271.0000 -19.0000
29.6985 1232.0000 -29.6985
40.6336 1233.9200 1.9497
10.1678 1263.1250 12.7724
-2.2883 1263.2800 18.0996
-31.0581 1282.8595 27.6820
-39.7826 1281.2960 -2.0090
-11.5924 1270.7300 -14.2872
2.3895 1268.5040 -20.0437
31.8235 1230.2855 -28.2852
38.4228 1236.5600 3.6482
8.7388 1263.6000 13.3551
-4.9839 1265.0400 19.6052
-33.1132 1283.4560 25.5671
-37.7936 1280.3280 -3.8085
-10.1039 1270.9200 -14.9696
5.1772 1265.0720 -21.4575
33.9487 1229.0240 -26.0614
35.5482 1239.7400 5.1274
7.6292 1263.5750 13.8112
-7.9850 1267.1600 21.3730
-35.0888 1283.8165 22.8162
-35.1941 1279.1620 -5.4218
-8.8783 1271.4200 -15.5213
8.2622 1260.9380 -23.1047
35.9995 1228.1885 -23.2013
32.1905 1243.2800 6.4191
6.7341 1263.2000 14.1829
-11.1898 1269.5200 23.2588
-36.9171 1283.9680 19.5989
-32.1451 1277.8640 -6.8718
-7.8243 1272.0800 -15.9813
11.5435 1256.3360 -24.8488
37.9011 1227.7520 -19.8791
28.5306 1247.0000 7.5554
5.9487 1262.6250 14.5122
-14.4965 1272.0000 25.1188
-38.5305 1283.9375 16.0848
-28.8077 1276.5000 -8.1817
-6.8509 1272.7500 -16.3885
14.9201 1251.5000 -26.5532
39.5791 1227.6875 -16.2692
24.7490 1250.7200 8.5680
5.1682 1262.0000 14.8414
-17.8030 1274.4800 26.8090
-39.8610 1283.7520 12.4437
-25.3432 1275.1360 -9.3744
-5.8667 1273.2800 -16.7822
18.2910 1246.6640 -28.0813
40.9587 1227.9680 -12.5457
21.0265 1254.2600 9.4890
4.2879 1261.4750 15.2127
-21.0076 1276.8400 28.1853
-40.8410 1283.4385 8.8450
-21.9125 1273.8380 -10.4730
-4.7808 1273.5200 -17.2011
21.5553 1242.0620 -29.2964
41.9652 1228.5665 -8.8827
17.5438 1257.4400 10.3502
3.2029 1261.2000 15.6680
-24.0085 1278.9600 29.1038
-41.4027 1283.0240 5.4584
-18.6769 1272.6720 -11.5006
-3.5018 1273.3200 -17.6844
24.6120 1237.9280 -30.0621
42.5240 1229.4560 -5.4547
14.4817 1260.0800 11.1835
1.8086 1261.3250 16.2498
-26.7037 1280.7200 29.4205
-41.4783 1282.5355 2.4535
-15.7973 1271.7040 -12.4803
-1.9386 1272.5300 -18.2710
27.3600 1234.4960 -30.2416
42.5605 1230.6095 -2.4357
42.0000 1232.0000 0.0000
12.7279 1262.0000 12.7279
0.0000 1262.0000 18.0000
-28.2843 1282.0000 28.2843
-40.0000 1282.0000 0.0000
-12.7279 1271.0000 -12.7279
0.0000 1271.0000 -18.0000
29.6985 1232.0000 -29.6985
40.6821 1233.9200 1.9937
10.8551 1263.1250 13.5345
-2.2730 1263.2800 18.9990
-30.3023 1282.8595 26.9479
-38.7863 1281.2960 -1.9364
-10.9425 1270.7300 -13.5282
2.3608 1268.5040 -19.0959
31.8203 1230.2855 -28.3288
38.5416 1236.5600 3.7510
9.3724 1263.6000 14.1793
-4.9263 1265.0400 20.3532
-32.3116 1283.4560 24.8469
-36.8081 1280.3280 -3.6605
-9.5230 1270.9200 -14.1567
5.1319 1265.0720 -20.5908
33.9374 1229.0240 -26.1367
35.7529 1239.7400 5.3006
8.1836 1263.5750 14.6997
-7.8638 1267.1600 21.9318
-34.2449 1283.8165 22.1438
-34.2258 1279.1620 -5.1966
-8.3751 1271.4200 -14.6551
8.2102 1260.9380 -22.3412
35.9772 1228.1885 -23.2970
32.4903 1243.2800 6.6709
7.1923 1263.2000 15.1330
-10.9889 1269.5200 23.6041
-36.0349 1283.9680 19.0008
-31.2002 1277.8640 -6.5691
-7.4042 1272.0800 -15.0651
11.4926 1256.3360 -24.2037
37.8672 1227.7520 -19.9851
28.9283 1247.0000 7.8906
6.3022 1262.6250 15.5167
-14.2054 1272.0000 25.2394
-37.6144 1283.9375 15.5804
-27.8917 1276.5000 -7.8022
-6.5156 1272.7500 -15.4283
14.8759 1251.5000 -26.0349
39.5349 1227.6875 -16.3759
25.2411 1250.7200 8.9882
5.4171 1262.0000 15.8882
-17.4168 1274.4800 26.7069
-38.9161 1283.7520 12.0449
-24.4610 1275.1360 -8.9203
-5.6149 1273.2800 -15.7863
18.2571 1246.6640 -27.6912
40.9077 1227.9680 -12.6446
21.6031 1254.2600 9.9921
4.4406 1261.4750 16.2848
-20.5268 1276.8400 27.8759
-39.8728 1283.4385 8.5568
-21.0687 1273.8380 -9.9476
-4.6076 1273.5200 -16.1809
21.5330 1242.0620 -29.0292
41.9132 1228.5665 -8.9662
18.1887 1257.4400 10.9310
3.2765 1261.2000 16.7441
-23.4389 1278.9600 28.6156
-40.4172 1283.0240 5.2783
-17.8753 1272.6720 -10.9084
-3.3990 1273.3200 -16.6536
24.6007 1237.9280 -29.9054
42.4788 1229.4560 -5.5159
15.1722 1260.0800 11.8335
1.8284 1261.3250 17.3033
-26.0569 1280.7200 28.7953
-40.4820 1282.5355 2.3720
-15.0415 1271.7040 -11.8271
-1.8947 1272.5300 -17.2461
27.3568 1234.4960 -30.1763
42.5319 1230.6095 -2.4688
40.0000 1233.0000 0.0000
13.4350 1262.0000 13.4350
0.0000 1262.0000 19.0000
-28.2843 1282.0000 28.2843
-40.0000 1282.0000 0.0000
-12.0208 1271.0000 -12.0208
0.0000 1271.0000 -17.0000
28.2843 1233.0000 -28.2843
38.8348 1234.8560 1.9803
11.6266 1263.0845 14.2935
-2.3016 1263.2800 19.9469
-30.3055 1282.8595 26.9042
-38.7379 1281.2960 -1.8924
-10.2456 1270.7255 -12.7755
2.2443 1268.5680 -18.0511
30.2991 1231.3305 -26.9915
36.9269 1237.4080 3.7633
10.1453 1263.5360 14.9922
-4.9716 1265.0400 21.2199
-32.3229 1283.4560 24.7716
-36.6893 1280.3280 -3.5577
-8.8555 1270.9040 -13.3664
4.8811 1265.2240 -19.4864
32.3003 1230.1040 -24.9222
34.4305 1240.4820 5.3698
8.9072 1263.5015 15.5658
-7.9158 1267.1600 22.6953
-34.2672 1283.8165 22.0480
-34.0211 1279.1620 -5.0234
-7.7539 1271.3885 -13.8335
7.8118 1261.1960 -21.1683
34.2226 1229.2935 -22.2395
31.5000 1243.9040 6.8209
7.8284 1263.1280 16.0491
-11.0399 1269.5200 24.2492
-36.0689 1283.9680 18.8949
-30.9004 1277.8640 -6.3173
-6.8441 1272.0320 -14.2168
10.9380 1256.7120 -22.9590
36.0010 1228.8720 -19.1067
28.2894 1247.5000 8.1375
6.8250 1262.5625 16.4769
-14.2496 1272.0000 25.7577
-37.6586 1283.9375 15.4737
-27.4939 1276.5000 -7.4670
-6.0295 1272.6875 -14.5564
14.1612 1252.0000 -24.7211
37.5702 1228.8125 -15.6871
24.9531 1251.0960 9.3404
5.8129 1261.9520 16.8840
-17.4507 1274.4800 27.0970
-38.9670 1283.7520 11.9460
-23.9688 1275.1360 -8.5001
-5.2133 1273.2080 -14.8924
17.3829 1247.2880 -26.3169
38.8652 1229.0880 -12.1439
21.6453 1254.5180 10.4507
4.7083 1261.4435 17.3050
-20.5490 1276.8400 28.1431
-39.9248 1283.4385 8.4733
-20.4920 1273.8380 -9.4444
-4.2989 1273.4465 -15.2646
20.5045 1242.8040 -27.6087
39.8208 1229.6715 -8.6403
18.5202 1257.5920 11.4893
3.4273 1261.1840 17.7749
-23.4502 1278.9600 28.7723
-40.4624 1283.0240 5.2171
-17.2304 1272.6720 -10.3275
-3.1897 1273.2560 -15.7133
23.4276 1238.7760 -28.4589
40.3719 1230.5360 -5.3396
15.7320 1260.1440 12.4771
1.8858 1261.3205 18.3283
-26.0600 1280.7200 28.8606
-40.5106 1282.5355 2.3388
-14.3510 1271.7040 -11.1771
-1.7889 1272.4895 -16.2784
26.0537 1235.4320 -28.7300
40.4534 1231.6545 -2.4051
40.0000 1233.0000 0.0000
14.1421 1262.0000 14.1421
0.0000 1262.0000 20.0000
-21.2132 1282.0000 21.2132
-30.0000 1282.0000 0.0000
-4.2426 1271.0000 -4.2426
0.0000 1271.0000 -6.0000
28.2843 1233.0000 -28.2843
38.8832 1234.8560 2.0242
12.2853 1263.0845 15.0843
-1.8909 1263.2800 20.4103
-22.7506 1282.8595 19.9238
-28.7265 1281.2960 -1.1228
-3.0552 1270.7255 -4.4267
1.9293 1268.5680 -7.6246
30.2960 1231.3305 -27.4402
37.0457 1237.4080 3.8661
10.6770 1263.5360 15.9182
-3.9889 1265.0400 20.8987
-24.3186 1283.4560 18.1343
-26.7151 1280.3280 -1.9744
-2.4018 1270.9040 -4.4247
4.3833 1265.2240 -9.9522
32.2890 1230.1040 -25.6375
34.6353 1240.4820 5.5430
9.2611 1263.5015 16.6547
-6.2357 1267.1600 21.4118
-25.8507 1283.8165 15.9630
-24.1341 1279.1620 -2.5984
-2.1458 1271.3885 -4.3059
7.2401 1261.1960 -12.7695
34.2003 1229.2935 -23.0703
31.7998 1243.9040 7.0727
7.9812 1263.1280 17.3047
-8.5726 1269.5200 21.8962
-27.2807 1283.9680 13.5280
-21.1515 1277.8640 -3.0382
-2.1505 1272.0320 -4.1392
10.3780 1256.7120 -15.8631
35.9670 1228.8720 -19.9327
28.6872 1247.5000 8.4727
6.7808 1262.5625 17.8791
-10.9413 1272.0000 22.2985
-28.5423 1283.9375 10.9476
-17.9357 1276.5000 -3.3373
-2.2793 1272.6875 -3.9937
13.6751 1252.0000 -19.0197
37.5260 1228.8125 -16.4188
25.4453 1251.0960 9.7606
5.6036 1261.9520 18.3889
-13.2832 1274.4800 22.5656
-29.5689 1283.7520 8.3399
-14.6546 1275.1360 -3.5391
-2.3953 1273.2080 -3.9384
17.0095 1247.2880 -22.0262
38.8143 1229.0880 -12.7228
22.2220 1254.5180 10.9539
4.3933 1261.4435 18.8450
-15.5398 1276.8400 22.6439
-30.2944 1283.4385 5.8231
-11.4767 1273.8380 -3.6871
-2.3621 1273.4465 -4.0424
20.2595 1242.8040 -24.6692
39.7688 1229.6715 -9.0387
19.1651 1257.5920 12.0702
3.0935 1261.1840 19.2582
-17.6527 1278.9600 22.4802
-30.6523 1283.0240 3.5153
-8.5699 1272.6720 -3.8247
-2.0430 1273.2560 -4.3746
23.3031 1238.7760 -26.7354
40.3267 1230.5360 -5.5609
16.4225 1260.1440 13.1271
1.6479 1261.3205 19.6396
-19.5633 1280.7200 22.0211
-30.5763 1282.5355 1.5349
-6.1025 1271.7040 -3.9954
-1.3011 1272.4895 -5.0041
26.0187 1235.4320 -28.0115
40.4247 1231.6545 -2.4832
41.0000 1233.0000 0.0000
5.6569 1263.0000 5.6569
0.0000 1263.0000 8.0000
-13.4350 1282.0000 13.4350
-19.0000 1282.0000 0.0000
-3.5355 1271.0000 -3.5355
0.0000 1271.0000 -5.0000
28.9914 1233.0000 -28.9914
39.2498 1234.9200 1.5256
3.9239 1264.1295 6.0115
-1.0639 1264.2160 8.5032
-14.4049 1282.8190 12.8112
-18.2516 1281.2960 -0.7638
-2.8134 1270.7255 -3.6645
1.9446 1268.5680 -6.7252
31.0931 1231.3260 -28.1330
36.4869 1237.5600 2.6778
2.7500 1264.6160 6.2881
-2.3151 1265.8880 9.1910
-15.3882 1283.3920 11.7973
-17.0621 1280.3280 -1.3738
-2.4723 1270.9040 -3.6005
4.4408 1265.2240 -9.2043
33.2376 1230.0880 -26.2106
32.9423 1240.7400 3.5165
2.0229 1264.6065 6.5060
-3.7067 1267.9020 9.9977
-16.3454 1283.7430 10.4796
-15.5306 1279.1620 -1.8535
-2.4000 1271.3885 -3.4175
7.3614 1261.1960 -12.2106
35.3338 1229.2620 -23.4532
28.8471 1244.2800 4.1019
1.6301 1264.2480 6.6843
-5.1917 1270.1440 10.8572
-17.2371 1283.8960 8.9445
-13.7557 1277.8640 -2.2264
-2.4843 1272.0320 -3.1891
10.5789 1256.7120 -15.5178
37.2905 1228.8240 -20.0895
24.4325 1248.0000 4.4939
1.4592 1263.6875 6.8423
-6.7233 1272.5000 11.7037
-18.0237 1283.8750 7.2782
-11.8365 1276.5000 -2.5159
-2.6132 1272.6875 -2.9893
13.9661 1252.0000 -18.8992
39.0166 1228.7500 -16.3487
19.9296 1251.7200 4.7528
1.3978 1263.0720 6.9992
-8.2543 1274.8560 12.4713
-18.6659 1283.7040 5.5670
-9.8719 1275.1360 -2.7456
-2.6744 1273.2080 -2.8917
17.3957 1247.2880 -22.1283
40.4211 1229.0160 -12.4596
15.5694 1255.2600 4.9384
1.3336 1262.5485 7.1742
-9.7380 1277.0980 13.0941
-19.1241 1283.4070 3.8973
-7.9605 1273.8380 -2.9389
-2.5559 1273.4465 -2.9702
20.7403 1242.8040 -24.9786
41.4127 1229.5980 -8.6513
11.5832 1258.4400 5.1109
1.1542 1262.2640 7.3865
-11.1273 1279.1120 13.5062
-19.3588 1283.0080 2.3554
-6.2014 1272.6720 -3.1194
-2.1454 1273.2560 -3.2985
23.8727 1238.7760 -27.2236
41.9005 1230.4720 -5.1526
8.2020 1261.0800 5.3304
0.7471 1262.3655 7.6554
-12.3753 1280.7840 13.6418
-19.3306 1282.5310 1.0275
-4.6935 1271.7040 -3.3104
-1.3308 1272.4895 -3.9505
26.6655 1235.4320 -28.6367
41.7933 1231.6140 -2.1925
41.0000 1233.0000 0.0000
6.3640 1263.0000 6.3640
0.0000 1263.0000 9.0000
-13.4350 1282.0000 13.4350
-19.0000 1282.0000 0.0000
-16.2635 1272.0000 -16.2635
0.0000 1272.0000 -23.0000
28.9914 1233.0000 -28.9914
39.2983 1234.9200 1.5696
4.6144 1264.1295 6.7705
-1.0925 1264.2160 9.4511
-14.3476 1282.8145 12.8280
-19.1234 1281.3600 -1.5547
-15.2422 1271.7705 -17.3263
2.4601 1269.5040 -23.7867
31.0899 1231.2855 -27.4072
36.6057 1237.5600 2.7806
3.3949 1264.6160 7.1010
-2.3604 1265.8880 10.0578
-15.1845 1283.3760 11.9370
-19.2004 1280.4800 -3.2241
-14.0801 1271.9840 -18.2324
5.2554 1266.0720 -24.8057
33.2263 1230.0240 -25.0700
33.1470 1240.7400 3.6897
2.5995 1264.6065 7.3721
-3.7587 1267.9020 10.7612
-15.9445 1283.7115 10.8071
-19.2153 1279.4200 -4.9712
-12.7796 1272.4935 -19.0081
8.2969 1261.9380 -25.9541
35.3115 1229.1885 -22.1524
29.1469 1244.2800 4.3537
2.1222 1264.2480 7.6004
-5.2427 1270.1440 11.5022
-16.6261 1283.8480 9.4834
-19.1524 1278.2400 -6.7590
-11.3430 1273.1520 -19.6798
11.4953 1257.3360 -27.1294
37.2565 1228.7520 -18.8275
24.8303 1248.0000 4.8292
1.8569 1263.6875 7.8025
-6.7675 1272.5000 12.2220
-17.2282 1283.8125 8.0112
-18.9960 1277.0000 -8.5504
-9.7727 1273.8125 -20.2737
14.7616 1252.5000 -28.2287
38.9724 1228.6875 -15.2679
20.4217 1251.7200 5.1729
1.6976 1263.0720 7.9950
-8.2883 1274.8560 12.8613
-17.7495 1283.6320 6.4354
-18.7305 1275.7600 -10.3082
-8.0711 1274.3280 -20.8163
18.0066 1247.6640 -29.1494
40.3701 1228.9680 -11.6465
16.1461 1255.2600 5.4415
1.5383 1262.5485 8.1944
-9.7602 1277.0980 13.3613
-18.1886 1283.3335 4.8013
-18.3401 1274.5800 -11.9956
-6.2406 1274.5515 -21.3339
21.1413 1243.0620 -29.7887
41.3608 1229.5665 -8.1363
12.2281 1258.4400 5.6918
1.2730 1262.2640 8.4173
-11.1386 1279.1120 13.6629
-18.5442 1282.9440 3.1539
-17.8093 1273.5200 -13.5752
-4.2837 1274.3360 -21.8528
24.0764 1238.9280 -30.0439
41.8553 1230.4560 -4.9098
8.8924 1261.0800 5.9804
0.7955 1262.3655 8.6803
-12.3784 1280.7840 13.7072
-18.8151 1282.4905 1.5385
-17.1223 1272.6400 -15.0102
-2.2027 1273.5345 -22.3994
26.7228 1235.4960 -29.8124
41.7647 1231.6095 -2.1401
42.0000 1233.0000 0.0000
12.0208 1263.0000 12.0208
0.0000 1263.0000 17.0000
-28.9914 1283.0000 28.9914
-41.0000 1283.0000 0.0000
-15.5563 1272.0000 -15.5563
0.0000 1272.0000 -22.0000
29.6985 1233.0000 -29.6985
40.6336 1234.9200 1.9497
10.1678 1264.1250 12.7724
-2.2883 1264.2800 18.0996
-31.0486 1283.8595 27.6916
-39.9280 1282.2960 -2.1408
-13.6639 1271.7300 -16.5641
2.4754 1269.5040 -22.8873
31.8235 1231.2855 -28.1637
38.4228 1237.5600 3.6482
8.7388 1264.6000 13.3551
-4.9839 1266.0400 19.6052
-33.0792 1284.4560 25.6010
-38.1500 1281.3280 -4.1169
-12.0386 1271.9200 -17.4082
5.3130 1266.0720 -24.0577
33.9487 1230.0240 -25.8694
35.5482 1240.7400 5.1274
7.6292 1264.5750 13.8112
-7.9850 1268.1600 21.3730
-35.0219 1284.8165 22.8830
-35.8082 1280.1620 -5.9414
-10.6082 1272.4200 -18.1197
8.4181 1261.9380 -25.3953
35.9995 1229.1885 -22.9808
32.1905 1244.2800 6.4191
6.7341 1264.2000 14.1829
-11.1898 1270.5200 23.2588
-36.8153 1284.9680 19.7007
-33.0445 1278.8640 -7.6273
-9.3007 1273.0800 -18.7297
11.6962 1257.3360 -26.7841
37.9011 1228.7520 -19.6631
28.5306 1248.0000 7.5554
5.9487 1263.6250 14.5122
-14.4965 1273.0000 25.1188
-38.3979 1284.9375 16.2174
-30.0010 1277.5000 -9.1874
-8.0441 1273.7500 -19.2693
15.0527 1252.5000 -28.1081
39.5791 1228.6875 -16.0817
24.7490 1251.7200 8.5680
5.1682 1263.0000 14.8414
-17.8030 1275.4800 26.8090
-39.7083 1284.7520 12.5964
-26.8196 1276.1360 -10.6348
-6.7662 1274.2800 -19.7696
18.3929 1247.6640 -29.2514
40.9587 1228.9680 -12.4017
21.0265 1255.2600 9.4890
4.2879 1262.4750 15.2127
-21.0076 1277.8400 28.1853
-40.6851 1284.4385 9.0009
-23.6425 1274.8380 -11.9824
-5.3949 1274.5200 -20.2617
21.6221 1243.0620 -30.0981
41.9652 1229.5665 -8.7882
17.5438 1258.4400 10.3502
3.2029 1262.2000 15.6680
-24.0085 1279.9600 29.1038
-41.2669 1284.0240 5.5942
-20.6115 1273.6720 -13.2433
-3.8582 1274.3200 -20.7768
24.6459 1238.9280 -30.5321
42.5240 1230.4560 -5.4067
14.4817 1261.0800 11.1835
1.8086 1262.3250 16.2498
-26.7037 1281.7200 29.4205
-41.3924 1283.5355 2.5394
-17.8688 1272.7040 -14.4302
-2.0839 1273.5300 -21.3458
27.3696 1235.4960 -30.4376
42.5605 1231.6095 -2.4222
42.0000 1233.0000 0.0000
12.7279 1263.0000 12.7279
0.0000 1263.0000 18.0000
-21.2132 1283.0000 21.2132
-30.0000 1283.0000 0.0000
-15.5563 1272.0000 -15.5563
0.0000 1272.0000 -22.0000
29.6985 1233.0000 -29.6985
40.6821 1234.9200 1.9937
10.8233 1264.1250 13.5664
-1.8336 1264.2800 18.5146
-22.6997 1283.8595 20.0557
-29.5015 1282.2960 -1.8257
-14.1094 1271.7300 -16.5641
2.4754 1269.5040 -22.8873
31.8203 1231.2855 -28.1668
38.5416 1237.5600 3.7510
9.2593 1264.6000 14.2925
-3.8984 1266.0400 19.1652
-24.1375 1284.4560 18.4433
-28.6158 1281.3280 -3.6191
-12.7426 1271.9200 -17.4082
5.3130 1266.0720 -24.0577
33.9374 1230.0240 -25.8807
35.7529 1240.7400 5.3006
7.9608 1264.5750 14.9224
-6.1317 1268.1600 19.8847
-25.4943 1284.8165 16.4664
-27.4094 1280.1620 -5.3697
-11.4167 1272.4200 -18.1197
8.4181 1261.9380 -25.3953
35.9772 1229.1885 -23.0030
32.4903 1244.2800 6.6709
6.8529 1264.2000 15.4724
-8.4708 1270.5200 20.6060
-26.7377 1284.9680 14.2151
-25.9485 1278.8640 -7.0672
-10.0927 1273.0800 -18.7297
11.6962 1257.3360 -26.7841
37.8672 1228.7520 -19.6971
28.9283 1248.0000 7.8906
5.8603 1263.6250 15.9586
-10.8529 1273.0000 21.2619
-27.8352 1284.9375 11.7797
-24.2996 1277.5000 -8.7013
-8.7316 1273.7500 -19.2693
15.0527 1252.5000 -28.1081
39.5349 1228.6875 -16.1259
25.2411 1251.7200 8.9882
4.9080 1263.0000 16.3973
-13.2153 1275.4800 21.7854
-28.7543 1284.7520 9.2505
-22.5290 1276.1360 -10.2615
-7.2942 1274.2800 -19.7696
18.3929 1247.6640 -29.2514
40.9077 1228.9680 -12.4526
21.6031 1255.2600 9.9921
3.9209 1262.4750 16.8046
-15.4953 1277.8400 22.1094
-29.4628 1284.4385 6.7176
-20.7030 1274.8380 -11.7374
-5.7414 1274.5200 -20.2617
21.6221 1243.0620 -30.0981
41.9132 1229.5665 -8.8402
18.1887 1258.4400 10.9310
2.8239 1262.2000 17.1966
-17.6301 1279.9600 22.1668
-29.9282 1284.0240 4.2714
-18.8880 1273.6720 -13.1188
-4.0342 1274.3200 -20.7768
24.6459 1238.9280 -30.5321
42.4788 1230.4560 -5.4519
15.1722 1261.0800 11.8335
1.5420 1262.3250 17.5897
-19.5570 1281.7200 21.8904
-30.1181 1283.5355 2.0021
-17.1503 1272.7040 -14.3952
-2.1334 1273.5300 -21.3458
27.3696 1235.4960 -30.4376
42.5319 1231.6095 -2.4508
39.0000 1234.0000 0.0000
13.4350 1263.0000 13.4350
0.0000 1263.0000 19.0000
-13.4350 1283.0000 13.4350
-19.0000 1283.0000 0.0000
-14.8492 1272.0000 -14.8492
0.0000 1272.0000 -21.0000
27.5772 1234.0000 -27.5772
37.8869 1235.8560 1.9517
11.6003 1264.0845 14.3603
-1.3789 1264.2800 18.9297
-14.3540 1283.8595 12.4166
-19.0266 1282.2960 -1.4668
-13.8549 1271.7255 -15.8147
2.3149 1269.5680 -21.7941
29.5401 1232.3305 -26.1391
36.0601 1238.4080 3.7180
9.9717 1264.5360 15.2298
-2.8129 1266.0400 18.7252
-15.2072 1284.4560 11.2743
-18.9628 1281.3280 -3.0185
-12.7677 1271.9040 -16.6293
4.9593 1266.2240 -22.8346
31.4874 1231.1040 -24.0213
33.6670 1241.4820 5.3179
8.5130 1264.5015 16.0336
-4.2784 1268.1600 18.3965
-15.9890 1284.8165 10.0275
-18.8059 1280.1620 -4.6248
-11.5817 1272.3885 -17.3204
7.8465 1262.1960 -24.0177
33.3565 1230.2935 -21.3689
30.8549 1244.9040 6.7700
7.1877 1264.1280 16.7619
-5.7518 1270.5200 17.9531
-16.6940 1284.9680 8.6955
-18.5528 1278.8640 -6.2554
-10.2908 1273.0320 -17.9154
10.8899 1257.7120 -25.2396
35.0848 1229.8720 -18.3266
27.7711 1248.5000 8.0933
5.9594 1263.5625 17.4050
-7.2094 1273.0000 17.4050
-17.3166 1284.9375 7.2978
-18.2005 1277.5000 -7.8799
-8.8888 1273.6875 -18.4416
14.0027 1253.0000 -26.3966
36.6100 1229.8125 -15.0393
24.5631 1252.0960 9.3065
4.7918 1262.9520 17.9531
-8.6277 1275.4800 16.7619
-17.8513 1284.7520 5.8536
-17.7462 1276.1360 -9.4680
-7.3696 1274.2080 -18.9265
17.0985 1248.2880 -27.3849
37.8694 1230.0880 -11.6520
21.3781 1255.5180 10.4284
3.6484 1262.4435 18.3965
-9.9830 1277.8400 16.0336
-18.2925 1284.4385 4.3824
-17.1869 1274.8380 -10.9893
-5.7273 1274.4465 -19.3974
20.0904 1243.8040 -28.1009
38.8006 1230.6715 -8.3096
18.3635 1258.5920 11.4780
2.4929 1262.1840 18.7252
-11.2517 1279.9600 15.2298
-18.6347 1284.0240 2.9034
-16.5195 1273.6720 -12.4135
-3.9556 1274.2560 -19.8817
22.8920 1239.7760 -28.4408
39.3411 1231.5360 -5.1568
15.6667 1261.1440 12.4739
1.2889 1262.3205 18.9297
-12.4103 1281.7200 14.3603
-18.8724 1283.5355 1.4362
-15.7413 1272.7040 -13.7102
-2.0485 1273.4895 -20.4068
25.4164 1236.4320 -28.3008
39.4284 1232.6545 -2.3387
39.0000 1234.0000 0.0000
14.1421 1263.0000 14.1421
0.0000 1263.0000 20.0000
-13.4350 1283.0000 13.4350
-19.0000 1283.0000 0.0000
-14.1421 1272.0000 -14.1421
0.0000 1272.0000 -20.0000
27.5772 1234.0000 -27.5772
37.9354 1235.8560 1.9956
12.2908 1264.0845 15.1193
-1.4076 1264.2800 19.8775
-14.3572 1283.8595 12.3729
-18.9781 1282.2960 -1.4229
-13.1644 1271.7255 -15.0557
2.2863 1269.5680 -20.8463
29.5370 1232.3305 -26.1827
36.1789 1238.4080 3.8208
10.6166 1264.5360 16.0427
-2.8582 1266.0400 19.5920
-15.2185 1284.4560 11.1990
-18.8440 1281.3280 -2.9157
-12.1229 1271.9040 -15.8164
4.9141 1266.2240 -21.9679
31.4761 1231.1040 -24.0966
33.8717 1241.4820 5.4911
9.0896 1264.5015 16.8997
-4.3304 1268.1600 19.1600
-16.0113 1284.8165 9.9317
-18.6012 1280.1620 -4.4516
-11.0051 1272.3885 -16.4542
7.7945 1262.1960 -23.2541
33.3342 1230.2935 -21.4647
31.1547 1244.9040 7.0218
7.6798 1264.1280 17.6780
-5.8027 1270.5200 18.5982
-16.7280 1284.9680 8.5896
-18.2529 1278.8640 -6.0036
-9.7986 1273.0320 -16.9992
10.8390 1257.7120 -24.5945
35.0509 1229.8720 -18.4325
28.1689 1248.5000 8.4285
6.3571 1263.5625 18.3653
-7.2536 1273.0000 17.9233
-17.3608 1284.9375 7.1911
-17.8028 1277.5000 -7.5446
-8.4910 1273.6875 -17.4814
13.9585 1253.0000 -25.8783
36.5658 1229.8125 -15.1460
25.0552 1252.0960 9.7266
5.0916 1262.9520 18.9489
-8.6616 1275.4800 17.1520
-17.9022 1284.7520 5.7547
-17.2540 1276.1360 -9.0478
-7.0698 1274.2080 -17.9307
17.0645 1248.2880 -26.9949
37.8185 1230.0880 -11.7510
21.9547 1255.5180 10.9316
3.8531 1262.4435 19.4167
-10.0052 1277.8400 16.3008
-18.3445 1284.4385 4.2989
-16.6102 1274.8380 -10.4861
-5.5226 1274.4465 -18.3772
20.0682 1243.8040 -27.8337
38.7486 1230.6715 -8.3930
19.0084 1258.5920 12.0589
2.6117 1262.1840 19.7560
-11.2630 1279.9600 15.3865
-18.6800 1284.0240 2.8422
-15.8747 1273.6720 -11.8326
-3.8368 1274.2560 -18.8509
22.8806 1239.7760 -28.2841
39.2959 1231.5360 -5.2181
16.3572 1261.1440 13.1239
1.3374 1262.3205 19.9546
-12.4134 1281.7200 14.4257
-18.9010 1283.5355 1.4031
-15.0508 1272.7040 -13.0603
-2.0001 1273.4895 -19.3819
25.4132 1236.4320 -28.2355
39.3998 1232.6545 -2.3718
40.0000 1234.0000 0.0000
5.6569 1264.0000 5.6569
0.0000 1264.0000 8.0000
-28.9914 1284.0000 28.9914
-41.0000 1284.0000 0.0000
-13.4350 1272.0000 -13.4350
0.0000 1272.0000 -19.0000
28.2843 1234.0000 -28.2843
38.3020 1235.9200 1.4970
4.0344 1265.1250 5.9415
-2.0305 1265.2800 9.5688
-31.0581 1284.8640 28.0465
-39.7826 1283.2320 -2.0090
-11.5861 1271.6850 -14.2935
2.3016 1269.5680 -19.9469
30.3341 1232.3260 -26.8755
35.6202 1238.5600 2.6325
3.0629 1265.6000 6.0392
-4.5766 1267.0400 11.8045
-33.1132 1285.4720 26.1431
-37.7936 1282.1760 -3.8085
-10.0813 1271.8400 -14.9922
4.9716 1266.2240 -21.2199
32.4247 1231.0880 -24.6698
32.1788 1241.7400 3.4646
2.5864 1265.5750 6.0159
-7.5173 1269.1600 14.5012
-35.0888 1285.8480 23.4777
-35.1941 1280.9040 -5.4218
-8.8337 1272.3150 -15.5658
7.9158 1262.1960 -22.6953
34.4676 1230.2620 -21.8475
28.2020 1245.2800 4.0510
2.4488 1265.2000 5.9376
-10.7316 1271.5200 17.4531
-36.9171 1286.0160 20.2469
-32.1451 1279.4880 -6.8718
-7.7564 1272.9600 -16.0491
11.0399 1257.7120 -24.2492
36.3743 1229.8240 -18.5894
23.9142 1249.0000 4.4497
2.4939 1264.6250 5.8700
-14.0987 1274.0000 20.4541
-38.5305 1286.0000 16.6473
-28.8077 1278.0000 -8.1817
-6.7625 1273.6250 -16.4769
14.2496 1253.0000 -25.7577
38.0563 1229.7500 -15.0760
19.5395 1252.7200 4.7188
2.5659 1264.0000 5.8791
-17.4975 1276.4800 23.2985
-39.8610 1285.8240 12.8757
-25.3432 1276.5120 -9.3744
-5.7649 1274.1600 -16.8840
17.4507 1248.2880 -27.0970
39.4252 1230.0160 -11.4878
15.3022 1256.2600 4.9161
2.5085 1263.4750 6.0308
-20.8072 1278.8400 25.7803
-40.8410 1285.5120 9.1285
-21.9125 1275.0960 -10.4730
-4.6768 1274.4150 -17.3050
20.5490 1243.8040 -28.1431
40.3925 1230.5980 -8.0056
11.4265 1259.4400 5.0996
2.1658 1263.2000 6.3909
-23.9066 1280.9600 27.6936
-41.4027 1285.0880 5.6024
-18.6769 1273.8240 -11.5006
-3.4113 1274.2400 -17.7749
23.4502 1239.7760 -28.7723
40.8697 1231.4720 -4.8098
8.1366 1262.0800 5.3272
1.3816 1263.3250 7.0253
-26.6750 1282.7200 28.8326
-41.4783 1284.5760 2.4940
-15.7973 1272.7680 -12.4803
-1.8813 1273.4850 -18.3283
26.0600 1236.4320 -28.8606
40.7684 1232.6140 -2.0811
40.0000 1234.0000 0.0000
6.3640 1264.0000 6.3640
0.0000 1264.0000 9.0000
-13.4350 1284.0000 13.4350
-19.0000 1284.0000 0.0000
-12.7279 1272.0000 -12.7279
0.0000 1272.0000 -18.0000
28.2843 1234.0000 -28.2843
38.3504 1235.9200 1.5409
4.6549 1265.1250 6.7705
-1.0925 1265.2800 9.4511
-14.3635 1284.8640 12.8121
-18.8812 1283.2320 -1.3350
-11.7866 1271.6850 -13.5345
2.2730 1269.5680 -18.9990
30.3310 1232.3260 -26.9192
35.7390 1238.5600 2.7353
3.4589 1265.6000 7.1010
-2.3604 1267.0400 10.0578
-15.2411 1285.4720 11.8804
-18.6064 1282.1760 -2.7101
-10.8444 1271.8400 -14.1793
4.9263 1266.2240 -20.3532
32.4134 1231.0880 -24.7451
32.3835 1241.7400 3.6378
2.6730 1265.5750 7.3721
-3.7587 1269.1600 10.7612
-16.0558 1285.8480 10.6957
-18.1918 1280.9040 -4.1052
-9.8741 1272.3150 -14.6997
7.8638 1262.1960 -21.9318
34.4454 1230.2620 -21.9433
28.5019 1245.2800 4.3028
2.1942 1265.2000 7.6004
-5.2427 1271.5200 11.5022
-16.7958 1286.0160 9.3137
-17.6533 1279.4880 -5.5000
-8.8483 1272.9600 -15.1330
10.9889 1257.7120 -23.6041
36.3404 1229.8240 -18.6953
24.3120 1249.0000 4.7850
1.9194 1264.6250 7.8025
-6.7675 1274.0000 12.2220
-17.4492 1286.0000 7.7902
-17.0073 1278.0000 -6.8741
-7.7397 1273.6250 -15.5167
14.2054 1253.0000 -25.2394
38.0122 1229.7500 -15.1827
20.0317 1252.7200 5.1390
1.7456 1264.0000 7.9950
-8.2883 1276.4800 12.8613
-18.0040 1285.8240 6.1809
-16.2698 1276.5120 -8.2075
-6.5211 1274.1600 -15.8882
17.4168 1248.2880 -26.7069
39.3743 1230.0160 -11.5867
15.8789 1256.2600 5.4193
1.5698 1263.4750 8.1944
-9.7602 1278.8400 13.3613
-18.4484 1285.5120 4.5414
-15.4569 1275.0960 -9.4798
-5.1651 1274.4150 -16.2848
20.5268 1243.8040 -27.8759
40.3405 1230.5980 -8.0890
12.0714 1259.4400 5.6805
1.2890 1263.2000 8.4173
-11.1386 1280.9600 13.6629
-18.7705 1285.0880 2.9277
-14.5849 1273.8240 -10.6708
-3.6445 1274.2400 -16.7441
23.4389 1239.7760 -28.6156
40.8245 1231.4720 -4.8711
8.8271 1262.0800 5.9772
0.8000 1263.3250 8.6803
-12.3784 1282.7200 13.7072
-18.9583 1284.5760 1.3953
-13.6699 1272.7680 -11.7603
-1.9319 1273.4850 -17.3033
26.0569 1236.4320 -28.7953
40.7397 1232.6140 -2.1142
41.0000 1234.0000 0.0000
12.0208 1264.0000 12.0208
0.0000 1264.0000 17.0000
-13.4350 1284.0000 13.4350
-19.0000 1284.0000 0.0000
-4.9497 1272.0000 -4.9497
0.0000 1272.0000 -7.0000
28.9914 1234.0000 -28.9914
39.6858 1235.9200 1.9211
10.1383 1265.1250 12.8424
-1.3216 1265.2800 17.0340
-14.3985 1284.8640 12.4531
-18.3484 1283.2320 -0.8517
-4.1944 1271.6850 -5.1825
2.0019 1269.5680 -8.6209
31.0645 1232.3260 -28.0807
37.5560 1238.5600 3.6029
8.5539 1265.6000 13.6040
-2.7224 1267.0400 16.9918
-15.3656 1285.4720 11.2439
-17.2997 1282.1760 -1.5794
-3.7620 1271.8400 -5.2263
4.5313 1266.2240 -10.9378
33.1358 1231.0880 -26.1845
34.7847 1241.7400 5.0754
7.2127 1265.5750 14.3013
-4.1745 1269.1600 16.8694
-16.3008 1285.8480 9.8627
-15.9400 1280.9040 -2.1999
-3.5532 1272.3150 -5.1498
7.4653 1262.1960 -13.7377
35.1333 1230.2620 -23.5066
31.5454 1245.2800 6.3682
6.0594 1265.2000 14.9296
-5.6500 1271.5200 16.6630
-17.1692 1286.0160 8.3644
-14.3554 1279.4880 -2.7300
-3.4686 1272.9600 -5.0214
10.6807 1257.7120 -16.8080
36.9850 1229.8240 -20.2510
28.0122 1249.0000 7.5112
5.0389 1264.6250 15.4845
-7.1210 1274.0000 16.3684
-17.9353 1286.0000 6.8041
-12.6320 1278.0000 -3.1864
-3.4087 1273.6250 -4.9098
14.0545 1253.0000 -19.9358
38.6188 1229.7500 -16.6215
24.3589 1252.7200 8.5341
4.0961 1264.0000 15.9615
-8.5598 1276.4800 15.9818
-18.5641 1285.8240 5.2368
-10.8561 1276.5120 -3.5859
-3.2741 1274.1600 -4.8833
17.4636 1248.2880 -22.9084
39.9628 1230.0160 -12.8218
20.7592 1256.2600 9.4667
3.1760 1263.4750 16.3561
-9.9384 1278.8400 15.4991
-19.0201 1285.5120 3.7177
-9.1138 1275.0960 -3.9452
-2.9653 1274.4150 -5.0106
20.7849 1243.8040 -25.5131
40.9450 1230.5980 -9.0560
17.3871 1259.4400 10.3388
2.2233 1263.2000 16.6637
-11.2291 1280.9600 14.9164
-19.2683 1285.0880 2.3019
-7.4912 1273.8240 -4.2811
-2.3830 1274.2400 -5.3601
23.8953 1239.7760 -27.5369
41.4932 1231.4720 -5.5279
14.4164 1262.0800 11.1803
1.1830 1263.3250 16.8798
-12.4039 1282.7200 14.2297
-19.2733 1284.5760 1.0443
-6.0745 1272.7680 -4.6104
-1.4277 1273.4850 -6.0004
26.6719 1236.4320 -28.7673
41.5356 1232.6140 -2.4413
41.0000 1234.0000 0.0000
12.7279 1264.0000 12.7279
0.0000 1264.0000 18.0000
-29.6985 1285.0000 29.6985
-42.0000 1285.0000 0.0000
-4.2426 1272.0000 -4.2426
0.0000 1272.0000 -6.0000
28.9914 1234.0000 -28.9914
39.7342 1235.9200 1.9650
10.9020 1265.1205 13.5282
-2.3608 1265.3440 19.0959
-31.8585 1285.9090 28.2907
-40.1008 1284.1680 -1.4664
-2.5724 1271.6445 -4.4235
1.9732 1269.5680 -7.6731
31.0613 1232.3260 -28.1244
37.6748 1238.5600 3.7057
9.4590 1265.5840 14.1567
-5.1319 1267.1920 20.5908
-34.0731 1286.5520 26.0009
-37.1161 1283.0240 -2.5175
-1.6452 1271.7760 -4.4134
4.4861 1266.2240 -10.0710
33.1245 1231.0880 -26.2598
34.9894 1241.7400 5.2486
8.3016 1265.5435 14.6551
-8.2102 1269.4180 22.3412
-36.2445 1286.9530 23.0298
-33.2964 1281.6460 -3.2221
-1.2861 1272.2415 -4.2836
7.4133 1262.1960 -12.9742
35.1110 1230.2620 -23.6024
31.8453 1245.2800 6.6200
7.3322 1265.1520 15.0651
-11.4926 1271.8960 24.2037
-38.2745 1287.1360 19.5778
-28.8926 1280.1120 -3.6492
-1.3205 1272.8880 -4.1053
10.6298 1257.7120 -16.1629
36.9511 1229.8240 -20.3569
28.4100 1249.0000 7.8464
6.4531 1264.5625 15.4283
-14.8759 1274.5000 26.0349
-40.0652 1287.1250 15.8456
-24.1553 1278.5000 -3.8676
-1.5734 1273.5625 -3.9495
14.0103 1253.0000 -19.4175
38.5747 1229.7500 -16.7281
24.8510 1252.7200 8.9542
5.5669 1263.9280 15.7863
-18.2571 1277.1040 27.6912
-41.5187 1286.9440 12.0336
-19.3354 1276.8880 -3.9464
-1.8703 1274.1120 -3.8875
17.4296 1248.2880 -22.5184
39.9119 1230.0160 -12.9208
21.3359 1256.2600 9.9698
4.5761 1263.4015 16.1809
-21.5330 1279.5820 29.0292
-42.5369 1286.6170 8.3425
-14.6834 1275.3540 -3.9544
-2.0361 1274.3835 -3.9904
20.7626 1243.8040 -25.2458
40.8930 1230.5980 -9.1395
18.0320 1259.4400 10.9197
3.3830 1263.1360 16.6536
-24.6007 1281.8080 29.9054
-43.0218 1286.1680 4.9729
-10.4501 1273.9760 -3.9605
-1.8962 1274.2240 -4.3293
23.8840 1239.7760 -27.3803
41.4480 1231.4720 -5.5891
15.1069 1262.0800 11.8303
1.8902 1263.2845 17.2461
-27.3568 1283.6560 30.1763
-42.8755 1285.6210 2.1252
-6.8863 1272.8320 -4.0336
-1.2758 1273.4805 -4.9755
26.6687 1236.4320 -28.7020
41.5069 1232.6140 -2.4744
36.0000 1235.0000 0.0000
13.4350 1264.0000 13.4350
0.0000 1264.0000 19.0000
-28.9914 1285.0000 28.9914
-41.0000 1285.0000 0.0000
-15.5563 1273.0000 -15.5563
0.0000 1273.0000 -22.0000
25.4558 1235.0000 -25.4558
35.0433 1236.8560 1.8658
11.7918 1265.0800 14.2903
-2.3455 1265.3440 19.9953
-31.0486 1285.9045 27.6106
-39.9280 1284.2320 -2.1408
-13.6448 1272.6850 -16.5832
2.2118 1270.5680 -22.5967
27.2632 1233.3305 -24.0271
33.4599 1239.4080 3.5823
10.4126 1265.5200 14.9809
-5.0744 1267.1920 21.3387
-33.0792 1286.5360 25.4730
-38.1500 1283.1760 -4.1169
-11.9707 1272.8400 -17.4761
4.6962 1267.2240 -23.3450
29.0488 1232.1040 -22.0227
31.3764 1242.4820 5.1619
9.2235 1265.4700 15.5435
-8.0890 1269.4180 22.9000
-35.0219 1286.9215 22.7360
-35.8082 1281.9040 -5.9414
-10.4746 1273.3150 -18.2533
7.3789 1263.1960 -24.1671
30.7580 1231.2935 -19.5654
28.9196 1245.9040 6.6173
8.1504 1265.0800 16.0152
-11.2917 1271.8960 24.5490
-36.8153 1287.0880 19.5567
-33.0445 1280.4880 -7.6273
-9.0971 1273.9600 -18.9333
10.1853 1258.7120 -24.9852
32.3364 1230.8720 -16.7781
26.2162 1249.5000 7.9607
7.1192 1264.5000 16.4327
-14.5848 1274.5000 26.1555
-38.3979 1287.0625 16.0924
-30.0010 1279.0000 -9.1874
-7.7789 1274.6250 -19.5345
13.0412 1254.0000 -25.7216
33.7292 1230.8125 -13.7836
23.3929 1253.0960 9.2047
6.0558 1263.8800 16.8331
-17.8709 1277.1040 27.5891
-39.7083 1286.8720 12.5004
-26.8196 1277.5120 -10.6348
-6.4607 1275.1600 -20.0751
15.8720 1249.2880 -26.2986
34.8820 1231.0880 -10.7046
20.5764 1256.5180 10.3616
4.8863 1263.3700 17.2531
-21.0522 1279.5820 28.7198
-40.6851 1286.5435 8.9379
-23.6425 1276.0960 -11.9824
-5.0831 1275.4150 -20.5736
18.6033 1244.8040 -26.6382
35.7400 1231.6715 -7.6639
17.8935 1259.5920 11.4440
3.5365 1263.1200 17.7296
-24.0311 1281.8080 29.4172
-41.2669 1286.1040 5.5622
-20.6115 1274.8240 -13.2433
-3.5866 1275.2400 -21.0483
21.1606 1240.7760 -26.6628
36.2487 1232.5360 -4.7844
15.4708 1262.1440 12.4644
1.9325 1263.2800 18.2996
-26.7100 1283.6560 29.5511
-41.3924 1285.5805 2.5304
-17.8688 1273.7680 -14.4302
-1.9121 1274.4850 -21.5176
23.4696 1237.4320 -26.2946
36.3536 1233.6545 -2.1888
36.0000 1235.0000 0.0000
14.1421 1264.0000 14.1421
0.0000 1264.0000 20.0000
-28.9914 1285.0000 28.9914
-41.0000 1285.0000 0.0000
-14.8492 1273.0000 -14.8492
0.0000 1273.0000 -21.0000
25.4558 1235.0000 -25.4558
35.0918 1236.8560 1.9097
12.4823 1265.0800 15.0493
-2.3742 1265.3440 20.9432
-31.0518 1285.9045 27.5669
-39.8795 1284.2320 -2.0968
-12.9543 1272.6850 -15.8242
2.1831 1270.5680 -21.6488
27.2600 1233.3305 -24.0708
33.5787 1239.4080 3.6851
11.0575 1265.5200 15.7938
-5.1196 1267.1920 22.2055
-33.0905 1286.5360 25.3977
-38.0312 1283.1760 -4.0141
-11.3258 1272.8400 -16.6632
4.6509 1267.2240 -22.4782
29.0375 1232.1040 -22.0980
31.5811 1242.4820 5.3352
9.8001 1265.4700 16.4097
-8.1410 1269.4180 23.6636
-35.0442 1286.9215 22.6402
-35.6035 1281.9040 -5.7682
-9.8979 1273.3150 -17.3872
7.3269 1263.1960 -23.4035
30.7358 1231.2935 -19.6612
29.2194 1245.9040 6.8691
8.6425 1265.0800 16.9313
-11.3426 1271.8960 25.1941
-36.8492 1287.0880 19.4508
-32.7447 1280.4880 -7.3755
-8.6050 1273.9600 -18.0172
10.1344 1258.7120 -24.3401
32.3024 1230.8720 -16.8841
26.6140 1249.5000 8.2959
7.5169 1264.5000 17.3930
-14.6290 1274.5000 26.6738
-38.4421 1287.0625 15.9857
-29.6032 1279.0000 -8.8522
-7.3812 1274.6250 -18.5742
12.9970 1254.0000 -25.2033
33.6850 1230.8125 -13.8903
23.8850 1253.0960 9.6248
6.3556 1263.8800 17.8289
-17.9048 1277.1040 27.9792
-39.7592 1286.8720 12.4015
-26.3275 1277.5120 -10.2147
-6.1609 1275.1600 -19.0793
15.8380 1249.2880 -25.9085
34.8310 1231.0880 -10.8035
21.1531 1256.5180 10.8648
5.0910 1263.3700 18.2733
-21.0744 1279.5820 28.9870
-40.7371 1286.5435 8.8544
-23.0658 1276.0960 -11.4793
-4.8784 1275.4150 -19.5534
18.5810 1244.8040 -26.3710
35.6880 1231.6715 -7.7474
18.5383 1259.5920 12.0249
3.6553 1263.1200 18.7604
-24.0424 1281.8080 29.5739
-41.3122 1286.1040 5.5009
-19.9666 1274.8240 -12.6624
-3.4678 1275.2400 -20.0175
21.1493 1240.7760 -26.5061
36.2035 1232.5360 -4.8457
16.1612 1262.1440 13.1143
1.9809 1263.2800 19.3246
-26.7132 1283.6560 29.6164
-41.4210 1285.5805 2.4973
-17.1783 1273.7680 -13.7802
-1.8636 1274.4850 -20.4927
23.4665 1237.4320 -26.2293
36.3250 1233.6545 -2.2220
37.0000 1235.0000 0.0000
5.6569 1265.0000 5.6569
0.0000 1265.0000 8.0000
-29.6985 1286.0000 29.6985
-42.0000 1286.0000 0.0000
-14.1421 1273.0000 -14.1421
0.0000 1273.0000 -20.0000
26.1630 1235.0000 -26.1630
35.4584 1236.9200 1.4111
4.1591 1266.1205 5.9383
-2.0744 1266.3440 9.6172
-31.8139 1286.9090 28.7402
-40.7789 1285.1680 -2.0815
-12.2265 1272.6445 -15.0621
2.1984 1270.5680 -20.7494
28.0572 1233.3260 -24.7636
33.0199 1239.5600 2.4968
3.2662 1266.5840 6.0279
-4.6794 1268.1920 11.9233
-33.9147 1287.5520 26.7993
-38.7792 1284.0240 -3.9566
-10.6282 1272.7760 -15.8390
4.7085 1267.2240 -21.7303
29.9861 1232.0880 -22.6711
29.8882 1242.7400 3.3086
2.8292 1266.5435 5.9937
-7.6905 1270.4180 14.7059
-35.9326 1287.9530 24.0766
-36.1623 1282.6460 -5.6470
-9.2700 1273.2415 -16.4988
7.4481 1263.1960 -22.8447
31.8692 1231.2620 -20.0441
26.2668 1246.2800 3.8982
2.6987 1266.1520 5.9036
-10.9835 1272.8960 17.7529
-37.7993 1288.1360 20.7730
-33.0900 1281.1120 -7.1746
-8.0747 1273.8880 -17.0671
10.3353 1258.7120 -23.9949
33.6259 1230.8240 -17.0409
22.3593 1250.0000 4.3172
2.7256 1265.5625 5.8258
-14.4340 1275.5000 20.8518
-39.4465 1288.1250 17.0893
-29.7238 1279.5000 -8.5611
-6.9651 1274.5625 -17.5698
13.2880 1254.0000 -25.0828
35.1756 1230.7500 -13.8202
18.3693 1253.7200 4.6170
2.7608 1264.9280 5.8282
-17.9177 1278.1040 23.7906
-40.8059 1287.9440 13.2264
-26.2254 1277.8880 -9.8285
-5.8640 1275.1120 -18.0325
16.2242 1249.2880 -26.0106
36.4378 1231.0160 -10.5404
14.5005 1257.2600 4.8493
2.6550 1264.4015 5.9788
-21.3103 1280.5820 26.3569
-41.8093 1287.6170 9.3852
-22.7564 1276.3540 -10.9984
-4.6941 1275.3835 -18.4812
19.0619 1244.8040 -26.6804
37.3319 1231.5980 -7.3600
10.9564 1260.4400 5.0657
2.2591 1264.1360 6.3456
-24.4875 1282.8080 28.3385
-42.3882 1287.1680 5.7664
-19.4785 1274.9760 -12.0928
-3.3783 1275.2240 -18.9414
21.7189 1240.7760 -26.9943
37.7773 1232.4720 -4.4374
7.9407 1263.0800 5.3177
1.4238 1264.2845 6.9967
-27.3250 1284.6560 29.5231
-42.4746 1286.6210 2.5711
-16.5532 1273.8320 -13.1334
-1.8393 1274.4805 -19.4391
24.1133 1237.4320 -26.8545
37.6936 1233.6140 -1.9313
37.0000 1235.0000 0.0000
6.3640 1265.0000 6.3640
0.0000 1265.0000 9.0000
-28.9914 1286.0000 28.9914
-41.0000 1286.0000 0.0000
-13.4350 1273.0000 -13.4350
0.0000 1273.0000 -19.0000
26.1630 1235.0000 -26.1630
35.5068 1236.9200 1.4550
4.8464 1266.1205 6.7004
-2.0591 1266.3440 10.5167
-31.0581 1286.9090 28.0060
-39.7826 1285.1680 -2.0090
-11.5765 1272.6445 -14.3031
2.1698 1270.5680 -19.8015
28.0540 1233.3260 -24.8073
33.1387 1239.5600 2.5996
3.8998 1266.5840 6.8521
-4.6218 1268.1920 12.6713
-33.1132 1287.5520 26.0791
-37.7936 1284.0240 -3.8085
-10.0474 1272.7760 -15.0261
4.6632 1267.2240 -20.8635
29.9748 1232.0880 -22.7464
30.0929 1242.7400 3.4818
3.3835 1266.5435 6.8821
-7.5693 1270.4180 15.2648
-35.0888 1287.9530 23.4042
-35.1941 1282.6460 -5.4218
-8.7669 1273.2415 -15.6326
7.3961 1263.1960 -22.0812
31.8469 1231.2620 -20.1399
26.5666 1246.2800 4.1501
3.1569 1266.1520 6.8537
-10.7825 1272.8960 18.0981
-36.9171 1288.1360 20.1749
-32.1451 1281.1120 -6.8718
-7.6546 1273.8880 -16.1510
10.2844 1258.7120 -23.3498
33.5919 1230.8240 -17.1469
22.7570 1250.0000 4.6524
3.0792 1265.5625 6.8303
-14.1429 1275.5000 20.9724
-38.5305 1288.1250 16.5848
-28.8077 1279.5000 -8.1817
-6.6299 1274.5625 -16.6095
13.2438 1254.0000 -24.5645
35.1314 1230.7500 -13.9269
18.8615 1253.7200 5.0371
3.0097 1264.9280 6.8749
-17.5315 1278.1040 23.6885
-39.8610 1287.9440 12.8277
-25.3432 1277.8880 -9.3744
-5.6122 1275.1120 -17.0367
16.1903 1249.2880 -25.6205
36.3869 1231.0160 -10.6393
15.0772 1257.2600 5.3524
2.8077 1264.4015 7.0510
-20.8294 1280.5820 26.0475
-40.8410 1287.6170 9.0970
-21.9125 1276.3540 -10.4730
-4.5209 1275.3835 -17.4610
19.0396 1244.8040 -26.4132
37.2799 1231.5980 -7.4434
11.6013 1260.4400 5.6465
2.3326 1264.1360 7.4217
-23.9180 1282.8080 27.8503
-41.4027 1287.1680 5.5864
-18.6769 1274.9760 -11.5006
-3.2755 1275.2240 -17.9107
21.7076 1240.7760 -26.8377
37.7321 1232.4720 -4.4987
8.6312 1263.0800 5.9676
1.4436 1264.2845 8.0503
-26.6782 1284.6560 28.8979
-41.4783 1286.6210 2.4895
-15.7973 1273.8320 -12.4803
-1.7954 1274.4805 -18.4142
24.1101 1237.4320 -26.7892
37.6649 1233.6140 -1.9644
38.0000 1235.0000 0.0000
12.0208 1265.0000 12.0208
0.0000 1265.0000 17.0000
-29.6985 1287.0000 29.6985
-42.0000 1287.0000 0.0000
-12.7279 1273.0000 -12.7279
0.0000 1273.0000 -18.0000
26.8701 1235.0000 -26.8701
36.8422 1236.9200 1.8352
10.3330 1266.1160 12.7692
-2.3322 1266.4080 18.1480
-31.8203 1287.9540 28.3693
-40.6821 1286.1040 -1.9937
-10.8487 1272.6040 -13.5409
2.1851 1270.5680 -18.9021
28.7875 1233.3260 -25.5637
34.9558 1239.5600 3.4672
9.0062 1266.5680 13.3438
-5.0867 1268.3440 19.7240
-33.9374 1288.6320 26.2007
-38.5416 1284.8720 -3.7510
-9.3498 1272.7120 -14.2019
4.7208 1267.2240 -20.1156
30.6972 1232.0880 -23.5458
32.4941 1242.7400 4.9195
7.9455 1266.5120 13.7890
-8.1582 1270.6760 21.5777
-35.9772 1289.0580 23.3705
-35.7529 1283.3880 -5.3006
-8.1390 1273.1680 -14.7442
7.5174 1263.1960 -21.5224
32.5349 1231.2620 -20.9682
29.6102 1246.2800 6.2155
7.0560 1266.1040 14.1490
-11.4417 1273.2720 23.5587
-37.8672 1289.2560 20.0571
-32.4903 1281.7360 -6.6709
-7.1244 1273.8160 -15.2009
10.4853 1258.7120 -23.0045
34.2366 1230.8240 -17.9826
26.4573 1250.0000 7.3786
6.2429 1265.5000 14.4681
-14.8317 1276.0000 25.5166
-39.5349 1289.2500 16.4384
-28.9283 1280.0000 -7.8906
-6.2138 1274.5000 -15.6051
13.5349 1254.0000 -24.4439
35.7381 1230.7500 -14.7407
23.1887 1253.7200 8.4323
5.4111 1264.8560 14.7905
-18.2231 1278.7280 27.3011
-40.9077 1289.0640 12.6926
-25.2411 1278.2640 -8.9882
-5.3153 1275.0640 -15.9900
16.5765 1249.2880 -25.7226
36.9754 1231.0160 -11.3944
19.9576 1257.2600 9.3999
4.4659 1264.3280 15.1607
-21.5108 1281.3240 28.7620
-41.9132 1288.7220 8.9977
-21.6031 1276.6120 -9.9921
-4.3367 1275.3520 -16.3888
19.5205 1244.8040 -26.7226
37.8844 1231.5980 -8.0954
16.9171 1260.4400 10.3049
3.3122 1264.0720 15.6228
-24.5894 1283.6560 29.7487
-42.4788 1288.2480 5.5319
-18.1887 1275.1280 -10.9310
-3.1860 1275.2080 -16.8346
22.2771 1240.7760 -27.3258
38.4008 1232.4720 -4.9955
14.2204 1263.0800 11.1707
1.8552 1264.2440 16.2211
-27.3537 1285.5920 30.1110
-42.5319 1287.6660 2.4733
-15.1722 1273.8960 -11.8335
-1.7711 1274.4760 -17.3606
24.7569 1237.4320 -27.4143
38.4608 1233.6140 -2.2464
38.0000 1235.0000 0.0000
12.7279 1265.0000 12.7279
0.0000 1265.0000 18.0000
-29.6985 1287.0000 29.6985
-42.0000 1287.0000 0.0000
-12.7279 1273.0000 -12.7279
0.0000 1273.0000 -18.0000
26.8701 1235.0000 -26.8701
36.8906 1236.9200 1.8791
11.0235 1266.1160 13.5282
-2.3608 1266.4080 19.0959
-31.8203 1287.9540 28.3288
-40.6821 1286.1040 -1.9937
-10.8487 1272.6040 -13.5409
2.1851 1270.5680 -18.9021
28.7843 1233.3260 -25.5669
35.0746 1239.5600 3.5700
9.6510 1266.5680 14.1567
-5.1319 1268.3440 20.5908
-33.9374 1288.6320 26.1367
-38.5416 1284.8720 -3.7510
-9.3498 1272.7120 -14.2019
4.7208 1267.2240 -20.1156
30.6858 1232.0880 -23.5571
32.6988 1242.7400 5.0927
8.5221 1266.5120 14.6551
-8.2102 1270.6760 22.3412
-35.9772 1289.0580 23.2970
-35.7529 1283.3880 -5.3006
-8.1390 1273.1680 -14.7442
7.5174 1263.1960 -21.5224
32.5126 1231.2620 -20.9905
29.9100 1246.2800 6.4673
7.5482 1266.1040 15.0651
-11.4926 1273.2720 24.2037
-37.8672 1289.2560 19.9851
-32.4903 1281.7360 -6.6709
-7.1244 1273.8160 -15.2009
10.4853 1258.7120 -23.0045
34.2026 1230.8240 -18.0165
26.8551 1250.0000 7.7138
6.6406 1265.5000 15.4283
-14.8759 1276.0000 26.0349
-39.5349 1289.2500 16.3759
-28.9283 1280.0000 -7.8906
-6.2138 1274.5000 -15.6051
13.5349 1254.0000 -24.4439
35.6939 1230.7500 -14.7849
23.6809 1253.7200 8.8524
5.7109 1264.8560 15.7863
-18.2571 1278.7280 27.6912
-40.9077 1289.0640 12.6446
-25.2411 1278.2640 -8.9882
-5.3153 1275.0640 -15.9900
16.5765 1249.2880 -25.7226
36.9245 1231.0160 -11.4453
20.5342 1257.2600 9.9030
4.6706 1264.3280 16.1809
-21.5330 1281.3240 29.0292
-41.9132 1288.7220 8.9662
-21.6031 1276.6120 -9.9921
-4.3367 1275.3520 -16.3888
19.5205 1244.8040 -26.7226
37.8324 1231.5980 -8.1474
17.5619 1260.4400 10.8858
3.4310 1264.0720 16.6536
-24.6007 1283.6560 29.9054
-42.4788 1288.2480 5.5159
-18.1887 1275.1280 -10.9310
-3.1860 1275.2080 -16.8346
22.2771 1240.7760 -27.3258
38.3556 1232.4720 -5.0408
14.9109 1263.0800 11.8207
1.9037 1264.2440 17.2461
-27.3568 1285.5920 30.1763
-42.5319 1287.6660 2.4688
-15.1722 1273.8960 -11.8335
-1.7711 1274.4760 -17.3606
24.7569 1237.4320 -27.4143
38.4321 1233.6140 -2.2751
39.0000 1235.0000 0.0000
13.4350 1265.0000 13.4350
0.0000 1265.0000 19.0000
