ply
format ascii 1.0
element vertex 1773
property float x
property float y
property float z
element face 0
property list uchar int vertex_index
end_header
-8.2536 1958.9325 -145.0768
34.2545 1958.0640 -45.2459
50.3757 1957.2665 -4.7963
52.0000 1958.0000 0.0000
72.8320 1976.0000 72.8320
0.0000 1976.0000 103.0000
-25.4558 1983.0000 25.4558
-36.0000 1983.0000 0.0000
-100.4092 1959.0000 -100.4092
0.0000 1959.0000 -142.0000
36.7696 1958.0000 -36.7696
54.2778 1959.1520 6.0147
69.1290 1976.6975 78.0614
-4.5314 1976.4480 99.3735
-26.8718 1983.3915 21.1380
-41.0011 1981.4640 -7.2700
-96.7570 1958.0325 -107.6111
6.3513 1958.9360 -137.1151
39.1397 1957.8785 -30.4822
57.3065 1960.7360 12.9410
63.5021 1977.0400 83.3195
-8.3618 1977.0640 93.5513
-27.6572 1983.8320 18.2303
-48.0716 1979.3520 -16.2259
-89.8575 1957.4800 -114.8408
11.7715 1958.8480 -129.2551
41.1045 1957.6480 -25.6111
60.7883 1962.6440 20.5429
56.3744 1977.1025 88.4111
-11.5886 1977.8060 86.0128
-28.0184 1984.2705 16.3516
-56.5554 1976.8080 -26.4665
-80.3959 1957.2675 -121.8344
16.3869 1958.7420 -119.0657
42.7454 1957.3595 -21.8428
64.4254 1964.7680 28.5842
48.1690 1976.9600 93.1412
-14.3092 1978.6320 77.2374
-28.1616 1984.6560 15.1209
-65.7967 1973.9760 -37.5903
-69.0577 1957.3200 -128.3278
20.3238 1958.6240 -107.1928
44.1437 1957.0640 -18.8635
67.9199 1967.0000 36.8286
39.3090 1976.6875 97.3145
-16.6209 1979.5000 67.7044
-28.2933 1984.9375 14.1570
-75.1392 1971.0000 -49.1961
-56.5283 1957.5625 -134.0571
23.7084 1958.5000 -94.2823
45.3809 1956.8125 -16.3599
70.9741 1969.2320 45.0400
30.2176 1976.3600 100.7359
-18.6212 1980.3680 57.8933
-28.6198 1985.0640 13.0787
-83.9269 1968.0240 -60.8827
-43.4929 1957.9200 -138.7581
26.6672 1958.3760 -80.9800
46.5384 1956.6560 -14.0182
73.2903 1971.3560 52.9822
21.3179 1976.0525 103.2104
-20.4074 1981.1940 48.2835
-29.3474 1984.9845 11.5050
-91.5038 1965.1920 -72.2485
-30.6370 1958.3175 -142.1669
29.3265 1958.2580 -67.9317
47.6976 1956.6455 -11.5249
74.5705 1973.2640 60.4191
13.0329 1975.8400 104.5426
-22.0770 1981.9360 39.3544
-30.6824 1984.6480 9.0548
-97.2139 1962.6480 -82.8925
-18.6460 1958.6800 -144.0195
31.8124 1958.1520 -55.7833
48.9400 1956.8320 -8.5665
74.5170 1974.8480 67.1144
5.7860 1975.7975 104.5375
-23.7274 1982.5520 31.5854
-32.8312 1984.0035 5.3468
-100.4010 1960.5360 -92.4131
-8.2052 1958.9325 -144.0519
34.2513 1958.0640 -45.1806
50.3470 1957.2665 -4.8294
49.0000 1959.0000 0.0000
73.5391 1976.0000 73.5391
0.0000 1976.0000 104.0000
-24.7487 1983.0000 24.7487
-35.0000 1983.0000 0.0000
-99.7021 1959.0000 -99.7021
0.0000 1959.0000 -141.0000
34.6482 1959.0000 -34.6482
51.4827 1960.0880 5.9727
69.9378 1976.6570 78.8236
-4.5161 1976.4480 100.2730
-26.1160 1983.3915 20.4038
-40.0048 1981.4640 -7.1974
-96.0975 1958.0280 -106.8616
6.1908 1959.0000 -136.0220
36.8596 1958.9235 -28.4544
54.8251 1961.5840 12.9081
64.3276 1976.9760 84.1437
-8.3043 1977.0640 94.2993
-26.8556 1983.8320 17.5101
-47.0860 1979.3520 -16.0779
-89.2426 1957.4640 -114.0619
11.4178 1959.0000 -128.0320
38.6546 1958.7280 -23.7518
58.7024 1963.3860 20.5602
57.1492 1977.0290 89.2996
-11.4674 1977.8060 86.5716
-27.1745 1984.2705 15.6792
-55.5872 1976.8080 -26.2413
-79.8259 1957.2360 -121.0351
15.8153 1959.0000 -117.6881
40.1247 1958.4645 -20.2086
62.7899 1965.3920 28.6833
48.8432 1976.8880 94.0913
-14.1083 1978.6320 77.5826
-27.2794 1984.6560 14.5228
-64.8518 1973.9760 -37.2876
-68.5357 1957.2720 -127.5135
19.5174 1959.0000 -105.6483
41.3613 1958.1840 -17.4930
66.7627 1967.5000 37.0313
39.8500 1976.6250 98.3190
-16.3299 1979.5000 67.8250
-27.3773 1984.9375 13.6525
-74.2231 1971.0000 -48.8167
-56.0604 1957.5000 -133.2294
22.6585 1959.0000 -92.5708
42.4559 1957.9375 -15.2733
70.2961 1969.6080 45.3583
30.6105 1976.3120 101.7827
-18.2350 1980.3680 57.7912
-27.6749 1985.0640 12.6800
-83.0447 1968.0240 -60.4286
-43.0883 1957.8480 -137.9150
25.3729 1959.0000 -79.1135
43.5000 1957.7760 -13.2177
73.0652 1971.6140 53.4186
21.5651 1976.0210 104.2825
-19.9266 1981.1940 47.9741
-28.3792 1984.9845 11.2169
-90.6599 1965.1920 -71.7231
-30.3079 1958.2440 -141.3026
27.7947 1959.0000 -65.9345
44.5850 1957.7505 -10.9943
74.7453 1973.4160 60.9660
13.1545 1975.8240 105.6187
-21.5075 1981.9360 38.8662
-29.6969 1984.6480 8.8747
-96.4123 1962.6480 -82.3003
-18.4074 1958.6160 -143.1245
30.0584 1959.0000 -53.6920
45.8024 1957.9120 -8.2714
75.0115 1974.9120 67.7549
5.8193 1975.7930 105.5911
-23.0806 1982.5520 30.9602
-31.8349 1984.0035 5.2652
-99.6452 1960.5360 -91.7599
-8.0753 1958.8920 -143.1128
32.2982 1959.0000 -43.0438
47.2436 1958.3115 -4.7172
50.0000 1959.0000 0.0000
29.6985 1977.0000 29.6985
0.0000 1977.0000 42.0000
-24.0416 1983.0000 24.0416
-34.0000 1983.0000 0.0000
-101.1163 1960.0000 -101.1163
0.0000 1960.0000 -143.0000
35.3553 1959.0000 -35.3553
49.4275 1960.1520 3.2772
27.0838 1977.7020 31.7694
-2.6966 1977.3840 41.4571
-25.3506 1983.3465 22.2307
-39.1538 1981.5280 -7.2567
-97.5221 1959.0730 -108.3764
6.2920 1959.9360 -137.9661
37.8158 1958.8785 -28.8666
48.3266 1961.7360 6.5801
24.2697 1978.0560 33.7564
-5.3957 1977.9120 40.4423
-26.0201 1983.7520 20.8558
-46.4569 1979.5040 -16.2382
-90.6077 1958.5440 -115.6764
11.6111 1959.8480 -129.8843
40.1689 1958.6480 -23.5672
46.7741 1963.6440 9.8733
21.3014 1978.1340 35.6208
-8.0719 1978.5480 39.0282
-26.2638 1984.1655 19.7041
-55.2331 1977.0660 -26.5357
-81.0750 1958.3410 -122.7451
16.0924 1959.7420 -119.4198
42.3718 1958.3595 -19.2573
44.8466 1965.7680 13.1217
18.2241 1978.0080 37.3241
-10.6999 1979.2560 37.2874
-26.2954 1984.5360 18.5626
-64.8063 1974.3520 -37.7403
-69.6260 1958.3920 -129.3119
19.8710 1959.6240 -107.2383
44.3818 1958.0640 -15.7368
42.6207 1968.0000 16.2901
15.0830 1977.7500 38.8278
-13.2546 1980.0000 35.2923
-26.3287 1984.8125 17.2182
-74.5003 1971.5000 -49.4430
-56.9626 1958.6250 -135.1057
23.0821 1959.5000 -94.0051
46.1562 1957.8125 -12.8060
40.1731 1970.2320 19.3432
11.9232 1977.4320 40.0932
-15.7105 1980.7440 33.1154
-26.5773 1984.9440 15.4580
-83.6389 1968.6480 -61.2349
-43.7869 1958.9680 -139.8557
25.8609 1959.3760 -80.3857
47.6524 1957.6560 -10.2650
37.5804 1972.3560 22.2458
8.7898 1977.1260 41.0817
-18.0425 1981.4520 30.8294
-27.2550 1984.8795 13.0691
-91.5460 1965.9340 -72.7071
-30.8008 1959.3490 -143.2910
28.3424 1959.2580 -67.0456
48.8275 1957.6455 -7.9137
34.9193 1974.2640 24.9627
5.7280 1976.9040 41.7547
-20.2251 1982.0880 28.5068
-28.5756 1984.5680 9.8384
-97.5454 1963.4960 -83.4507
-18.7063 1959.6960 -145.1408
30.6619 1959.1520 -54.6502
49.6390 1957.8320 -5.5524
32.2665 1975.8480 27.4587
2.7830 1976.8380 42.0737
-22.2333 1982.6160 26.2200
-30.7526 1983.9585 5.5531
-100.9609 1961.4720 -93.0567
-8.2054 1959.9370 -145.1341
32.9545 1959.0640 -43.8650
50.0441 1958.2665 -2.9811
50.0000 1959.0000 0.0000
30.4056 1977.0000 30.4056
0.0000 1977.0000 43.0000
-24.0416 1983.0000 24.0416
-34.0000 1983.0000 0.0000
-101.1163 1960.0000 -101.1163
0.0000 1960.0000 -143.0000
35.3553 1959.0000 -35.3553
49.4759 1960.1520 3.3212
27.7742 1977.7020 32.5284
-2.7253 1977.3840 42.4049
-25.3506 1983.3465 22.1902
-39.1538 1981.5280 -7.2567
-97.5221 1959.0730 -108.3764
6.2920 1959.9360 -137.9661
37.8127 1958.8785 -28.8698
48.4454 1961.7360 6.6829
24.9146 1978.0560 34.5692
-5.4410 1977.9120 41.3090
-26.0201 1983.7520 20.7918
-46.4569 1979.5040 -16.2382
-90.6077 1958.5440 -115.6764
11.6111 1959.8480 -129.8843
40.1576 1958.6480 -23.5786
46.9788 1963.6440 10.0465
21.8781 1978.1340 36.4869
-8.1239 1978.5480 39.7917
-26.2638 1984.1655 19.6306
-55.2331 1977.0660 -26.5357
-81.0750 1958.3410 -122.7451
16.0924 1959.7420 -119.4198
42.3495 1958.3595 -19.2796
45.1464 1965.7680 13.3736
18.7163 1978.0080 38.2403
-10.7509 1979.2560 37.9324
-26.2954 1984.5360 18.4906
-64.8063 1974.3520 -37.7403
-69.6260 1958.3920 -129.3119
19.8710 1959.6240 -107.2383
44.3478 1958.0640 -15.7708
43.0184 1968.0000 16.6254
15.4807 1977.7500 39.7880
-13.2988 1980.0000 35.8106
-26.3287 1984.8125 17.1557
-74.5003 1971.5000 -49.4430
-56.9626 1958.6250 -135.1057
23.0821 1959.5000 -94.0051
46.1120 1957.8125 -12.8502
40.6652 1970.2320 19.7633
12.2230 1977.4320 41.0890
-15.7444 1980.7440 33.5055
-26.5773 1984.9440 15.4100
-83.6389 1968.6480 -61.2349
-43.7869 1958.9680 -139.8557
25.8609 1959.3760 -80.3857
47.6015 1957.6560 -10.3159
38.1571 1972.3560 22.7490
8.9945 1977.1260 42.1019
-18.0647 1981.4520 31.0967
-27.2550 1984.8795 13.0376
-91.5460 1965.9340 -72.7071
-30.8008 1959.3490 -143.2910
28.3424 1959.2580 -67.0456
48.7756 1957.6455 -7.9657
35.5642 1974.2640 25.5436
5.8468 1976.9040 42.7855
-20.2365 1982.0880 28.6635
-28.5756 1984.5680 9.8224
-97.5454 1963.4960 -83.4507
-18.7063 1959.6960 -145.1408
30.6619 1959.1520 -54.6502
49.5937 1957.8320 -5.5977
32.9570 1975.8480 28.1087
2.8315 1976.8380 43.0986
-22.2365 1982.6160 26.2853
-30.7526 1983.9585 5.5486
-100.9609 1961.4720 -93.0567
-8.2054 1959.9370 -145.1341
32.9545 1959.0640 -43.8650
50.0154 1958.2665 -3.0098
51.0000 1959.0000 0.0000
31.1127 1977.0000 31.1127
0.0000 1977.0000 44.0000
-23.3345 1983.0000 23.3345
-33.0000 1983.0000 0.0000
-100.4092 1960.0000 -100.4092
0.0000 1960.0000 -142.0000
36.0624 1959.0000 -36.0624
50.4722 1960.1520 3.3937
28.4211 1977.7020 33.2905
-2.7100 1977.3840 43.3044
-24.5948 1983.3465 21.4560
-38.1575 1981.5280 -7.1841
-96.8753 1959.0730 -107.6143
6.3073 1959.9360 -137.0667
38.5685 1958.8785 -29.6040
49.4309 1961.7360 6.8309
25.4841 1978.0560 35.3934
-5.3834 1977.9120 42.0570
-25.2185 1983.7520 20.0716
-45.4713 1979.5040 -16.0901
-90.0382 1958.5440 -114.8522
11.6687 1959.8480 -129.1363
40.9591 1958.6480 -24.2988
47.9470 1963.6440 10.2717
22.3589 1978.1340 37.3754
-8.0026 1978.5480 40.3506
-25.4199 1984.1655 18.9582
-54.2649 1977.0660 -26.3105
-80.5941 1958.3410 -121.8567
16.2137 1959.7420 -118.8610
43.1934 1958.3595 -19.9520
46.0913 1965.7680 13.6763
19.1025 1978.0080 39.1904
-10.5500 1979.2560 38.2777
-25.4132 1984.5360 17.8925
-63.8614 1974.3520 -37.4376
-69.2398 1958.3920 -128.3618
20.0719 1959.6240 -106.8930
45.2301 1958.0640 -16.3689
43.9345 1968.0000 17.0048
15.7718 1977.7500 40.7925
-13.0077 1980.0000 35.9311
-25.4126 1984.8125 16.6512
-73.5842 1971.5000 -49.0636
-56.6716 1958.6250 -134.1013
23.3732 1959.5000 -93.8846
47.0281 1957.8125 -13.3547
41.5474 1970.2320 20.2174
12.4239 1977.4320 42.1357
-15.3582 1980.7440 33.4034
-25.6324 1984.9440 15.0113
-82.7567 1968.6480 -60.7808
-43.5860 1958.9680 -138.8090
26.2471 1959.3760 -80.4878
48.5464 1957.6560 -10.7146
39.0009 1972.3560 23.2744
9.1157 1977.1260 43.1740
-17.5839 1981.4520 30.7873
-26.2868 1984.8795 12.7494
-90.7021 1965.9340 -72.1817
-30.6795 1959.3490 -142.2189
28.8233 1959.2580 -67.3550
49.7438 1957.6455 -8.2539
36.3658 1974.2640 26.1358
5.9043 1976.9040 43.8615
-19.6669 1982.0880 28.1753
-27.5900 1984.5680 9.6424
-96.7438 1963.4960 -82.8585
-18.6487 1959.6960 -144.0647
31.2315 1959.1520 -55.1384
50.5793 1957.8320 -5.7777
33.7128 1975.8480 28.7618
2.8468 1976.8380 44.1522
-21.5897 1982.6160 25.6602
-29.7563 1983.9585 5.4670
-100.2050 1961.4720 -92.4036
-8.1901 1959.9370 -144.0805
33.6013 1959.0640 -44.4901
51.0117 1958.2665 -3.0913
51.0000 1959.0000 0.0000
52.3259 1977.0000 52.3259
0.0000 1977.0000 74.0000
-23.3345 1983.0000 23.3345
-33.0000 1983.0000 0.0000
-99.7021 1960.0000 -99.7021
0.0000 1960.0000 -141.0000
36.0624 1959.0000 -36.0624
51.9253 1960.1520 4.7119
49.1357 1977.7020 56.0602
-3.5691 1977.3840 71.7402
-24.5980 1983.3465 20.2378
-38.1090 1981.5280 -7.1401
-96.1848 1959.0730 -106.8553
6.2787 1959.9360 -136.1188
38.4730 1958.8785 -29.7399
52.9948 1961.7360 9.9147
44.8306 1978.0560 59.7799
-6.7411 1977.9120 68.0593
-25.2299 1983.7520 18.1403
-45.3525 1979.5040 -15.9874
-89.3933 1958.5440 -114.0393
11.6234 1959.8480 -128.2696
40.6197 1958.6480 -24.7022
54.0883 1963.6440 15.4679
39.6583 1978.1340 63.3597
-9.5618 1978.5480 63.2564
-25.4422 1984.1655 16.7309
-54.0602 1977.0660 -26.1373
-80.0175 1958.3410 -120.9906
16.1617 1959.7420 -118.0975
42.5252 1958.3595 -20.6937
55.0857 1965.7680 21.2307
33.8669 1978.0080 66.6748
-12.0773 1979.2560 57.6304
-25.4471 1984.5360 15.6985
-63.5616 1974.3520 -37.1858
-68.7476 1958.3920 -127.4456
20.0210 1959.6240 -106.2479
44.2118 1958.0640 -17.4591
55.8669 1968.0000 27.0622
27.7042 1977.7500 69.5999
-14.3335 1980.0000 51.4803
-25.4568 1984.8125 14.7320
-73.1865 1971.5000 -48.7283
-56.2738 1958.6250 -133.1410
23.3290 1959.5000 -93.3662
45.7023 1957.8125 -14.7430
56.3118 1970.2320 32.8218
21.4183 1977.4320 72.0101
-16.3765 1980.7440 45.1052
-25.6833 1984.9440 13.5204
-82.2646 1968.6480 -60.3607
-43.2862 1958.9680 -137.8132
26.2132 1959.3760 -80.0978
47.0190 1957.6560 -12.2899
56.3003 1972.3560 38.3687
15.2569 1977.1260 73.7803
-18.2521 1981.4520 38.8040
-26.3387 1984.8795 11.7524
-90.1255 1965.9340 -71.6786
-30.4748 1959.3490 -141.1987
28.8010 1959.2580 -67.0878
48.1846 1957.6455 -9.8445
55.7122 1974.2640 43.5622
9.4682 1976.9040 74.7853
-20.0063 1982.0880 32.8759
-27.6353 1984.5680 9.1171
-96.0989 1963.4960 -82.2776
-18.5299 1959.6960 -143.0339
31.2202 1959.1520 -54.9817
49.2216 1957.8320 -7.1513
54.4275 1975.8480 48.2615
4.2999 1976.8380 74.9003
-21.6851 1982.6160 27.6197
-29.7850 1983.9585 5.3033
-99.5146 1961.4720 -91.7536
-8.1416 1959.9370 -143.0556
33.5981 1959.0640 -44.4248
50.1526 1958.2665 -3.9550
52.0000 1959.0000 0.0000
60.1041 1977.0000 60.1041
0.0000 1977.0000 85.0000
-22.6274 1983.0000 22.6274
-32.0000 1983.0000 0.0000
-101.1163 1961.0000 -101.1163
0.0000 1961.0000 -143.0000
36.7696 1959.0000 -36.7696
53.4060 1960.1520 5.2238
56.6875 1977.7020 64.4123
-3.8402 1977.3840 82.1183
-23.8326 1983.3420 19.1082
-37.2581 1981.5920 -7.1994
-97.6095 1960.1180 -108.3701
6.3799 1960.8720 -138.0630
39.1970 1958.8380 -30.3844
55.1682 1961.7360 11.0907
51.8490 1978.0560 68.7329
-7.1361 1977.9120 77.4747
-24.3943 1983.7360 16.8141
-44.7234 1979.6560 -16.1477
-90.7584 1959.6240 -115.6537
11.8167 1960.6960 -130.1218
41.3082 1958.5840 -25.3435
57.1036 1963.6440 17.4252
45.9056 1978.1340 72.9096
-9.9603 1978.5480 71.4505
-24.5315 1984.1340 15.3903
-53.7060 1977.3240 -26.4318
-81.2666 1959.4460 -122.7006
16.4388 1960.4840 -119.8292
43.1463 1958.2860 -21.3683
59.0287 1965.7680 24.0515
39.1746 1978.0080 76.7863
-12.3855 1979.2560 64.4265
-24.4631 1984.4880 14.4823
-63.5161 1974.7280 -37.6385
-69.8379 1959.5120 -129.2440
20.3747 1960.2480 -107.8379
44.7546 1957.9920 -18.1806
60.7604 1968.0000 30.7941
31.9728 1977.7500 80.2068
-14.4844 1980.0000 56.7839
-24.4082 1984.7500 13.7352
-73.4637 1972.0000 -49.3546
-57.1760 1959.7500 -135.0173
23.7526 1960.0000 -94.8006
46.1764 1957.7500 -15.5019
62.1155 1970.2320 37.4774
24.6173 1977.4320 83.0150
-16.3297 1980.7440 48.9037
-24.5857 1984.8720 12.7944
-82.8588 1969.2720 -61.1670
-43.9847 1960.0880 -139.7539
26.7012 1959.7520 -81.3700
47.4548 1957.6080 -13.0538
62.9106 1972.3560 43.9256
17.4252 1977.1260 85.0545
-17.9939 1981.4520 41.1669
-25.2146 1984.8060 11.3052
-91.0116 1966.6760 -72.6626
-30.9677 1960.4540 -143.1871
29.3487 1959.5160 -68.1989
48.6331 1957.6140 -10.5579
62.9626 1974.2640 49.9632
10.7136 1976.9040 86.1693
-19.5499 1982.0880 33.9545
-26.5140 1984.5040 8.9128
-97.2320 1964.3440 -83.4281
-18.8288 1960.7760 -145.0503
31.8237 1959.3040 -55.9400
49.7546 1957.8160 -7.7359
62.0882 1975.8480 55.4146
4.7995 1976.8380 86.2032
-21.0701 1982.6160 27.6477
-28.7028 1983.9180 5.2627
-100.8302 1962.4080 -93.0504
-8.2716 1960.9820 -145.0768
34.2545 1959.1280 -45.2459
50.8625 1958.2620 -4.3094
52.0000 1959.0000 0.0000
67.1751 1977.0000 67.1751
0.0000 1977.0000 95.0000
-22.6274 1983.0000 22.6274
-32.0000 1983.0000 0.0000
-100.4092 1961.0000 -100.4092
0.0000 1961.0000 -142.0000
36.7696 1959.0000 -36.7696
53.8903 1960.1520 5.6632
63.5924 1977.7020 72.0022
-4.1266 1977.3840 91.5969
-23.8358 1983.3420 18.7000
-37.2096 1981.5920 -7.1554
-96.9190 1960.1180 -107.6111
6.3513 1960.8720 -137.1151
39.1652 1958.8380 -30.4568
56.3562 1961.7360 12.1187
58.2978 1978.0560 76.8617
-7.5886 1977.9120 86.1422
-24.4057 1983.7360 16.1628
-44.6046 1979.6560 -16.0449
-90.1135 1959.6240 -114.8408
11.7715 1960.6960 -129.2551
41.1950 1958.5840 -25.5206
59.1506 1963.6440 19.1573
51.6721 1978.1340 81.5711
-10.4800 1978.5480 79.0858
-24.5538 1984.1340 14.6330
-53.5013 1977.3240 -26.2586
-80.6899 1959.4460 -121.8344
16.3869 1960.4840 -119.0657
42.9236 1958.2860 -21.6646
62.0269 1965.7680 26.5697
44.0960 1978.0080 85.9478
-12.8946 1979.2560 70.8774
-24.4970 1984.4880 13.7283
-63.2163 1974.7280 -37.3867
-69.3457 1959.5120 -128.3278
20.3238 1960.2480 -107.1928
44.4152 1957.9920 -18.5920
64.7379 1968.0000 34.1466
35.9502 1977.7500 89.8093
-14.9264 1980.0000 61.9670
-24.4523 1984.7500 13.0660
-73.0659 1972.0000 -49.0194
-56.7783 1959.7500 -134.0571
23.7084 1960.0000 -94.2823
45.7344 1957.7500 -16.0063
67.0370 1970.2320 41.6788
27.6154 1977.4320 92.9731
-16.6691 1980.7440 52.8043
-24.6366 1984.8720 12.2635
-82.3667 1969.2720 -60.7469
-43.6849 1960.0880 -138.7581
26.6672 1959.7520 -80.9800
46.9457 1957.6080 -13.6109
68.6771 1972.3560 48.9571
19.4723 1977.1260 95.2566
-18.2167 1981.4520 43.8391
-25.2666 1984.8060 10.9382
-90.4349 1966.6760 -72.1594
-30.7630 1960.4540 -142.1669
29.3265 1959.5160 -67.9317
48.1134 1957.6140 -11.1092
69.4114 1974.2640 55.7720
11.9016 1976.9040 96.4773
-19.6630 1982.0880 35.5214
-26.5592 1984.5040 8.7076
-96.5871 1964.3440 -82.8472
-18.7100 1960.7760 -144.0195
31.8124 1959.3040 -55.7833
49.3021 1957.8160 -8.2045
68.9931 1975.8480 61.9145
5.2839 1976.8380 96.4526
-21.1020 1982.6160 28.3009
-28.7314 1983.9180 5.1890
-100.1397 1962.4080 -92.4004
-8.2232 1960.9820 -144.0519
34.2513 1959.1280 -45.1806
50.5761 1958.2620 -4.6003
53.0000 1959.0000 0.0000
67.8823 1977.0000 67.8823
0.0000 1977.0000 96.0000
-9.1924 1983.0000 9.1924
-13.0000 1983.0000 0.0000
-100.4092 1961.0000 -100.4092
0.0000 1961.0000 -142.0000
37.4767 1959.0000 -37.4767
54.8866 1960.1520 5.7357
64.1819 1977.7020 72.8217
-3.3204 1977.3840 91.6244
-9.4150 1983.3420 5.5402
-19.2002 1981.5920 -6.6113
-97.6917 1960.1180 -107.6079
6.3952 1960.8720 -137.1636
39.9210 1958.8380 -31.1504
57.3417 1961.7360 12.2667
58.6637 1978.0560 77.8895
-5.6808 1977.9120 84.7519
-8.9609 1983.7360 3.8460
-28.1364 1979.6560 -15.1851
-91.3408 1959.6240 -114.8295
11.8743 1960.6960 -129.3739
41.9966 1958.5840 -26.1768
60.1189 1963.6440 19.3824
51.7520 1978.1340 82.8604
-7.2410 1978.5480 75.9599
-8.0970 1984.1340 3.6033
-38.9943 1977.3240 -25.2711
-82.1087 1959.4460 -121.8122
16.5601 1960.4840 -119.2704
43.7674 1958.2860 -22.2635
62.9718 1965.7680 26.8724
43.8713 1978.0080 87.5088
-8.1611 1979.2560 65.8261
-7.0903 1984.4880 4.3055
-50.9596 1974.7280 -36.4193
-70.7477 1959.5120 -128.2939
20.5756 1960.2480 -107.4926
45.2974 1957.9920 -19.1181
65.6540 1968.0000 34.5261
35.4458 1977.7500 91.6092
-8.6009 1980.0000 54.9281
-6.2076 1984.7500 5.4463
-63.2181 1972.0000 -48.1797
-58.0099 1959.7500 -134.0129
24.0437 1960.0000 -94.6800
46.6505 1957.7500 -16.4483
67.9192 1970.2320 42.1329
26.8999 1977.4320 94.9362
-8.7203 1980.7440 43.8436
-5.7161 1984.8720 6.5190
-74.9555 1969.2720 -60.1020
-44.6478 1960.0880 -138.7072
27.0874 1959.7520 -81.4721
47.8906 1957.6080 -13.9616
69.5210 1972.3560 49.4825
18.6581 1977.1260 97.2643
-8.6792 1981.4520 33.1501
-5.8826 1984.8060 7.0173
-85.3576 1966.6760 -71.7362
-31.4135 1960.4540 -142.1149
29.8296 1959.5160 -68.5083
49.0816 1957.6140 -11.3658
70.2130 1974.2640 56.3642
11.1445 1976.9040 98.3679
-8.6376 1982.0880 23.4253
-6.9741 1984.5040 6.4345
-93.6101 1964.3440 -82.6322
-19.0592 1960.7760 -143.9742
32.3933 1959.3040 -56.4282
50.2876 1957.8160 -8.3685
69.7489 1975.8480 62.5677
4.7837 1976.8380 98.0216
-8.7553 1982.6160 15.2469
-9.2576 1983.9180 4.2642
-98.8987 1962.4080 -92.3399
-8.3373 1960.9820 -144.0232
34.9013 1959.1280 -45.8711
51.5724 1958.2620 -4.6774
49.0000 1960.0000 0.0000
72.1249 1977.0000 72.1249
0.0000 1977.0000 102.0000
-9.1924 1983.0000 9.1924
-13.0000 1983.0000 0.0000
-99.7021 1961.0000 -99.7021
0.0000 1961.0000 -141.0000
34.6482 1960.0000 -34.6482
51.3858 1961.0880 5.8848
68.4868 1977.6615 77.3756
-3.4922 1977.3840 97.3116
-9.4182 1983.3420 5.2940
-19.1518 1981.5920 -6.5674
-96.9885 1960.1135 -106.8616
6.1908 1960.9360 -136.0220
36.8659 1959.8830 -28.4481
54.5875 1962.5840 12.7025
62.7890 1977.9920 82.7668
-5.9523 1977.9120 89.9523
-8.9722 1983.7360 3.4507
-28.0176 1979.6560 -15.0823
-90.6506 1959.6080 -114.0619
11.4178 1960.8480 -128.0320
38.6772 1959.6640 -23.7292
58.2930 1964.3860 20.2138
55.5059 1978.0605 88.0573
-7.5529 1978.5480 80.5410
-8.1193 1984.1340 3.1400
-38.7896 1977.3240 -25.0979
-81.4429 1959.4145 -121.0351
15.8153 1960.7420 -117.6881
40.1692 1959.3910 -20.1641
62.1903 1966.3920 28.1796
47.1122 1977.9360 93.0057
-8.4666 1979.2560 69.6966
-7.1242 1984.4880 3.8396
-50.6598 1974.7280 -36.1675
-70.1197 1959.4640 -127.5135
19.5174 1960.6240 -105.6483
41.4292 1959.1120 -17.4252
65.9672 1968.5000 36.3608
38.0823 1977.6875 97.3707
-8.8660 1980.0000 58.0379
-6.2518 1984.7500 5.0271
-62.8204 1972.0000 -47.8444
-57.4354 1959.6875 -133.2294
22.6585 1960.5000 -92.5708
42.5443 1958.8750 -15.1849
69.3118 1970.6080 44.5180
28.8908 1977.3840 100.9111
-8.9239 1980.7440 46.1839
-5.7670 1984.8720 6.1801
-74.4634 1969.2720 -59.6819
-44.1443 1960.0160 -137.9150
25.3729 1960.3760 -79.1135
43.6019 1958.7280 -13.1158
71.9119 1972.6140 52.4123
20.0123 1977.0945 103.3855
-8.8128 1981.4520 34.7535
-5.9346 1984.8060 6.7763
-84.7810 1966.6760 -71.2331
-31.0009 1960.3805 -141.3026
27.7947 1960.2580 -65.9345
44.6890 1958.7190 -10.8903
73.4555 1974.4160 59.8043
11.9213 1976.8880 104.5527
-8.7055 1982.0880 24.3655
-7.0194 1984.5040 6.2933
-92.9652 1964.3440 -82.0514
-18.7594 1960.7120 -143.1245
30.0584 1960.1520 -53.6920
45.8929 1958.8960 -8.1809
73.6305 1975.9120 66.4549
5.0923 1976.8335 104.1713
-8.7744 1982.6160 15.6388
-9.2862 1983.9180 4.2086
-98.2082 1962.4080 -91.6899
-8.1743 1960.9415 -143.1128
32.2982 1960.0640 -43.0438
47.3008 1959.3070 -4.6600
49.0000 1960.0000 0.0000
72.8320 1977.0000 72.8320
0.0000 1977.0000 103.0000
-41.0122 1984.0000 41.0122
-58.0000 1984.0000 0.0000
-101.1163 1962.0000 -101.1163
0.0000 1962.0000 -143.0000
34.6482 1960.0000 -34.6482
51.4342 1961.0880 5.9287
69.3205 1977.6570 77.9914
-5.4980 1977.4480 100.4391
-43.5664 1984.3825 36.3319
-61.9025 1982.5920 -7.9440
-96.5470 1961.1180 -108.3796
6.2481 1961.8720 -137.9177
36.8628 1959.8425 -28.3702
54.7063 1962.5840 12.8053
63.9430 1977.9760 83.0706
-10.6233 1978.0640 96.1648
-45.5293 1984.8000 32.4290
-67.2588 1980.6560 -17.3243
-89.0604 1960.6240 -115.6877
11.5083 1961.6960 -129.7655
38.6659 1959.6000 -23.6125
58.4977 1964.3860 20.3870
57.0849 1978.0290 87.9211
-15.3992 1978.8060 90.5164
-47.0513 1985.2075 29.0601
-73.5578 1978.3240 -27.7831
-79.2887 1960.4460 -122.7674
15.9192 1961.4840 -119.2151
40.1469 1959.3175 -20.0393
62.4901 1966.3920 28.4314
49.1317 1977.8880 92.3945
-19.8491 1979.6320 83.8333
-48.2829 1985.5600 25.9821
-80.2884 1975.7280 -38.9622
-67.8640 1960.5120 -129.3458
19.6192 1961.2480 -106.9385
41.3952 1959.0400 -17.3151
66.3650 1968.5000 36.6960
40.4688 1977.6250 96.3422
-23.9964 1980.5000 76.4549
-49.3746 1985.8125 22.9516
-86.9396 1973.0000 -50.5037
-55.4184 1960.7500 -135.1499
22.7469 1961.0000 -93.6074
42.5001 1958.8125 -15.1041
69.8040 1970.6080 44.9382
31.4816 1977.3120 99.6159
-27.8644 1981.3680 68.7206
-50.4768 1985.9200 19.7255
-93.0003 1970.2720 -62.0495
-42.5840 1961.0880 -139.9066
25.4408 1960.7520 -79.8936
43.5509 1958.6800 -13.0708
72.4886 1972.6140 52.9154
22.5558 1977.0210 102.0670
-31.4767 1982.1940 60.9697
-51.7400 1985.8375 16.0606
-97.9594 1967.6760 -73.2417
-29.9928 1961.4540 -143.3430
27.8393 1960.5160 -66.4690
44.6370 1958.6875 -10.8793
74.1004 1974.4160 60.3852
14.0766 1976.8240 103.5470
-34.8564 1982.9360 53.5418
-53.3146 1985.5200 11.7135
-101.3058 1965.3440 -83.7222
-18.2770 1961.7760 -145.1860
30.0810 1960.3040 -54.0053
45.8477 1958.8800 -8.1942
74.3210 1975.9120 67.1049
6.4295 1976.7930 103.9075
-38.0272 1983.5520 46.7762
-55.3511 1984.9225 6.4410
-102.5285 1963.4080 -93.1331
-8.0687 1961.9820 -145.1627
32.3045 1960.1280 -43.1745
47.2722 1959.3025 -4.6796
50.0000 1960.0000 0.0000
73.5391 1977.0000 73.5391
0.0000 1977.0000 104.0000
-41.0122 1984.0000 41.0122
-58.0000 1984.0000 0.0000
-100.4092 1962.0000 -100.4092
0.0000 1962.0000 -142.0000
35.3553 1960.0000 -35.3553
52.4305 1961.0880 6.0013
69.9705 1977.6570 78.7504
-5.5267 1977.4480 101.3870
-43.5696 1984.3825 36.2882
-61.8540 1982.5920 -7.9000
-95.8596 1961.1180 -107.6174
6.2634 1961.8720 -137.0183
37.6186 1959.8425 -29.1044
55.6918 1962.5840 12.9533
64.5239 1977.9760 83.8835
-10.6686 1978.0640 97.0315
-45.5406 1984.8000 32.3537
-67.1400 1980.6560 -17.2215
-88.4268 1960.6240 -114.8635
11.5659 1961.6960 -129.0175
39.4674 1959.6000 -24.3327
59.4660 1964.3860 20.6122
57.5880 1978.0290 88.7873
-15.4512 1978.8060 91.2799
-47.0736 1985.2075 28.9643
-73.3531 1978.3240 -27.6098
-78.7344 1960.4460 -121.8790
16.0404 1961.4840 -118.6563
40.9908 1959.3175 -20.7118
63.4350 1966.3920 28.7342
49.5518 1977.8880 93.3106
-19.9000 1979.6320 84.4784
-48.3168 1985.5600 25.8761
-79.9886 1975.7280 -38.7104
-67.4058 1960.5120 -128.3957
19.8201 1961.2480 -106.5932
42.2774 1959.0400 -17.9132
67.2810 1968.5000 37.0755
40.8040 1977.6250 97.3025
-24.0406 1980.5000 76.9732
-49.4188 1985.8125 22.8449
-86.5419 1973.0000 -50.1684
-55.0649 1960.7500 -134.1454
23.0380 1961.0000 -93.4868
43.4162 1958.8125 -15.6086
70.6862 1970.6080 45.3923
31.7335 1977.3120 100.6117
-27.8984 1981.3680 69.1106
-50.5277 1985.9200 19.6266
-92.5082 1970.2720 -61.6294
-42.3351 1961.0880 -138.8599
25.8270 1960.7520 -79.9957
44.4958 1958.6800 -13.4695
73.3324 1972.6140 53.4408
22.7290 1977.0210 103.0872
-31.4989 1982.1940 61.2370
-51.7920 1985.8375 15.9771
-97.3828 1967.6760 -72.7386
-29.8401 1961.4540 -142.2708
28.3202 1960.5160 -66.7784
45.6052 1958.6875 -11.1675
74.9020 1974.4160 60.9773
14.1794 1976.8240 104.5778
-34.8677 1982.9360 53.6985
-53.3599 1985.5200 11.6522
-100.6610 1965.3440 -83.1414
-18.2035 1961.7760 -144.1100
30.6506 1960.3040 -54.4935
46.8332 1958.8800 -8.3742
75.0768 1975.9120 67.7580
6.4734 1976.7930 104.9324
-38.0303 1983.5520 46.8415
-55.3798 1984.9225 6.4079
-101.8380 1963.4080 -92.4831
-8.0489 1961.9820 -144.1091
32.9513 1960.1280 -43.7996
48.2685 1959.3025 -4.7612
50.0000 1960.0000 0.0000
29.6985 1978.0000 29.6985
0.0000 1978.0000 42.0000
-40.3051 1984.0000 40.3051
-57.0000 1984.0000 0.0000
-99.7021 1962.0000 -99.7021
0.0000 1962.0000 -141.0000
35.3553 1960.0000 -35.3553
49.4275 1961.1520 3.2772
27.1569 1978.7020 31.6962
-3.7072 1978.3840 42.5711
-42.8138 1984.3420 38.1056
-60.8577 1982.5920 -7.8274
-95.2097 1961.1180 -106.8585
6.2348 1961.8720 -136.0704
37.8158 1959.8380 -28.9476
48.3266 1962.7360 6.5801
24.5299 1979.0560 33.4961
-7.7600 1978.9120 43.1746
-44.7390 1984.7360 35.6655
-66.1544 1980.6560 -17.0735
-87.8460 1960.6240 -114.0506
11.5206 1961.6960 -128.1508
40.1689 1959.5840 -23.6952
46.7741 1964.6440 9.8733
21.8137 1979.1340 35.1085
-12.0557 1979.5480 43.7365
-46.2297 1985.1340 32.9224
-72.3848 1978.3240 -27.3847
-78.2312 1960.4460 -121.0128
15.9885 1961.4840 -117.8928
42.3718 1959.2860 -19.4043
44.8466 1966.7680 13.1217
19.0048 1979.0080 36.5435
-16.4916 1980.2560 44.1831
-47.4346 1985.4880 29.8140
-79.0437 1975.7280 -38.4076
-66.9857 1960.5120 -127.4796
19.7692 1961.2480 -105.9481
44.3818 1958.9920 -15.8808
42.6207 1969.0000 16.2901
16.0995 1978.7500 37.8113
-20.9653 1981.0000 44.4405
-48.5027 1985.7500 26.2780
-85.6258 1973.0000 -49.7890
-54.7296 1960.7500 -133.1852
22.9938 1961.0000 -92.9685
46.1562 1958.7500 -12.9310
40.1731 1971.2320 19.3432
13.0941 1978.4320 38.9222
-25.3739 1981.7440 44.4348
-49.5828 1985.8720 22.2519
-91.6260 1970.2720 -61.1753
-42.0833 1961.0880 -137.8641
25.7930 1960.7520 -79.6056
47.6524 1958.6080 -10.3610
37.5804 1973.3560 22.2458
9.9851 1978.1260 39.8863
-29.6148 1982.4520 44.0923
-50.8237 1985.8060 17.6734
-96.5389 1967.6760 -72.2131
-29.6669 1961.4540 -141.2506
28.2979 1960.5160 -66.5112
48.8275 1958.6140 -7.9767
34.9193 1975.2640 24.9627
6.7689 1977.9040 40.7138
-33.5854 1983.0880 43.3391
-52.3743 1985.5040 12.4802
-99.8594 1965.3440 -82.5492
-18.1007 1961.7760 -143.0792
30.6393 1960.3040 -54.3368
49.6390 1958.8160 -5.5844
32.2665 1976.8480 27.4587
3.4417 1977.8380 41.4150
-37.1831 1983.6160 42.1013
-54.3835 1984.9180 6.6098
-101.0822 1963.4080 -91.8299
-8.0050 1961.9820 -143.0842
32.9481 1960.1280 -43.7343
50.0441 1959.2620 -2.9901
51.0000 1960.0000 0.0000
30.4056 1978.0000 30.4056
0.0000 1978.0000 43.0000
-39.5980 1984.0000 39.5980
-56.0000 1984.0000 0.0000
-101.8234 1963.0000 -101.8234
0.0000 1963.0000 -144.0000
36.0624 1960.0000 -36.0624
50.4238 1961.1520 3.3498
27.8038 1978.7020 32.4584
-3.6919 1978.3840 43.4705
-42.0452 1984.3375 37.3841
-60.0552 1982.6560 -7.9306
-97.3248 1962.1630 -109.1322
6.3646 1962.8080 -138.9624
38.5717 1959.7975 -29.5198
49.3121 1962.7360 6.7281
25.0995 1979.0560 34.3203
-7.7024 1978.9120 43.9225
-43.8922 1984.7200 34.9905
-65.6441 1980.8080 -17.3366
-89.8559 1961.7040 -116.4779
11.7592 1962.5440 -130.8698
40.9705 1959.5200 -24.1594
47.7423 1964.6440 10.0985
22.2946 1979.1340 35.9969
-11.9344 1979.5480 44.2953
-45.2967 1985.1025 32.3391
-72.2354 1978.5820 -27.8523
-80.0569 1961.5510 -123.5890
16.3176 1962.2260 -120.3881
43.2156 1959.2125 -19.7827
45.7915 1966.7680 13.4245
19.3910 1979.0080 37.4936
-16.2907 1980.2560 44.5283
-46.4167 1985.4400 29.3517
-79.2981 1976.1040 -39.1122
-68.5681 1961.6320 -130.1941
20.1738 1961.8720 -108.1832
45.2640 1958.9200 -16.1909
43.5367 1969.0000 16.6695
16.3905 1978.7500 38.8158
-20.6742 1981.0000 44.5610
-47.4099 1985.6875 25.9503
-86.3008 1973.5000 -50.7505
-56.0296 1961.8750 -136.0217
23.4616 1961.5000 -94.9212
47.0723 1958.6875 -13.1855
41.0553 1971.2320 19.7973
13.2950 1978.4320 39.9689
-24.9877 1981.7440 44.3327
-48.4343 1985.8000 22.0568
-92.7124 1970.8960 -62.4018
-43.0816 1962.2080 -140.8006
26.3150 1961.1280 -81.2679
48.5973 1958.5600 -10.5677
38.4243 1973.3560 22.7712
10.1064 1978.1260 40.9585
-29.1339 1982.4520 43.7829
-49.6476 1985.7325 17.5931
-98.0016 1968.4180 -73.7003
-30.3645 1962.5590 -144.2593
28.8679 1960.7740 -67.8895
49.7958 1958.5825 -8.1389
35.7209 1975.2640 25.5549
6.8264 1977.9040 41.7899
-33.0158 1983.0880 42.8509
-51.2078 1985.4400 12.4812
-101.6374 1966.1920 -84.2805
-18.5183 1962.8560 -146.1263
31.2541 1960.4560 -55.4518
50.6245 1958.8000 -5.7004
33.0223 1976.8480 28.1118
3.4570 1977.8380 42.4686
-36.5363 1983.6160 41.4761
-53.2726 1984.8775 6.6428
-103.0883 1964.3440 -93.7767
-8.1834 1963.0270 -146.1304
33.6077 1960.1920 -44.6208
51.0404 1959.2575 -3.0537
51.0000 1960.0000 0.0000
31.1127 1978.0000 31.1127
0.0000 1978.0000 44.0000
-39.5980 1984.0000 39.5980
-56.0000 1984.0000 0.0000
-101.8234 1963.0000 -101.8234
0.0000 1963.0000 -144.0000
36.0624 1960.0000 -36.0624
50.4722 1961.1520 3.3937
28.4942 1978.7020 33.2174
-3.7205 1978.3840 44.4184
-42.0452 1984.3375 37.3436
-60.0552 1982.6560 -7.9306
-97.3248 1962.1630 -109.1322
6.3646 1962.8080 -138.9624
38.5685 1959.7975 -29.5230
49.4309 1962.7360 6.8309
25.7443 1979.0560 35.1332
-7.7477 1978.9120 44.7892
-43.8922 1984.7200 34.9265
-65.6441 1980.8080 -17.3366
-89.8559 1961.7040 -116.4779
11.7592 1962.5440 -130.8698
40.9591 1959.5200 -24.1708
47.9470 1964.6440 10.2717
22.8712 1979.1340 36.8631
-11.9864 1979.5480 45.0588
-45.2967 1985.1025 32.2656
-72.2354 1978.5820 -27.8523
-80.0569 1961.5510 -123.5890
16.3176 1962.2260 -120.3881
43.1934 1959.2125 -19.8050
46.0913 1966.7680 13.6763
19.8831 1979.0080 38.4097
-16.3417 1980.2560 45.1734
-46.4167 1985.4400 29.2797
-79.2981 1976.1040 -39.1122
-68.5681 1961.6320 -130.1941
20.1738 1961.8720 -108.1832
45.2301 1958.9200 -16.2249
43.9345 1969.0000 17.0048
16.7883 1978.7500 39.7760
-20.7184 1981.0000 45.0793
-47.4099 1985.6875 25.8878
-86.3008 1973.5000 -50.7505
-56.0296 1961.8750 -136.0217
23.4616 1961.5000 -94.9212
47.0281 1958.6875 -13.2297
41.5474 1971.2320 20.2174
13.5948 1978.4320 40.9647
-25.0216 1981.7440 44.7228
-48.4343 1985.8000 22.0088
-92.7124 1970.8960 -62.4018
-43.0816 1962.2080 -140.8006
26.3150 1961.1280 -81.2679
48.5464 1958.5600 -10.6186
39.0009 1973.3560 23.2744
10.3111 1978.1260 41.9787
-29.1562 1982.4520 44.0501
-49.6476 1985.7325 17.5616
-98.0016 1968.4180 -73.7003
-30.3645 1962.5590 -144.2593
28.8679 1960.7740 -67.8895
49.7438 1958.5825 -8.1909
36.3658 1975.2640 26.1358
6.9452 1977.9040 42.8207
-33.0272 1983.0880 43.0076
-51.2078 1985.4400 12.4652
-101.6374 1966.1920 -84.2805
-18.5183 1962.8560 -146.1263
31.2541 1960.4560 -55.4518
50.5793 1958.8000 -5.7457
33.7128 1976.8480 28.7618
3.5054 1977.8380 43.4935
-36.5394 1983.6160 41.5414
-53.2726 1984.8775 6.6383
-103.0883 1964.3440 -93.7767
-8.1834 1963.0270 -146.1304
33.6077 1960.1920 -44.6208
51.0117 1959.2575 -3.0823
52.0000 1960.0000 0.0000
31.8198 1978.0000 31.8198
0.0000 1978.0000 45.0000
-38.8909 1984.0000 38.8909
-55.0000 1984.0000 0.0000
-101.1163 1963.0000 -101.1163
0.0000 1963.0000 -143.0000
36.7696 1960.0000 -36.7696
51.4685 1961.1520 3.4663
29.1410 1978.7020 33.9795
-3.7052 1978.3840 45.3178
-41.2894 1984.3375 36.6095
-59.0589 1982.6560 -7.8580
-96.6780 1962.1630 -108.3701
6.3799 1962.8080 -138.0630
39.3243 1959.7975 -30.2572
50.4165 1962.7360 6.9790
26.3139 1979.0560 35.9574
-7.6901 1978.9120 45.5372
-43.0906 1984.7200 34.2063
-64.6585 1980.8080 -17.1885
-89.2864 1961.7040 -115.6537
11.8167 1962.5440 -130.1218
41.7607 1959.5200 -24.8909
48.9153 1964.6440 10.4969
23.3521 1979.1340 37.7515
-11.8652 1979.5480 45.6177
-44.4528 1985.1025 31.5932
-71.2672 1978.5820 -27.6271
-79.5761 1961.5510 -122.7006
16.4388 1962.2260 -119.8292
44.0372 1959.2125 -20.4774
47.0362 1966.7680 13.9790
20.2693 1979.0080 39.3598
-16.1408 1980.2560 45.5187
-45.5345 1985.4400 28.6816
-78.3532 1976.1040 -38.8094
-68.1819 1961.6320 -129.2440
20.3747 1961.8720 -107.8379
46.1123 1958.9200 -16.8230
44.8505 1969.0000 17.3842
17.0793 1978.7500 40.7805
-20.4274 1981.0000 45.1999
-46.4938 1985.6875 25.3834
-85.3847 1973.5000 -50.3711
-55.7385 1961.8750 -135.0173
23.7526 1961.5000 -94.8006
47.9441 1958.6875 -13.7341
42.4296 1971.2320 20.6715
13.7957 1978.4320 42.0115
-24.6354 1981.7440 44.6207
-47.4894 1985.8000 21.6101
-91.8302 1970.8960 -61.9477
-42.8807 1962.2080 -139.7539
26.7012 1961.1280 -81.3700
49.4913 1958.5600 -11.0173
39.8448 1973.3560 23.7998
10.4323 1978.1260 43.0509
-28.6753 1982.4520 43.7407
-48.6794 1985.7325 17.2735
-97.1578 1968.4180 -73.1749
-30.2432 1962.5590 -143.1871
29.3487 1960.7740 -68.1989
50.7120 1958.5825 -8.4790
37.1673 1975.2640 26.7280
7.0027 1977.9040 43.8967
-32.4576 1983.0880 42.5194
-50.2222 1985.4400 12.2851
-100.8358 1966.1920 -83.6883
-18.4608 1962.8560 -145.0503
31.8237 1960.4560 -55.9400
51.5648 1958.8000 -5.9258
34.4686 1976.8480 29.4150
3.5207 1977.8380 44.5471
-35.8926 1983.6160 40.9162
-52.2763 1984.8775 6.5567
-102.3325 1964.3440 -93.1235
-8.1681 1963.0270 -145.0768
34.2545 1960.1920 -45.2459
52.0080 1959.2575 -3.1639
53.0000 1960.0000 0.0000
60.1041 1978.0000 60.1041
0.0000 1978.0000 85.0000
-38.8909 1984.0000 38.8909
-55.0000 1984.0000 0.0000
-100.4092 1963.0000 -100.4092
0.0000 1963.0000 -142.0000
37.4767 1960.0000 -37.4767
54.3538 1961.1520 5.2524
56.7201 1978.7020 64.3391
-4.8507 1978.3840 83.2323
-41.2926 1984.3375 34.9863
-59.0104 1982.6560 -7.8141
-95.9907 1962.1630 -107.6079
6.3952 1962.8080 -137.1636
39.9560 1959.7975 -31.1154
56.0350 1962.7360 11.1360
52.0452 1979.0560 68.4727
-9.5003 1978.9120 80.2070
-43.1019 1984.7200 31.6350
-64.5397 1980.8080 -17.0858
-88.6528 1961.7040 -114.8295
11.8743 1962.5440 -129.3739
42.1210 1959.5200 -26.0524
57.8671 1964.6440 17.4772
46.3444 1979.1340 72.3973
-13.9441 1979.5480 76.1588
-44.4751 1985.1025 28.6309
-71.0625 1978.5820 -27.4539
-79.0217 1961.5510 -121.8122
16.5601 1962.2260 -119.2704
44.0124 1959.2125 -22.0185
59.6738 1966.7680 24.1024
39.8832 1979.0080 76.0057
-18.1772 1980.2560 71.3222
-45.5684 1985.4400 25.7677
-78.0533 1976.1040 -38.5576
-67.7237 1961.6320 -128.2939
20.5756 1961.8720 -107.4926
45.6708 1958.9200 -18.7448
61.2788 1969.0000 30.8383
32.9267 1978.7500 79.1904
-22.1951 1981.0000 65.9321
-46.5380 1985.6875 22.8392
-84.9870 1973.5000 -50.0358
-55.3849 1961.8750 -134.0129
24.0437 1961.5000 -94.6800
47.1366 1958.6875 -15.9621
62.5056 1971.2320 37.5113
25.7403 1978.4320 81.8440
-25.9930 1981.7440 60.2231
-47.5403 1985.8000 19.6392
-91.3380 1970.8960 -61.5275
-42.6318 1962.2080 -138.7072
27.0874 1961.1280 -81.4721
48.4506 1958.5600 -13.4016
63.1779 1973.3560 43.9479
18.5891 1978.1260 83.8592
-29.5663 1982.4520 54.4297
-48.7313 1985.7325 15.9615
-96.5811 1968.4180 -72.6717
-30.0905 1962.5590 -142.1149
29.8296 1960.7740 -68.5083
49.6533 1958.5825 -10.7941
63.1193 1975.2640 49.9745
11.7385 1977.9040 85.1285
-32.9101 1983.0880 48.7868
-50.2675 1985.4400 11.5999
-100.1909 1966.1920 -83.1074
-18.3872 1962.8560 -143.9742
32.3933 1960.4560 -56.4282
50.7854 1958.8000 -7.8707
62.1535 1976.8480 55.4178
5.4537 1977.8380 85.5445
-36.0199 1983.6160 43.5290
-52.3050 1984.8775 6.3481
-101.6420 1964.3440 -92.4736
-8.1483 1963.0270 -144.0232
34.9013 1960.1920 -45.8711
51.8874 1959.2575 -4.3624
53.0000 1960.0000 0.0000
67.1751 1978.0000 67.1751
0.0000 1978.0000 95.0000
-35.3553 1984.0000 35.3553
-50.0000 1984.0000 0.0000
-99.7021 1963.0000 -99.7021
0.0000 1963.0000 -141.0000
37.4767 1960.0000 -37.4767
54.8382 1961.1520 5.6918
63.6091 1978.7020 71.9449
-4.9174 1978.3840 92.4687
-37.5008 1984.3375 31.1256
-54.2227 1982.6560 -7.6270
-95.5027 1962.1630 -106.8489
6.3666 1962.8080 -136.2157
39.9242 1959.7975 -31.1877
57.2229 1962.7360 12.1639
58.4374 1979.0560 76.6580
-9.4389 1978.9120 88.2805
-39.0488 1984.7200 27.7593
-60.0872 1980.8080 -16.7567
-88.3279 1961.7040 -114.0166
11.8290 1962.5440 -128.5071
42.0079 1959.5200 -26.2295
59.9142 1964.6440 19.2092
51.9995 1979.1340 81.1701
-13.5977 1979.5480 82.7705
-40.1667 1985.1025 24.9904
-67.0401 1978.5820 -27.0209
-78.8125 1961.5510 -120.9460
16.5081 1962.2260 -118.5069
43.7897 1959.2125 -22.3147
62.6719 1966.7680 26.6206
44.6350 1979.0080 85.3368
-17.4273 1980.2560 76.2741
-41.0216 1985.4400 22.5530
-74.5281 1976.1040 -38.0513
-67.5915 1961.6320 -127.3778
20.5247 1961.8720 -106.8476
45.3313 1958.9200 -19.1562
65.2562 1969.0000 34.1908
36.6832 1978.7500 89.0138
-20.9608 1981.0000 69.1264
-41.7810 1985.6875 20.1813
-81.9977 1973.5000 -49.4796
-55.2997 1961.8750 -133.0526
23.9995 1961.5000 -94.1617
46.6947 1958.6875 -16.4666
67.4270 1971.2320 41.7128
28.4838 1978.4320 92.0567
-24.2317 1981.7440 61.6629
-42.6121 1985.8000 17.6092
-88.8956 1970.8960 -60.9377
-42.5720 1962.2080 -137.7114
27.0535 1961.1280 -81.0821
47.9415 1958.5600 -13.9587
68.9443 1973.3560 48.9793
20.3763 1978.1260 94.3211
-27.2733 1982.4520 54.2188
-43.6823 1985.7325 14.5710
-94.6683 1968.4180 -72.0572
-30.0433 1962.5590 -141.0947
29.8073 1960.7740 -68.2411
49.1336 1958.5825 -11.3454
69.5681 1975.2640 55.7834
12.7002 1977.9040 95.6627
-30.1189 1983.0880 47.1293
-45.1588 1985.4400 10.8006
-98.7626 1966.1920 -82.4700
-18.3485 1962.8560 -142.9434
32.3819 1960.4560 -56.2715
50.3329 1958.8000 -8.3393
69.0584 1976.8480 61.9177
5.7949 1977.8380 95.9371
-32.8018 1983.6160 40.7297
-47.2089 1984.8775 6.0323
-100.6250 1964.3440 -91.8077
-8.1224 1963.0270 -142.9983
34.8981 1960.1920 -45.8058
51.6011 1959.2575 -4.6532
49.0000 1961.0000 0.0000
67.8823 1978.0000 67.8823
0.0000 1978.0000 96.0000
-35.3553 1984.0000 35.3553
-50.0000 1984.0000 0.0000
-101.8234 1964.0000 -101.8234
0.0000 1964.0000 -144.0000
34.6482 1961.0000 -34.6482
51.0952 1962.0880 5.6212
64.4616 1978.6615 72.7039
-4.9461 1978.3840 93.4166
-37.4913 1984.3330 31.0947
-54.3680 1982.7200 -7.7588
-97.5614 1963.2035 -109.1386
6.2768 1963.8080 -138.8656
36.8850 1960.8020 -28.3075
53.8747 1963.5840 12.0857
59.3383 1978.9920 77.4709
-9.4842 1978.9120 89.1472
-39.0149 1984.7040 27.7292
-60.4436 1980.9600 -17.0651
-90.2173 1962.7680 -116.5005
11.5536 1963.5440 -130.6322
38.7451 1960.5360 -23.4693
57.0648 1965.3860 19.1746
52.8702 1979.0605 82.0363
-13.6497 1979.5480 83.5340
-40.0998 1985.0710 24.9837
-67.6543 1978.8400 -27.5405
-80.4534 1962.6245 -123.6335
15.9712 1963.2260 -119.9786
40.3028 1960.2440 -19.8099
60.3914 1967.3920 26.6687
45.4151 1978.9360 86.2530
-17.4782 1980.2560 76.9191
-40.9198 1985.3920 22.5828
-75.4275 1976.4800 -38.8067
-68.9322 1962.7040 -130.2620
19.6701 1962.8720 -107.5836
41.6328 1959.9680 -17.0055
63.5808 1969.5000 34.3493
37.3310 1978.6875 89.9741
-21.0050 1981.0000 69.6447
-41.6484 1985.6250 20.2513
-83.1909 1974.0000 -50.4854
-56.3162 1962.9375 -136.1101
22.7911 1962.5000 -94.1257
42.8095 1959.7500 -14.7323
66.3589 1971.6080 41.9972
28.9757 1978.3840 93.0525
-24.2657 1981.7440 62.0530
-42.4594 1985.7280 17.7139
-90.3720 1971.5200 -62.1981
-43.2678 1963.2560 -140.9024
25.4747 1962.1280 -80.2836
43.9073 1959.6320 -12.6664
68.4521 1973.6140 49.3934
20.7070 1978.0945 95.3413
-27.2956 1982.4520 54.4860
-43.5264 1985.6590 14.6954
-96.3983 1969.1600 -73.5667
-30.4495 1963.5905 -144.3632
27.8616 1961.7740 -66.7362
45.0008 1959.6560 -10.4840
69.5862 1975.4160 56.3190
12.8830 1977.8880 96.6935
-30.1302 1983.0880 47.2860
-45.0230 1985.3760 10.9204
-100.6972 1967.0400 -84.2126
-18.5238 1963.8720 -146.2168
30.0924 1961.4560 -54.1620
46.1644 1959.8640 -7.8614
69.4876 1976.9120 62.5549
5.8613 1977.8335 96.9620
-32.8050 1983.6160 40.7950
-47.1230 1984.8370 6.1137
-102.6964 1965.2800 -93.7576
-8.1532 1964.0315 -146.1876
32.3077 1961.1920 -43.2398
47.4727 1960.2980 -4.4746
49.0000 1961.0000 0.0000
68.5894 1978.0000 68.5894
0.0000 1978.0000 97.0000
-34.6482 1984.0000 34.6482
-49.0000 1984.0000 0.0000
-101.8234 1964.0000 -101.8234
0.0000 1964.0000 -144.0000
34.6482 1961.0000 -34.6482
51.1436 1962.0880 5.6651
65.1489 1978.6615 73.4661
-4.9308 1978.3840 94.3160
-36.7323 1984.3330 30.3637
-53.4201 1982.7200 -7.7302
-97.6019 1963.2035 -109.1386
6.2768 1963.8080 -138.8656
36.8818 1960.8020 -28.3107
53.9935 1963.5840 12.1885
59.9719 1978.9920 78.2951
-9.4266 1978.9120 89.8952
-38.2020 1984.7040 27.0204
-59.5768 1980.9600 -17.0198
-90.2813 1962.7680 -116.5005
11.5536 1963.5440 -130.6322
38.7338 1960.5360 -23.4806
57.2695 1965.3860 19.3478
53.4245 1979.0605 82.9247
-13.5285 1979.5480 84.0928
-39.2337 1985.0710 24.3336
-66.8907 1978.8400 -27.4885
-80.5269 1962.6245 -123.6335
15.9712 1963.2260 -119.9786
40.2806 1960.2440 -19.8322
60.6912 1967.3920 26.9206
45.8733 1978.9360 87.2031
-17.2773 1980.2560 77.2644
-40.0036 1985.3920 22.0187
-74.7824 1976.4800 -38.7558
-69.0042 1962.7040 -130.2620
19.6701 1962.8720 -107.5836
41.5989 1959.9680 -17.0395
63.9785 1969.5000 34.6845
37.6845 1978.6875 90.9785
-20.7140 1981.0000 69.7653
-40.6882 1985.6250 19.7911
-82.6726 1974.0000 -50.4412
-56.3787 1962.9375 -136.1101
22.7911 1962.5000 -94.1257
42.7653 1959.7500 -14.7765
66.8511 1971.6080 42.4173
29.2246 1978.3840 94.0992
-23.8795 1981.7440 61.9509
-41.4636 1985.7280 17.3661
-89.9820 1971.5200 -62.1642
-43.3158 1963.2560 -140.9024
25.4747 1962.1280 -80.2836
43.8564 1959.6320 -12.7173
69.0287 1973.6140 49.8965
20.8598 1978.0945 96.4135
-26.8147 1982.4520 54.1766
-42.5061 1985.6590 14.4592
-96.1310 1969.1600 -73.5444
-30.4810 1963.5905 -144.3632
27.8616 1961.7740 -66.7362
44.9488 1959.6560 -10.5360
70.2311 1975.4160 56.8999
12.9565 1977.8880 97.7695
-29.5606 1983.0880 46.7978
-43.9922 1985.3760 10.7856
-100.5405 1967.0400 -84.2013
-18.5398 1963.8720 -146.2168
30.0924 1961.4560 -54.1620
46.1192 1959.8640 -7.9066
70.1781 1976.9120 63.2049
5.8811 1977.8335 98.0156
-32.1582 1983.6160 40.1698
-46.0981 1984.8370 6.0608
-102.6311 1965.2800 -93.7544
-8.1577 1964.0315 -146.1876
32.3077 1961.1920 -43.2398
47.4440 1960.2980 -4.5033
50.0000 1961.0000 0.0000
71.4178 1978.0000 71.4178
0.0000 1978.0000 101.0000
-34.6482 1984.0000 34.6482
-49.0000 1984.0000 0.0000
-101.1163 1964.0000 -101.1163
0.0000 1964.0000 -143.0000
35.3553 1961.0000 -35.3553
52.2852 1962.0880 5.8695
67.8704 1978.6615 76.5020
-5.0453 1978.3840 98.1075
-36.7355 1984.3330 30.1985
-53.3717 1982.7200 -7.6862
-96.9146 1963.2035 -108.3764
6.2920 1963.8080 -137.9661
37.6281 1960.8020 -29.0544
55.3354 1963.5840 12.6449
62.4874 1978.9920 81.5466
-9.6076 1978.9120 93.3622
-38.2133 1984.7040 26.7530
-59.4580 1980.9600 -16.9170
-89.6477 1962.7680 -115.6764
11.6111 1963.5440 -129.8843
39.5014 1960.5360 -24.2348
58.8518 1965.3860 20.0926
55.6576 1979.0605 86.3893
-13.7364 1979.5480 87.1470
-39.2560 1985.0710 24.0173
-66.6860 1978.8400 -27.3153
-79.9725 1962.6245 -122.7451
16.0924 1963.2260 -119.4198
41.0576 1960.2440 -20.5714
62.5356 1967.3920 27.9787
47.7699 1978.9360 90.8677
-17.4809 1980.2560 79.8448
-40.0376 1985.3920 21.6968
-74.4826 1976.4800 -38.5040
-68.5460 1962.7040 -129.3119
19.8710 1962.8720 -107.2383
42.3793 1959.9680 -17.7394
66.0878 1969.5000 36.0697
39.2130 1978.6875 94.8195
-20.8907 1981.0000 71.8385
-40.7324 1985.6250 19.4969
-82.2749 1974.0000 -50.1059
-56.0251 1962.9375 -135.1057
23.0821 1962.5000 -94.0051
43.5488 1959.7500 -15.4135
69.2097 1971.6080 44.1318
30.3758 1978.3840 98.0825
-24.0152 1981.7440 63.5111
-41.5145 1985.7280 17.1232
-89.4898 1971.5200 -61.7440
-43.0669 1963.2560 -139.8557
25.8609 1962.1280 -80.3857
44.6486 1959.6320 -13.2687
71.6025 1973.6140 51.9314
21.6471 1978.0945 100.4943
-26.9038 1982.4520 55.2455
-42.5581 1985.6590 14.2812
-95.5544 1969.1600 -73.0412
-30.3283 1963.5905 -143.2910
28.3424 1961.7740 -67.0456
45.7612 1959.6560 -10.9801
72.9673 1975.4160 59.2347
13.4157 1977.8880 101.8927
-29.6059 1983.0880 47.4245
-44.0375 1985.3760 10.6763
-99.8957 1967.0400 -83.6204
-18.4663 1963.8720 -145.1408
30.6619 1961.4560 -54.6502
46.9690 1959.8640 -8.2224
73.0054 1976.9120 65.8081
6.0704 1977.8335 102.1154
-32.1709 1983.6160 40.4311
-46.1267 1984.8370 6.0141
-101.9406 1965.2800 -93.1045
-8.1379 1964.0315 -145.1341
32.9545 1961.1920 -43.8650
48.3544 1960.2980 -4.6708
51.0000 1961.0000 0.0000
72.1249 1978.0000 72.1249
0.0000 1978.0000 102.0000
-29.6985 1984.0000 29.6985
-42.0000 1984.0000 0.0000
-100.4092 1964.0000 -100.4092
0.0000 1964.0000 -142.0000
36.0624 1961.0000 -36.0624
53.2815 1962.0880 5.9421
68.4981 1978.6615 77.2833
-4.7664 1978.3840 98.7163
-31.4257 1984.3330 25.3214
-46.6882 1982.7200 -7.4418
-96.5108 1963.2035 -107.6143
6.3073 1963.8080 -137.0667
38.3839 1960.8020 -29.7885
56.3210 1963.5840 12.7930
62.9891 1978.9920 82.4387
-8.9333 1978.9120 93.3974
-32.5345 1984.7040 22.1636
-53.2720 1980.9600 -16.4974
-89.4622 1962.7680 -114.8522
11.6687 1963.5440 -129.1363
40.3030 1960.5360 -24.9549
59.8201 1965.3860 20.3177
56.0049 1979.0605 87.4113
-12.5759 1979.5480 86.4775
-33.2152 1985.0710 19.8850
-61.1366 1978.8400 -26.7783
-79.9326 1962.6245 -121.8567
16.2137 1963.2260 -118.8610
41.9015 1960.2440 -21.2439
63.4805 1967.3920 28.2815
47.9525 1978.9360 92.0214
-15.7691 1980.2560 78.3912
-33.6585 1985.3920 18.1458
-69.6672 1976.4800 -37.8958
-68.5918 1962.7040 -128.3618
20.0719 1962.8720 -106.8930
43.2615 1959.9680 -18.3375
67.0038 1969.5000 36.4492
39.2389 1978.6875 96.0891
-18.5882 1981.0000 69.5726
-34.0548 1985.6250 16.6060
-78.2490 1974.0000 -49.4613
-56.1091 1962.9375 -134.1013
23.3732 1962.5000 -93.8846
44.4648 1959.7500 -15.9179
70.0919 1971.6080 44.5859
30.2712 1978.3840 99.4347
-21.1081 1981.7440 60.4562
-34.5947 1985.7280 14.9256
-86.2673 1971.5200 -61.0863
-43.1540 1963.2560 -138.8090
26.2471 1962.1280 -80.4878
45.5935 1959.6320 -13.6675
72.4464 1973.6140 52.4568
21.4565 1978.0945 101.8783
-23.4040 1982.4520 51.4762
-35.4686 1985.6590 12.7648
-93.1072 1969.1600 -72.3822
-30.3960 1963.5905 -142.2189
28.8233 1961.7740 -67.3550
46.7294 1959.6560 -11.2683
73.7689 1975.4160 59.8269
13.2017 1977.8880 103.2403
-25.5510 1983.0880 43.0670
-36.8672 1985.3760 9.7835
-98.1540 1967.0400 -82.9603
-18.5047 1963.8720 -144.0647
31.2315 1961.4560 -55.1384
47.9545 1959.8640 -8.4025
73.7612 1976.9120 66.4612
5.9138 1977.8335 103.3408
-27.6241 1983.6160 35.6630
-38.9808 1984.8370 5.6419
-100.7929 1965.2800 -92.4322
-8.1496 1964.0315 -144.0805
33.6013 1961.1920 -44.4901
49.3507 1960.2980 -4.7523
51.0000 1961.0000 0.0000
72.8320 1978.0000 72.8320
0.0000 1978.0000 103.0000
-29.6985 1984.0000 29.6985
-42.0000 1984.0000 0.0000
-101.1163 1965.0000 -101.1163
0.0000 1965.0000 -143.0000
36.0624 1961.0000 -36.0624
53.3300 1962.0880 5.9860
69.1886 1978.6615 78.0423
