ply
format ascii 1.0
element vertex 1784
property float x
property float y
property float z
element face 0
property list uchar int vertex_index
end_header
719.4844 1268.4825 -6.8880
762.9981 1178.4617 -17.4720
747.6008 1204.8307 10.5140
749.8696 1201.2002 9.6320
734.6236 1248.7532 9.6320
726.1147 1258.9286 -9.6960
761.5563 1172.1549 -15.1440
748.7279 1194.2029 9.1680
750.0243 1192.1283 8.6640
729.1923 1257.1043 8.6640
733.3533 1248.2901 -12.5000
759.6033 1166.4151 -12.5000
749.9158 1183.1939 7.5000
749.9158 1183.1939 7.5000
723.6658 1265.0689 7.5000
740.7243 1237.1309 -15.1440
757.3627 1161.4646 -9.6960
750.9711 1172.7056 5.6720
749.6747 1174.7802 6.1760
718.4267 1272.2442 6.1760
747.7521 1226.0147 -17.4720
755.0584 1157.5255 -6.8880
751.7007 1163.6402 3.8460
749.4319 1167.2706 4.7280
713.8579 1278.2276 4.7280
753.9610 1215.5051 -19.3280
752.9140 1154.8202 -4.2320
751.9109 1156.8994 2.1840
749.3180 1161.0485 3.1920
710.3420 1282.6165 3.1920
758.8752 1206.1660 -20.5560
751.1533 1153.5709 -1.8840
751.4085 1153.3854 0.8480
749.4638 1156.4972 1.6040
708.2618 1285.0082 1.6040
708.0000 1286.0000 0.0000
761.5190 1199.4270 -21.0000
746.0190 1226.2730 11.0000
746.0190 1226.2730 11.0000
746.0190 1226.2730 11.0000
709.9373 1283.0827 -1.8840
762.9672 1192.6882 -20.5560
745.8350 1222.1408 11.5920
747.7617 1219.0242 10.8360
743.1837 1233.4122 10.8360
713.8860 1277.3903 -4.2320
763.2570 1185.8251 -19.3280
746.3041 1214.8936 11.3760
748.8730 1210.7381 10.3680
739.1290 1241.3621 10.3680
719.3764 1269.4851 -6.8880
762.6061 1179.0671 -17.4720
747.2298 1205.4417 10.5140
749.4776 1201.8057 9.6320
734.2316 1249.7217 9.6320
725.9387 1259.9294 -9.6960
761.2323 1172.6441 -15.1440
748.4159 1194.6953 9.1680
749.7003 1192.6175 8.6640
728.8683 1258.0895 8.6640
733.1033 1249.2856 -12.5000
759.3533 1166.7856 -12.5000
749.6658 1183.5644 7.5000
749.6658 1183.5644 7.5000
723.4158 1266.0644 7.5000
740.4003 1238.1161 -15.1440
757.1867 1161.7214 -9.6960
750.7831 1172.9593 5.6720
749.4987 1175.0370 6.1760
718.2507 1273.2450 6.1760
747.3601 1226.9831 -17.4720
754.9504 1157.6811 -6.8880
751.5717 1163.7901 3.8460
749.3239 1167.4261 4.7280
713.7499 1279.2301 4.7280
753.5130 1216.4491 -19.3280
752.8620 1154.8943 -4.2320
751.8349 1156.9670 2.1840
749.2660 1161.1225 3.1920
710.2900 1283.6185 3.1920
758.3892 1207.0762 -20.5560
751.1393 1153.5907 -1.8840
751.3765 1153.4003 0.8480
749.4498 1156.5169 1.6040
708.2478 1286.0089 1.6040
708.0000 1286.0000 0.0000
761.5190 1199.4270 -21.0000
745.5190 1227.1390 11.0000
745.5190 1227.1390 11.0000
745.5190 1227.1390 11.0000
709.9575 1283.0431 -1.8840
762.9695 1192.7528 -20.5560
745.3468 1223.0549 11.5920
747.2735 1219.9383 10.8360
742.6955 1234.2173 10.8360
713.9180 1277.3188 -4.2320
763.2650 1185.9792 -19.3280
745.8481 1215.8514 11.3760
748.4170 1211.6959 10.3680
738.6730 1242.0879 10.3680
719.4131 1269.3899 -6.8880
762.6219 1179.3293 -17.4720
746.8221 1206.4375 10.5140
749.0699 1202.8014 9.6320
733.8239 1250.3544 9.6320
725.9747 1259.8190 -9.6960
761.2563 1173.0265 -15.1440
748.0679 1195.7220 9.1680
749.3523 1193.6442 8.6640
728.5203 1258.6202 8.6640
733.1345 1249.1690 -12.5000
759.3845 1167.2940 -12.5000
749.3845 1184.6140 7.5000
749.3845 1184.6140 7.5000
723.1345 1266.4890 7.5000
740.4243 1238.0025 -15.1440
757.2227 1162.3550 -9.6960
750.5711 1174.0224 5.6720
749.2867 1176.1002 6.1760
718.0387 1273.5642 6.1760
747.3759 1226.8823 -17.4720
754.9871 1158.4329 -6.8880
751.4269 1164.8563 3.8460
749.1791 1168.4924 4.7280
713.6051 1279.4494 4.7280
753.5210 1216.3712 -19.3280
752.8940 1155.7508 -4.2320
751.7509 1158.0245 2.1840
749.1820 1162.1800 3.1920
710.2060 1283.7480 3.1920
758.3915 1207.0318 -20.5560
751.1595 1154.5321 -1.8840
751.3422 1154.4361 0.8480
749.4155 1157.5527 1.6040
708.2135 1286.0637 1.6040
708.0000 1287.0000 0.0000
761.0190 1200.2930 -21.0000
745.0190 1228.0050 11.0000
745.0190 1228.0050 11.0000
745.0190 1228.0050 11.0000
709.9435 1284.0439 -1.8840
762.4835 1193.5541 -20.5560
744.8788 1223.8610 11.5920
746.7875 1220.7396 10.8360
742.2095 1235.1276 10.8360
713.8660 1278.3209 -4.2320
762.8170 1186.6911 -19.3280
745.4241 1216.5698 11.3760
747.9690 1212.4079 10.3680
738.2250 1243.0319 10.3680
719.3051 1270.3925 -6.8880
762.2299 1179.9348 -17.4720
746.4511 1207.0485 10.5140
748.6779 1203.4068 9.6320
733.4319 1251.3228 9.6320
725.7987 1260.8199 -9.6960
760.9323 1173.5157 -15.1440
747.7559 1196.2144 9.1680
749.0283 1194.1334 8.6640
728.1963 1259.6054 8.6640
732.8845 1250.1645 -12.5000
759.1345 1167.6645 -12.5000
749.1345 1184.9845 7.5000
749.1345 1184.9845 7.5000
722.8845 1267.4845 7.5000
740.1003 1238.9877 -15.1440
757.0467 1162.6119 -9.6960
750.3831 1174.2761 5.6720
749.1107 1176.3570 6.1760
717.8627 1274.5650 6.1760
746.9839 1227.8508 -17.4720
754.8791 1158.5885 -6.8880
751.2979 1165.0062 3.8460
749.0711 1168.6479 4.7280
713.4971 1280.4519 4.7280
753.0730 1217.3151 -19.3280
752.8420 1155.8249 -4.2320
751.6749 1158.0922 2.1840
749.1300 1162.2541 3.1920
710.1540 1284.7501 3.1920
757.9055 1207.9421 -20.5560
751.1455 1154.5519 -1.8840
751.3102 1154.4510 0.8480
749.4015 1157.5725 1.6040
708.1995 1287.0645 1.6040
708.0000 1288.0000 0.0000
760.5190 1201.1590 -21.0000
744.5190 1228.8710 11.0000
744.5190 1228.8710 11.0000
744.5190 1228.8710 11.0000
709.9295 1284.3921 -1.8840
761.9975 1204.2878 -20.5560
744.4108 1234.5996 11.5920
746.3015 1231.4733 10.8360
741.7235 1230.1653 10.8360
713.8140 1277.0030 -4.2320
762.3690 1211.7631 -19.3280
745.0001 1241.6482 11.3760
747.5210 1237.4798 10.3680
737.7770 1234.6958 10.3680
719.1971 1266.8275 -6.8880
761.8379 1222.5177 -17.4720
746.0801 1249.6371 10.5140
748.2859 1245.9898 9.6320
733.0399 1241.6338 9.6320
725.6227 1254.8607 -9.6960
760.6083 1235.4849 -15.1440
747.4439 1258.1868 9.1680
748.7043 1256.1026 8.6640
727.8723 1250.1506 8.6640
732.6345 1242.0975 -12.5000
758.8845 1249.5975 -12.5000
748.8845 1266.9175 7.5000
748.8845 1266.9175 7.5000
722.6345 1259.4175 7.5000
739.7763 1229.5329 -15.1440
756.8707 1263.7887 -9.6960
750.1951 1275.4497 5.6720
748.9347 1277.5339 6.1760
717.6867 1268.6059 6.1760
746.5919 1218.1617 -17.4720
754.7711 1276.9915 -6.8880
751.1689 1283.4036 3.8460
748.9631 1287.0510 4.7280
713.3891 1276.8870 4.7280
752.6250 1208.9791 -19.3280
752.7900 1288.1390 -4.2320
751.5989 1290.3998 2.1840
749.0780 1294.5682 3.1920
710.1020 1283.4322 3.1920
757.4195 1202.9798 -20.5560
751.1315 1296.1641 -1.8840
751.2782 1296.0584 0.8480
749.3875 1299.1847 1.6040
708.1855 1287.4127 1.6040
708.0000 1288.0000 0.0000
760.0190 1202.0250 -21.0000
744.0190 1229.7380 11.0000
744.0190 1229.7380 11.0000
744.0190 1229.7380 11.0000
709.9155 1284.4118 -1.8840
761.5115 1205.1981 -20.5560
743.9428 1235.4796 11.5920
745.8155 1232.3845 10.8360
741.2375 1230.9675 10.8360
713.7620 1277.0770 -4.2320
761.9210 1212.7070 -19.3280
744.5761 1242.5515 11.3760
747.0730 1238.4247 10.3680
737.3290 1235.4087 10.3680
719.0891 1266.9830 -6.8880
761.4459 1223.4861 -17.4720
745.7091 1250.5700 10.5140
747.8939 1246.9591 9.6320
732.6479 1242.2401 9.6320
725.4467 1255.1175 -9.6960
760.2843 1236.4700 -15.1440
747.1319 1259.1518 9.1680
748.3803 1257.0884 8.6640
727.5483 1250.6404 8.6640
732.3845 1242.4679 -12.5000
758.6345 1250.5929 -12.5000
748.6345 1267.9136 7.5000
748.6345 1267.9136 7.5000
722.3845 1259.7886 7.5000
739.4523 1230.0220 -15.1440
756.6947 1264.7895 -9.6960
750.0071 1276.4717 5.6720
748.7587 1278.5351 6.1760
717.5107 1268.8631 6.1760
746.1999 1218.7671 -17.4720
754.6631 1277.9940 -6.8880
751.0399 1284.4429 3.8460
748.8551 1288.0538 4.7280
713.2811 1277.0428 4.7280
752.1770 1209.6910 -19.3280
752.7380 1289.1410 -4.2320
751.5229 1291.4436 2.1840
749.0260 1295.5704 3.1920
710.0500 1283.5064 3.1920
756.9335 1203.7811 -20.5560
751.1175 1297.1648 -1.8840
751.2462 1297.0904 0.8480
749.3735 1300.1855 1.6040
708.1715 1287.4325 1.6040
708.0000 1289.0000 0.0000
760.0190 1202.0250 -21.0000
743.5190 1230.6040 11.0000
743.5190 1230.6040 11.0000
743.5190 1230.6040 11.0000
709.9358 1285.3533 -1.8840
761.5137 1205.1537 -20.5560
743.4545 1236.3208 11.5920
745.3272 1233.1897 10.8360
740.7492 1231.8817 10.8360
713.7940 1277.9335 -4.2320
761.9290 1212.6291 -19.3280
744.1201 1243.3252 11.3760
746.6170 1239.1504 10.3680
736.8730 1236.3664 10.3680
719.1259 1267.7348 -6.8880
761.4616 1223.3854 -17.4720
745.3013 1251.2447 10.5140
747.4861 1247.5918 9.6320
732.2401 1243.2358 9.6320
725.4827 1255.7511 -9.6960
760.3083 1236.3564 -15.1440
746.7839 1259.7066 9.1680
748.0323 1257.6192 8.6640
727.2003 1251.6672 8.6640
732.4158 1242.9763 -12.5000
758.6658 1250.4763 -12.5000
748.3533 1268.3382 7.5000
748.3533 1268.3382 7.5000
722.1033 1260.8382 7.5000
739.4763 1230.4044 -15.1440
756.7307 1264.6791 -9.6960
749.7951 1276.7669 5.6720
748.5467 1278.8543 6.1760
717.2987 1269.9263 6.1760
746.2156 1219.0294 -17.4720
754.6999 1277.8988 -6.8880
750.8952 1284.6201 3.8460
748.7104 1288.2730 4.7280
713.1364 1278.1090 4.7280
752.1850 1209.8451 -19.3280
752.7700 1289.0695 -4.2320
751.4389 1291.5251 2.1840
748.9420 1295.6999 3.1920
709.9660 1284.5639 3.1920
756.9357 1203.8457 -20.5560
751.1378 1297.1253 -1.8840
751.2120 1297.1093 0.8480
749.3393 1300.2404 1.6040
708.1373 1288.4684 1.6040
708.0000 1289.0000 0.0000
759.5190 1202.8910 -21.0000
730.5190 1253.1200 11.0000
730.5190 1253.1200 11.0000
730.5190 1253.1200 11.0000
710.4280 1284.4962 -1.8840
761.0840 1205.9665 -20.5560
730.7803 1258.3411 11.5920
732.6350 1255.2412 10.8360
728.0570 1253.8242 10.8360
714.5420 1276.6220 -4.2320
761.6810 1213.2267 -19.3280
732.2961 1263.9724 11.3760
734.7690 1259.8392 10.3680
725.0250 1256.8232 10.3680
719.9366 1266.2991 -6.8880
761.4634 1223.6718 -17.4720
734.7366 1269.8324 10.5140
736.9004 1266.2158 9.6320
721.6544 1261.4968 9.6320
726.2067 1254.4491 -9.6960
760.5843 1236.3024 -15.1440
737.7719 1275.7394 9.1680
739.0083 1273.6728 8.6640
718.1763 1267.2248 8.6640
732.9470 1241.9937 -12.5000
759.1970 1250.1187 -12.5000
741.0720 1281.5118 7.5000
741.0720 1281.5118 7.5000
714.8220 1273.3868 7.5000
739.7523 1229.8544 -15.1440
757.4547 1264.1211 -9.6960
744.3071 1286.9681 5.6720
743.0707 1289.0347 6.1760
711.8227 1279.3627 6.1760
746.2174 1218.9528 -17.4720
755.5106 1277.3101 -6.8880
747.1474 1291.9267 3.8460
744.9836 1295.5433 4.7280
709.4096 1284.5323 4.7280
751.9370 1210.2107 -19.3280
753.5180 1288.6860 -4.2320
749.2629 1296.2059 2.1840
746.7900 1300.3391 3.1920
707.8140 1288.2751 3.1920
756.5060 1204.5495 -20.5560
751.6300 1297.2492 -1.8840
750.3237 1299.6242 0.8480
748.4690 1302.7241 1.6040
707.2670 1289.9711 1.6040
708.0000 1290.0000 0.0000
759.0190 1203.7570 -21.0000
730.0190 1253.9860 11.0000
730.0190 1253.9860 11.0000
730.0190 1253.9860 11.0000
710.4140 1285.4969 -1.8840
760.5980 1206.7678 -20.5560
730.3123 1259.1472 11.5920
732.1490 1256.0424 10.8360
727.5710 1254.7344 10.8360
714.4900 1277.6241 -4.2320
761.2330 1213.9386 -19.3280
731.8721 1264.6908 11.3760
734.3210 1260.5511 10.3680
724.5770 1257.7671 10.3680
719.8286 1267.3017 -6.8880
761.0714 1224.2773 -17.4720
734.3656 1270.4434 10.5140
736.5084 1266.8212 9.6320
721.2624 1262.4652 9.6320
726.0307 1255.4500 -9.6960
760.2603 1236.7915 -15.1440
737.4599 1276.2318 9.1680
738.6843 1274.1619 8.6640
717.8523 1268.2099 8.6640
732.6970 1242.9892 -12.5000
758.9470 1250.4892 -12.5000
740.8220 1281.8823 7.5000
740.8220 1281.8823 7.5000
714.5720 1274.3823 7.5000
739.4283 1230.8395 -15.1440
757.2787 1264.3780 -9.6960
744.1191 1287.2217 5.6720
742.8947 1289.2916 6.1760
711.6467 1280.3636 6.1760
745.8254 1219.9213 -17.4720
755.4026 1277.4657 -6.8880
747.0184 1292.0766 3.8460
744.8756 1295.6988 4.7280
709.3016 1285.5348 4.7280
751.4890 1211.1546 -19.3280
753.4660 1288.7601 -4.2320
749.1869 1296.2735 2.1840
746.7380 1300.4132 3.1920
707.7620 1289.2772 3.1920
756.0200 1205.4598 -20.5560
751.6160 1297.2689 -1.8840
750.2917 1299.6391 0.8480
748.4550 1302.7439 1.6040
707.2530 1290.9719 1.6040
708.0000 1290.0000 0.0000
758.5190 1204.6230 -21.0000
729.5190 1254.8520 11.0000
729.5190 1254.8520 11.0000
729.5190 1254.8520 11.0000
710.3955 1286.1917 -1.8840
760.1805 1197.4030 -20.5560
729.9128 1249.7512 11.5920
731.7315 1246.6777 10.8360
727.0445 1261.6107 10.8360
714.4220 1280.0981 -4.2320
760.9530 1189.6825 -19.3280
731.6161 1240.3932 11.3760
734.0410 1236.2951 10.3680
724.0650 1268.0791 10.3680
719.6891 1272.1822 -6.8880
760.9689 1181.8207 -17.4720
734.2841 1227.9505 10.5140
736.4059 1224.3647 9.6320
720.7969 1274.0957 9.6320
725.8067 1262.9068 -9.6960
760.3603 1174.1767 -15.1440
737.5719 1213.5961 9.1680
738.7843 1211.5471 8.6640
717.4563 1279.4991 8.6640
732.3845 1252.7347 -12.5000
759.2595 1167.1097 -12.5000
741.1345 1198.5028 7.5000
741.1345 1198.5028 7.5000
714.2595 1284.1278 7.5000
739.0323 1242.1287 -15.1440
757.7987 1160.9788 -9.6960
744.6271 1183.8433 5.6720
743.4147 1185.8924 6.1760
711.4227 1287.8204 6.1760
745.3599 1231.5517 -17.4720
756.1101 1156.1432 -6.8880
747.7049 1170.7905 3.8460
745.5831 1174.3764 4.7280
709.1621 1290.4154 4.7280
750.9770 1221.4665 -19.3280
754.3260 1152.9621 -4.2320
750.0229 1160.5172 2.1840
747.5980 1164.6153 3.1920
707.6940 1291.7513 3.1920
755.4935 1212.3360 -20.5560
752.5785 1151.7947 -1.8840
751.2362 1154.1961 0.8480
749.4175 1157.2696 1.6040
707.2345 1291.6666 1.6040
708.0000 1291.0000 0.0000
758.5190 1204.6230 -21.0000
729.0190 1255.7180 11.0000
729.0190 1255.7180 11.0000
729.0190 1255.7180 11.0000
710.4158 1287.1331 -1.8840
760.1827 1197.3586 -20.5560
729.4245 1250.5924 11.5920
731.2432 1247.4828 10.8360
726.5562 1262.5248 10.8360
714.4540 1280.9547 -4.2320
760.9610 1189.6047 -19.3280
731.1601 1241.1669 11.3760
733.5850 1237.0208 10.3680
723.6090 1269.0368 10.3680
719.7259 1272.9341 -6.8880
760.9846 1181.7199 -17.4720
733.8763 1228.6252 10.5140
735.9981 1224.9974 9.6320
720.3891 1275.0914 9.6320
725.8427 1263.5405 -9.6960
760.3843 1174.0631 -15.1440
737.2239 1214.1509 9.1680
738.4363 1212.0778 8.6640
717.1083 1280.5258 8.6640
732.4158 1253.2431 -12.5000
759.2908 1166.9931 -12.5000
740.8533 1198.9274 7.5000
740.8533 1198.9274 7.5000
713.9783 1285.1774 7.5000
739.0563 1242.5111 -15.1440
757.8347 1160.8685 -9.6960
744.4151 1184.1385 5.6720
743.2027 1186.2116 6.1760
711.2107 1288.8836 6.1760
745.3756 1231.8139 -17.4720
756.1469 1156.0481 -6.8880
747.5602 1170.9677 3.8460
745.4384 1174.5956 4.7280
709.0174 1291.4816 4.7280
750.9850 1221.6207 -19.3280
754.3580 1152.8907 -4.2320
749.9389 1160.5987 2.1840
747.5140 1164.7448 3.1920
707.6100 1292.8088 3.1920
755.4957 1212.4006 -20.5560
752.5988 1151.7551 -1.8840
751.2020 1154.2149 0.8480
749.3833 1157.3245 1.6040
707.2003 1292.7025 1.6040
708.0000 1291.0000 0.0000
758.0190 1205.4890 -21.0000
728.5190 1256.5840 11.0000
728.5190 1256.5840 11.0000
728.5190 1256.5840 11.0000
710.4018 1287.1528 -1.8840
759.6967 1198.2689 -20.5560
728.9565 1251.4715 11.5920
730.7572 1248.3931 10.8360
726.0702 1263.3261 10.8360
714.4020 1281.0288 -4.2320
760.5130 1190.5486 -19.3280
730.7361 1242.0693 11.3760
733.1370 1237.9648 10.3680
723.1610 1269.7488 10.3680
719.6179 1273.0896 -6.8880
760.5926 1182.6884 -17.4720
733.5053 1229.5573 10.5140
735.6061 1225.9658 9.6320
719.9971 1275.6968 9.6320
725.6667 1263.7973 -9.6960
760.0603 1175.0483 -15.1440
736.9119 1215.1153 9.1680
738.1123 1213.0630 8.6640
716.7843 1281.0150 8.6640
732.1658 1253.6136 -12.5000
759.0408 1167.9886 -12.5000
740.6033 1199.9229 7.5000
740.6033 1199.9229 7.5000
713.7283 1285.5479 7.5000
738.7323 1243.0003 -15.1440
757.6587 1161.8693 -9.6960
744.2271 1185.1601 5.6720
743.0267 1187.2124 6.1760
711.0347 1289.1404 6.1760
744.9836 1232.4194 -17.4720
756.0389 1157.0506 -6.8880
747.4312 1172.0067 3.8460
745.3304 1175.5981 4.7280
708.9094 1291.6371 4.7280
750.5370 1222.3326 -19.3280
754.3060 1153.8928 -4.2320
749.8629 1161.6423 2.1840
747.4620 1165.7468 3.1920
707.5580 1292.8828 3.1920
755.0097 1213.2019 -20.5560
752.5848 1152.7558 -1.8840
751.1700 1155.2468 0.8480
749.3693 1158.3252 1.6040
707.1863 1292.7222 1.6040
708.0000 1292.0000 0.0000
757.5190 1206.3550 -21.0000
728.0190 1257.4500 11.0000
728.0190 1257.4500 11.0000
728.0190 1257.4500 11.0000
710.3878 1288.1536 -1.8840
759.2107 1199.0701 -20.5560
728.4885 1252.2775 11.5920
730.2712 1249.1943 10.8360
725.5842 1264.2363 10.8360
714.3500 1282.0308 -4.2320
760.0650 1191.2606 -19.3280
730.3121 1242.7877 11.3760
732.6890 1238.6767 10.3680
722.7130 1270.6927 10.3680
719.5099 1274.0922 -6.8880
760.2006 1183.2938 -17.4720
733.1343 1230.1684 10.5140
735.2141 1226.5713 9.6320
719.6051 1276.6653 9.6320
725.4907 1264.7981 -9.6960
759.7363 1175.5375 -15.1440
736.5999 1215.6076 9.1680
737.7883 1213.5522 8.6640
716.4603 1282.0002 8.6640
731.9158 1254.6091 -12.5000
758.7908 1168.3591 -12.5000
740.3533 1200.2934 7.5000
740.3533 1200.2934 7.5000
713.4783 1286.5434 7.5000
738.4083 1243.9855 -15.1440
757.4827 1162.1261 -9.6960
744.0391 1185.4138 5.6720
742.8507 1187.4692 6.1760
710.8587 1290.1412 6.1760
744.5916 1233.3878 -17.4720
755.9309 1157.2062 -6.8880
747.3022 1172.1566 3.8460
745.2224 1175.7537 4.7280
708.8014 1292.6397 4.7280
750.0890 1223.2766 -19.3280
754.2540 1153.9668 -4.2320
749.7869 1161.7099 2.1840
747.4100 1165.8209 3.1920
707.5060 1293.8849 3.1920
754.5237 1214.1121 -20.5560
752.5708 1152.7756 -1.8840
751.1380 1155.2617 0.8480
749.3553 1158.3449 1.6040
707.1723 1293.7229 1.6040
708.0000 1292.0000 0.0000
757.0190 1207.2210 -21.0000
727.5190 1258.3160 11.0000
727.5190 1258.3160 11.0000
727.5190 1258.3160 11.0000
710.3738 1287.5298 -1.8840
758.7247 1209.7759 -20.5560
728.0205 1262.9521 11.5920
729.7852 1259.9001 10.8360
725.0982 1259.2461 10.8360
714.2980 1279.8169 -4.2320
759.6170 1216.2285 -19.3280
729.8881 1267.7140 11.3760
732.2410 1263.6447 10.3680
722.2650 1262.2527 10.3680
719.4019 1269.7433 -6.8880
759.8086 1225.6608 -17.4720
732.7633 1272.4990 10.5140
734.8221 1268.9382 9.6320
719.2131 1266.7602 9.6320
725.3147 1258.1910 -9.6960
759.4123 1237.1546 -15.1440
736.2879 1277.2040 9.1680
737.4643 1275.1693 8.6640
716.1363 1272.1933 8.6640
731.6658 1246.0421 -12.5000
758.5408 1249.7921 -12.5000
740.1033 1281.7264 7.5000
740.1033 1281.7264 7.5000
713.2283 1277.9764 7.5000
738.0843 1234.1786 -15.1440
757.3067 1262.6550 -9.6960
743.8511 1285.9634 5.6720
742.6747 1287.9981 6.1760
710.6827 1283.5341 6.1760
744.1996 1223.4828 -17.4720
755.8229 1274.8253 -6.8880
747.1732 1289.8120 3.8460
745.1144 1293.3727 4.7280
708.6934 1288.2907 4.7280
749.6410 1214.8365 -19.3280
754.2020 1285.3849 -4.2320
749.7109 1293.1696 2.1840
747.3580 1297.2389 3.1920
707.4540 1291.6709 3.1920
754.0377 1209.1219 -20.5560
752.5568 1293.4158 -1.8840
751.1060 1295.9332 0.8480
749.3413 1298.9852 1.6040
707.1583 1293.0992 1.6040
708.0000 1293.0000 0.0000
757.0190 1207.2210 -21.0000
727.0190 1259.1820 11.0000
727.0190 1259.1820 11.0000
727.0190 1259.1820 11.0000
710.3940 1288.4713 -1.8840
758.7270 1209.7315 -20.5560
727.5323 1263.7933 11.5920
729.2970 1260.7052 10.8360
724.6100 1260.1602 10.8360
714.3300 1280.6735 -4.2320
759.6250 1216.1506 -19.3280
729.4321 1268.4878 11.3760
731.7850 1264.3704 10.3680
721.8090 1263.2104 10.3680
719.4386 1270.4951 -6.8880
759.8244 1225.5600 -17.4720
732.3556 1273.1737 10.5140
734.4144 1269.5710 9.6320
718.8054 1267.7560 9.6320
725.3507 1258.8246 -9.6960
759.4363 1237.0411 -15.1440
735.9399 1277.7588 9.1680
737.1163 1275.7001 8.6640
715.7883 1273.2201 8.6640
731.6970 1246.5504 -12.5000
758.5720 1249.6754 -12.5000
739.8220 1282.1511 7.5000
739.8220 1282.1511 7.5000
712.9470 1279.0261 7.5000
738.1083 1234.5611 -15.1440
757.3427 1262.5446 -9.6960
743.6391 1286.2586 5.6720
742.4627 1288.3173 6.1760
710.4707 1284.5973 6.1760
744.2154 1223.7450 -17.4720
755.8596 1274.7301 -6.8880
747.0284 1289.9892 3.8460
744.9696 1293.5919 4.7280
708.5486 1289.3569 4.7280
749.6490 1214.9906 -19.3280
754.2340 1285.3135 -4.2320
749.6269 1293.2510 2.1840
747.2740 1297.3684 3.1920
707.3700 1292.7284 3.1920
754.0400 1209.1865 -20.5560
752.5770 1293.3763 -1.8840
751.0717 1295.9520 0.8480
749.3070 1299.0400 1.6040
707.1240 1294.1350 1.6040
708.0000 1293.0000 0.0000
756.5190 1208.0870 -21.0000
726.5190 1260.0480 11.0000
726.5190 1260.0480 11.0000
726.5190 1260.0480 11.0000
710.3800 1288.4910 -1.8840
758.2410 1210.6417 -20.5560
727.0643 1264.6723 11.5920
728.8110 1261.6155 10.8360
724.1240 1260.9615 10.8360
714.2780 1280.7475 -4.2320
759.1770 1217.0946 -19.3280
729.0081 1269.3902 11.3760
731.3370 1265.3144 10.3680
721.3610 1263.9224 10.3680
719.3306 1270.6507 -6.8880
759.4324 1226.5284 -17.4720
731.9846 1274.1057 10.5140
734.0224 1270.5394 9.6320
718.4134 1268.3614 9.6320
725.1747 1259.0814 -9.6960
759.1123 1238.0262 -15.1440
735.6279 1278.7231 9.1680
736.7923 1276.6852 8.6640
715.4643 1273.7092 8.6640
731.4470 1246.9209 -12.5000
758.3220 1250.6709 -12.5000
739.5720 1283.1466 7.5000
739.5720 1283.1466 7.5000
712.6970 1279.3966 7.5000
737.7843 1235.0502 -15.1440
757.1667 1263.5454 -9.6960
743.4511 1287.2802 5.6720
742.2867 1289.3181 6.1760
710.2947 1284.8541 6.1760
743.8234 1224.3504 -17.4720
755.7516 1275.7327 -6.8880
746.8994 1291.0282 3.8460
744.8616 1294.5945 4.7280
708.4406 1289.5125 4.7280
749.2010 1215.7026 -19.3280
754.1820 1286.3155 -4.2320
749.5509 1294.2947 2.1840
747.2220 1298.3705 3.1920
707.3180 1292.8025 3.1920
753.5540 1209.9877 -20.5560
752.5630 1294.3770 -1.8840
751.0397 1296.9839 0.8480
749.2930 1300.0408 1.6040
707.1100 1294.1548 1.6040
708.0000 1294.0000 0.0000
756.0190 1208.9530 -21.0000
726.0190 1260.9140 11.0000
726.0190 1260.9140 11.0000
726.0190 1260.9140 11.0000
710.3660 1289.4873 -1.8840
757.7550 1211.5115 -20.5560
726.5963 1265.5469 11.5920
728.3250 1262.4852 10.8360
723.6380 1261.8312 10.8360
714.2260 1281.7336 -4.2320
758.7290 1217.9745 -19.3280
728.5841 1270.2766 11.3760
730.8890 1266.1943 10.3680
720.9130 1264.8023 10.3680
719.2226 1271.6217 -6.8880
759.0404 1227.4234 -17.4720
731.6136 1275.0063 10.5140
733.6304 1271.4343 9.6320
718.0214 1269.2563 9.6320
724.9987 1260.0343 -9.6960
758.7883 1238.9394 -15.1440
735.3159 1279.6395 9.1680
736.4683 1277.5984 8.6640
715.1403 1274.6224 8.6640
731.1970 1247.8539 -12.5000
758.0720 1251.6039 -12.5000
739.3220 1284.0796 7.5000
739.3220 1284.0796 7.5000
712.4470 1280.3296 7.5000
737.4603 1235.9634 -15.1440
756.9907 1264.4983 -9.6960
743.2631 1288.2298 5.6720
742.1107 1290.2709 6.1760
710.1187 1285.8069 6.1760
743.4314 1225.2454 -17.4720
755.6436 1276.7037 -6.8880
746.7704 1291.9936 3.8460
744.7536 1295.5656 4.7280
708.3326 1290.4836 4.7280
748.7530 1216.5825 -19.3280
754.1300 1287.3016 -4.2320
749.4749 1295.2743 2.1840
747.1700 1299.3566 3.1920
707.2660 1293.7886 3.1920
753.0680 1210.8575 -20.5560
752.5490 1295.3733 -1.8840
751.0077 1297.9753 0.8480
749.2790 1301.0370 1.6040
707.0960 1295.1510 1.6040
708.0000 1294.0000 0.0000
756.0190 1208.9530 -21.0000
725.5190 1261.7800 11.0000
725.5190 1261.7800 11.0000
725.5190 1261.7800 11.0000
710.3863 1289.4522 -1.8840
757.7572 1211.5076 -20.5560
726.1080 1266.3926 11.5920
727.8367 1263.3309 10.8360
723.1497 1262.6769 10.8360
714.2580 1281.6782 -4.2320
758.7370 1217.9607 -19.3280
728.1281 1271.0664 11.3760
730.4330 1266.9841 10.3680
720.4570 1265.5921 10.3680
719.2594 1271.5581 -6.8880
759.0561 1227.3961 -17.4720
731.2058 1275.7125 10.5140
733.2226 1272.1406 9.6320
717.6136 1269.9626 9.6320
725.0347 1259.9719 -9.6960
758.8123 1238.8978 -15.1440
734.9679 1280.2423 9.1680
736.1203 1278.2011 8.6640
714.7923 1275.2251 8.6640
731.2283 1247.7998 -12.5000
758.1033 1251.5498 -12.5000
739.0408 1284.5667 7.5000
739.0408 1284.5667 7.5000
712.1658 1280.8167 7.5000
737.4843 1235.9218 -15.1440
757.0267 1264.4359 -9.6960
743.0511 1288.5970 5.6720
741.8987 1290.6381 6.1760
709.9067 1286.1741 6.1760
743.4471 1225.2181 -17.4720
755.6804 1276.6401 -6.8880
746.6257 1292.2443 3.8460
744.6089 1295.8163 4.7280
708.1879 1290.7343 4.7280
748.7610 1216.5687 -19.3280
754.1620 1287.2462 -4.2320
749.3909 1295.4198 2.1840
747.0860 1299.5020 3.1920
707.1820 1293.9340 3.1920
753.0702 1210.8536 -20.5560
752.5693 1295.3382 -1.8840
750.9735 1298.0346 0.8480
749.2448 1301.0963 1.6040
707.0618 1295.2103 1.6040
708.0000 1295.0000 0.0000
755.0190 1210.6850 -21.0000
725.0190 1262.6460 11.0000
725.0190 1262.6460 11.0000
725.0190 1262.6460 11.0000
710.3380 1290.5078 -1.8840
756.7830 1213.2230 -20.5560
725.6603 1267.2321 11.5920
727.3530 1264.1967 10.8360
722.6660 1263.5427 10.8360
714.1220 1282.8097 -4.2320
757.8330 1219.6304 -19.3280
727.7361 1271.8973 11.3760
729.9930 1267.8502 10.3680
720.0170 1266.4582 10.3680
719.0066 1272.7798 -6.8880
758.2564 1228.9973 -17.4720
730.8716 1276.5495 10.5140
732.8464 1273.0082 9.6320
717.2374 1270.8302 9.6320
724.6467 1261.2919 -9.6960
758.1403 1240.4138 -15.1440
734.6919 1281.0963 9.1680
735.8203 1279.0727 8.6640
714.4923 1276.0967 8.6640
730.6970 1249.2199 -12.5000
757.5720 1252.9699 -12.5000
738.8220 1285.4456 7.5000
738.8220 1285.4456 7.5000
711.9470 1281.6956 7.5000
736.8123 1237.4378 -15.1440
756.6387 1265.7559 -9.6960
742.8871 1289.5050 5.6720
741.7587 1291.5286 6.1760
709.7667 1287.0646 6.1760
742.6474 1226.8193 -17.4720
755.4276 1277.8618 -6.8880
746.5124 1293.1824 3.8460
744.5376 1296.7237 4.7280
708.1166 1291.6417 4.7280
747.8570 1218.2384 -19.3280
754.0260 1288.3777 -4.2320
749.3229 1296.3856 2.1840
747.0660 1300.4327 3.1920
707.1620 1294.8647 3.1920
752.0960 1212.5690 -20.5560
752.5210 1296.3938 -1.8840
750.9437 1299.0222 0.8480
749.2510 1302.0575 1.6040
707.0680 1296.1715 1.6040
708.0000 1295.0000 0.0000
754.5190 1211.5510 -21.0000
724.5190 1263.5120 11.0000
724.5190 1263.5120 11.0000
724.5190 1263.5120 11.0000
710.3240 1290.5320 -1.8840
756.2970 1214.0647 -20.5560
725.1923 1268.0427 11.5920
726.8670 1265.0385 10.8360
722.1800 1264.3845 10.8360
714.0700 1282.8998 -4.2320
757.3850 1220.4063 -19.3280
727.3121 1272.6317 11.3760
729.5450 1268.6261 10.3680
719.5690 1267.2341 10.3680
718.8986 1272.9669 -6.8880
757.8644 1229.6762 -17.4720
730.5006 1277.1920 10.5140
732.4544 1273.6872 9.6320
716.8454 1271.5092 9.6320
724.4707 1261.5968 -9.6960
757.8163 1240.9749 -15.1440
734.3799 1281.6367 9.1680
735.4963 1279.6339 8.6640
714.1683 1276.6579 8.6640
730.4470 1249.6529 -12.5000
757.3220 1253.4029 -12.5000
738.5720 1285.8786 7.5000
738.5720 1285.8786 7.5000
711.6970 1282.1286 7.5000
736.4883 1237.9989 -15.1440
756.4627 1266.0608 -9.6960
742.6991 1289.8306 5.6720
741.5827 1291.8334 6.1760
709.5907 1287.3694 6.1760
742.2554 1227.4982 -17.4720
755.3196 1278.0489 -6.8880
746.3834 1293.4059 3.8460
744.4296 1296.9107 4.7280
708.0086 1291.8287 4.7280
747.4090 1219.0143 -19.3280
753.9740 1288.4678 -4.2320
749.2469 1296.5172 2.1840
747.0140 1300.5228 3.1920
707.1100 1294.9548 3.1920
751.6100 1213.4107 -20.5560
752.5070 1296.4180 -1.8840
750.9117 1299.0776 0.8480
749.2370 1302.0818 1.6040
707.0540 1296.1958 1.6040
708.0000 1296.0000 0.0000
754.0190 1212.4170 -21.0000
724.0190 1264.3790 11.0000
724.0190 1264.3790 11.0000
724.0190 1264.3790 11.0000
710.3055 1292.1987 -1.8840
755.8795 1204.7280 -20.5560
724.7928 1258.7117 11.5920
726.4495 1255.7027 10.8360
721.6535 1271.2897 10.8360
714.0020 1286.2698 -4.2320
757.1050 1196.2542 -19.3280
727.0561 1248.4870 11.3760
729.2650 1244.4750 10.3680
719.0570 1277.6510 10.3680
718.7591 1278.6314 -6.8880
757.7619 1187.4356 -17.4720
730.4191 1234.9579 10.5140
732.3519 1231.4474 9.6320
716.3799 1283.3564 9.6320
724.2467 1269.7015 -9.6960
757.9163 1178.7120 -15.1440
734.4919 1219.3778 9.1680
735.5963 1217.3718 8.6640
713.7723 1288.2998 8.6640
730.1345 1259.8984 -12.5000
757.6345 1170.5234 -12.5000
738.8845 1202.9996 7.5000
738.8845 1202.9996 7.5000
711.3845 1292.3746 7.5000
736.0923 1249.6400 -15.1440
756.9827 1163.3095 -9.6960
743.2071 1187.0767 5.6720
742.1027 1189.0827 6.1760
709.3667 1295.4747 6.1760
741.7899 1239.3446 -17.4720
756.0271 1157.5104 -6.8880
747.0699 1172.8621 3.8460
745.1371 1176.3726 4.7280
707.8691 1297.4936 4.7280
746.8970 1229.4302 -19.3280
754.8340 1153.5658 -4.2320
750.0829 1161.6090 2.1840
747.8740 1165.6210 3.1920
707.0420 1298.3250 3.1920
751.0835 1220.3150 -20.5560
753.4695 1151.9157 -1.8840
751.8562 1154.5706 0.8480
750.1995 1157.5796 1.6040
707.0355 1297.8626 1.6040
708.0000 1296.0000 0.0000
754.0190 1212.4170 -21.0000
723.5190 1265.2450 11.0000
723.5190 1265.2450 11.0000
723.5190 1265.2450 11.0000
710.3258 1292.1636 -1.8840
755.8817 1204.7241 -20.5560
724.3045 1259.5574 11.5920
725.9612 1256.5484 10.8360
721.1652 1272.1354 10.8360
714.0340 1286.2144 -4.2320
757.1130 1196.2404 -19.3280
726.6001 1249.2768 11.3760
728.8090 1245.2648 10.3680
718.6010 1278.4408 10.3680
718.7959 1278.5677 -6.8880
757.7776 1187.4083 -17.4720
730.0113 1235.6641 10.5140
731.9441 1232.1537 9.6320
715.9721 1284.0627 9.6320
724.2827 1269.6392 -9.6960
757.9403 1178.6705 -15.1440
734.1439 1219.9805 9.1680
735.2483 1217.9745 8.6640
713.4243 1288.9025 8.6640
730.1658 1259.8443 -12.5000
757.6658 1170.4692 -12.5000
738.6033 1203.4868 7.5000
738.6033 1203.4867 7.5000
711.1033 1292.8617 7.5000
736.1163 1249.5985 -15.1440
757.0187 1163.2472 -9.6960
742.9951 1187.4439 5.6720
741.8907 1189.4499 6.1760
709.1547 1295.8419 6.1760
741.8056 1239.3173 -17.4720
756.0639 1157.4467 -6.8880
746.9252 1173.1128 3.8460
744.9924 1176.6233 4.7280
707.7244 1297.7443 4.7280
746.9050 1229.4164 -19.3280
754.8660 1153.5104 -4.2320
749.9989 1161.7545 2.1840
747.7900 1165.7665 3.1920
706.9580 1298.4705 3.1920
751.0857 1220.3111 -20.5560
753.4898 1151.8806 -1.8840
751.8220 1154.6299 0.8480
750.1653 1157.6389 1.6040
707.0013 1297.9219 1.6040
708.0000 1297.0000 0.0000
753.5190 1213.2830 -21.0000
723.0190 1266.1110 11.0000
723.0190 1266.1110 11.0000
723.0190 1266.1110 11.0000
710.3118 1292.5164 -1.8840
755.3957 1215.3893 -20.5560
723.8365 1270.2274 11.5920
725.4752 1267.2136 10.8360
720.6792 1267.2136 10.8360
713.9820 1284.9124 -4.2320
756.6650 1221.1443 -19.3280
726.1761 1274.1871 11.3760
728.3610 1270.1687 10.3680
718.1530 1270.1687 10.3680
718.6879 1275.0343 -6.8880
757.3856 1229.7018 -17.4720
729.6403 1277.9632 10.5140
731.5521 1274.4471 9.6320
715.5801 1274.4471 9.6320
724.1067 1263.7280 -9.6960
757.6163 1240.2156 -15.1440
733.8319 1281.5289 9.1680
734.9243 1279.5197 8.6640
713.1003 1279.5197 8.6640
729.9158 1251.8397 -12.5000
757.4158 1251.8397 -12.5000
738.3533 1284.8573 7.5000
738.3533 1284.8573 7.5000
710.8533 1284.8573 7.5000
735.7923 1240.2156 -15.1440
756.8427 1263.7280 -9.6960
742.8071 1287.9215 5.6720
741.7147 1289.9307 6.1760
708.9787 1289.9307 6.1760
741.4136 1229.7018 -17.4720
755.9559 1275.0343 -6.8880
746.7962 1290.6947 3.8460
744.8844 1294.2108 4.7280
707.6164 1294.2108 4.7280
746.4570 1221.1443 -19.3280
754.8140 1284.9124 -4.2320
749.9229 1293.1501 2.1840
747.7380 1297.1685 3.1920
706.9060 1297.1685 3.1920
750.5997 1215.3893 -20.5560
753.4758 1292.5164 -1.8840
751.7900 1295.2608 0.8480
750.1513 1298.2746 1.6040
706.9873 1298.2746 1.6040
708.0000 1297.0000 0.0000
753.0190 1214.1490 -21.0000
722.5190 1266.9770 11.0000
722.5190 1266.9770 11.0000
722.5190 1266.9770 11.0000
710.2978 1292.5406 -1.8840
754.9097 1216.2311 -20.5560
723.3685 1271.0380 11.5920
724.9892 1268.0554 10.8360
720.1932 1268.0554 10.8360
713.9300 1285.0025 -4.2320
756.2170 1221.9203 -19.3280
725.7521 1274.9215 11.3760
727.9130 1270.9446 10.3680
717.7050 1270.9446 10.3680
718.5799 1275.2213 -6.8880
756.9936 1230.3807 -17.4720
729.2693 1278.6058 10.5140
731.1601 1275.1260 9.6320
715.1881 1275.1260 9.6320
723.9307 1264.0328 -9.6960
757.2923 1240.7768 -15.1440
733.5199 1282.0693 9.1680
734.6003 1280.0808 8.6640
712.7763 1280.0808 8.6640
729.6658 1252.2727 -12.5000
757.1658 1252.2728 -12.5000
738.1033 1285.2903 7.5000
738.1033 1285.2903 7.5000
710.6033 1285.2903 7.5000
735.4683 1240.7768 -15.1440
756.6667 1264.0328 -9.6960
742.6191 1288.2471 5.6720
741.5387 1290.2355 6.1760
708.8027 1290.2355 6.1760
741.0216 1230.3807 -17.4720
755.8479 1275.2213 -6.8880
746.6672 1290.9181 3.8460
744.7764 1294.3979 4.7280
707.5084 1294.3979 4.7280
746.0090 1221.9203 -19.3280
754.7620 1285.0025 -4.2320
749.8469 1293.2818 2.1840
747.6860 1297.2586 3.1920
706.8540 1297.2586 3.1920
750.1137 1216.2311 -20.5560
753.4618 1292.5406 -1.8840
751.7580 1295.3163 0.8480
750.1373 1298.2989 1.6040
706.9733 1298.2989 1.6040
709.0000 1197.0000 0.0000
752.5190 1215.0150 -21.0000
719.5190 1272.1730 11.0000
719.5190 1272.1730 11.0000
719.5190 1272.1730 11.0000
711.3615 1194.7350 -1.8840
754.3945 1221.1719 -20.5560
720.4548 1276.5953 11.5920
722.0215 1277.2439 10.8360
717.3345 1266.2349 10.8360
714.9500 1193.5994 -4.2320
755.7450 1229.1949 -19.3280
723.0321 1281.3728 11.3760
725.1210 1282.2375 10.3680
715.1450 1258.8055 10.3680
719.4711 1193.5086 -6.8880
756.6069 1238.5628 -17.4720
726.8281 1286.2190 10.5140
728.6559 1286.9756 9.6320
713.0469 1250.3126 9.6320
724.6307 1194.3779 -9.6960
757.0163 1248.7541 -15.1440
731.4199 1290.8473 9.1680
732.4643 1291.2797 8.6640
711.1363 1241.1837 8.6640
730.1345 1196.1226 -12.5000
757.0095 1259.2476 -12.5000
736.3845 1294.9714 7.5000
736.3845 1294.9714 7.5000
709.5095 1231.8464 7.5000
735.6883 1198.6581 -15.1440
756.6227 1269.5219 -9.6960
741.2991 1298.3046 5.6720
740.2547 1297.8723 6.1760
708.2627 1222.7283 6.1760
740.9979 1201.8998 -17.4720
755.8921 1279.0556 -6.8880
745.7409 1300.5606 3.8460
743.9131 1299.8040 4.7280
707.4921 1214.2570 4.7280
745.7690 1205.7629 -19.3280
754.8540 1287.3274 -4.2320
749.2869 1301.4528 2.1840
747.1980 1300.5881 3.1920
707.2940 1206.8601 3.1920
749.7075 1210.1629 -20.5560
753.5445 1293.8160 -1.8840
751.5142 1300.6948 0.8480
749.9475 1300.0462 1.6040
707.7645 1200.9652 1.6040
709.0000 1198.0000 0.0000
752.5190 1215.0150 -21.0000
719.0190 1273.0390 11.0000
719.0190 1273.0390 11.0000
719.0190 1273.0390 11.0000
711.3818 1195.6764 -1.8840
754.3967 1221.1275 -20.5560
719.9665 1277.4365 11.5920
721.5332 1278.0490 10.8360
716.8462 1267.1490 10.8360
714.9820 1194.4560 -4.2320
755.7530 1229.1171 -19.3280
722.5761 1282.1466 11.3760
724.6650 1282.9633 10.3680
714.6890 1259.7633 10.3680
719.5079 1194.2605 -6.8880
756.6226 1238.4620 -17.4720
726.4203 1286.8937 10.5140
728.2481 1287.6083 9.6320
712.6391 1251.3083 9.6320
724.6667 1195.0116 -9.6960
757.0403 1248.6406 -15.1440
731.0719 1291.4021 9.1680
732.1163 1291.8104 8.6640
710.7883 1242.2104 8.6640
730.1658 1196.6310 -12.5000
757.0408 1259.1310 -12.5000
736.1033 1295.3960 7.5000
736.1033 1295.3960 7.5000
709.2283 1232.8960 7.5000
735.7123 1199.0406 -15.1440
756.6587 1269.4116 -9.6960
741.0871 1298.5998 5.6720
740.0427 1298.1915 6.1760
708.0507 1223.7915 6.1760
741.0136 1202.1620 -17.4720
755.9289 1278.9605 -6.8880
745.5962 1300.7378 3.8460
743.7684 1300.0232 4.7280
707.3474 1215.3232 4.7280
745.7770 1205.9171 -19.3280
754.8860 1287.2560 -4.2320
749.2029 1301.5343 2.1840
747.1140 1300.7176 3.1920
707.2100 1207.9176 3.1920
749.7097 1210.2275 -20.5560
753.5648 1293.7764 -1.8840
751.4800 1300.7136 0.8480
749.9133 1300.1011 1.6040
707.7303 1202.0011 1.6040
709.0000 1198.0000 0.0000
752.0190 1215.8810 -21.0000
718.5190 1273.9050 11.0000
718.5190 1273.9050 11.0000
718.5190 1273.9050 11.0000
711.3678 1195.6962 -1.8840
753.9107 1222.0377 -20.5560
719.4985 1278.3156 11.5920
721.0472 1278.9593 10.8360
716.3602 1267.9503 10.8360
714.9300 1194.5301 -4.2320
755.3050 1230.0610 -19.3280
722.1521 1283.0490 11.3760
724.2170 1283.9073 10.3680
714.2410 1260.4753 10.3680
719.3999 1194.4160 -6.8880
756.2306 1239.4304 -17.4720
726.0493 1287.8258 10.5140
727.8561 1288.5768 9.6320
712.2471 1251.9138 9.6320
724.4907 1195.2684 -9.6960
756.7163 1249.6257 -15.1440
730.7599 1292.3664 9.1680
731.7923 1292.7956 8.6640
710.4643 1242.6996 8.6640
729.9158 1197.0015 -12.5000
756.7908 1260.1265 -12.5000
735.8533 1296.3915 7.5000
735.8533 1296.3915 7.5000
708.9783 1233.2665 7.5000
735.3883 1199.5297 -15.1440
756.4827 1270.4124 -9.6960
740.8991 1299.6214 5.6720
739.8667 1299.1923 6.1760
707.8747 1224.0483 6.1760
740.6216 1202.7674 -17.4720
755.8209 1279.9630 -6.8880
745.4672 1301.7767 3.8460
743.6604 1301.0257 4.7280
707.2394 1215.4787 4.7280
745.3290 1206.6290 -19.3280
754.8340 1288.2581 -4.2320
749.1269 1302.5779 2.1840
747.0620 1301.7197 3.1920
707.1580 1207.9917 3.1920
749.2237 1211.0287 -20.5560
753.5508 1294.7772 -1.8840
751.4480 1301.7455 0.8480
749.8993 1301.1018 1.6040
707.7163 1202.0208 1.6040
709.0000 1280.0000 0.0000
751.5190 1216.7470 -21.0000
718.0190 1274.7710 11.0000
718.0190 1274.7710 11.0000
718.0190 1274.7710 11.0000
711.3493 1276.4549 -1.8840
753.4932 1209.4890 -20.5560
719.0990 1268.6876 11.5920
720.6297 1266.4105 10.8360
715.8337 1280.3625 10.8360
714.8620 1271.7562 -4.2320
755.0250 1200.8929 -19.3280
721.8961 1257.7753 11.3760
723.9370 1254.7392 10.3680
713.7290 1284.4352 10.3680
719.2604 1266.1046 -6.8880
756.1281 1191.5259 -17.4720
725.9678 1243.3288 10.5140
727.7536 1240.6722 9.6320
711.7816 1287.1362 9.6320
724.2667 1259.7012 -9.6960
756.8163 1181.9549 -15.1440
730.8719 1226.6428 9.1680
731.8923 1225.1248 8.6640
710.0683 1288.6128 8.6640
729.6033 1252.7470 -12.5000
757.1033 1172.7470 -12.5000
736.1658 1209.0120 7.5000
736.1658 1209.0120 7.5000
708.6658 1289.0120 7.5000
734.9923 1245.4429 -15.1440
757.0027 1164.4692 -9.6960
741.4071 1191.7310 5.6720
740.3867 1193.2491 6.1760
707.6507 1288.4811 6.1760
740.1561 1237.9899 -17.4720
756.5284 1157.6886 -6.8880
746.1537 1176.0947 3.8460
744.3679 1178.7513 4.7280
707.0999 1287.1673 4.7280
744.8170 1230.5889 -19.3280
755.6940 1152.9722 -4.2320
749.9629 1163.3976 2.1840
747.9220 1166.4337 3.1920
707.0900 1285.2177 3.1920
748.6972 1223.4410 -20.5560
754.5133 1150.8869 -1.8840
752.3925 1154.9345 0.8480
750.8618 1157.2116 1.6040
707.6978 1282.7796 1.6040
709.0000 1280.0000 0.0000
751.0190 1217.6130 -21.0000
717.5190 1275.6370 11.0000
717.5190 1275.6370 11.0000
717.5190 1275.6370 11.0000
711.3353 1276.4792 -1.8840
753.0072 1210.3307 -20.5560
718.6310 1269.4982 11.5920
720.1437 1267.2523 10.8360
715.3477 1281.2043 10.8360
714.8100 1271.8462 -4.2320
754.5770 1201.6689 -19.3280
721.4721 1258.5097 11.3760
723.4890 1255.5151 10.3680
713.2810 1285.2111 10.3680
719.1524 1266.2916 -6.8880
755.7361 1192.2048 -17.4720
725.5968 1243.9714 10.5140
727.3616 1241.3512 9.6320
711.3896 1287.8152 9.6320
724.0907 1260.0060 -9.6960
756.4923 1182.5161 -15.1440
730.5599 1227.1832 9.1680
731.5683 1225.6859 8.6640
709.7443 1289.1739 8.6640
729.3533 1253.1800 -12.5000
756.8533 1173.1800 -12.5000
735.9158 1209.4450 7.5000
735.9158 1209.4450 7.5000
708.4158 1289.4450 7.5000
734.6683 1246.0041 -15.1440
756.8267 1164.7740 -9.6960
741.2191 1192.0567 5.6720
740.2107 1193.5540 6.1760
707.4747 1288.7860 6.1760
739.7641 1238.6688 -17.4720
756.4204 1157.8756 -6.8880
746.0247 1176.3181 3.8460
744.2599 1178.9384 4.7280
706.9919 1287.3544 4.7280
744.3690 1231.3649 -19.3280
755.6420 1153.0622 -4.2320
749.8869 1163.5292 2.1840
747.8700 1166.5238 3.1920
707.0380 1285.3078 3.1920
748.2112 1224.2827 -20.5560
754.4993 1150.9112 -1.8840
752.3605 1154.9899 0.8480
750.8478 1157.2358 1.6040
707.6838 1282.8038 1.6040
709.0000 1281.0000 0.0000
751.0190 1217.6130 -21.0000
750.0190 1219.3450 12.0000
750.0190 1219.3450 12.0000
750.0190 1219.3450 12.0000
710.0190 1279.7310 -1.9245
752.8610 1210.6120 -20.5605
750.3673 1214.5931 12.5685
751.8800 1212.3111 11.8125
747.0840 1226.2631 11.8125
712.7300 1276.3449 -4.2960
754.0570 1202.6735 -19.3440
751.1121 1207.3234 12.2880
753.1290 1204.2808 11.2800
742.9210 1233.9768 11.2800
716.7636 1271.2131 -6.9615
754.7124 1194.1940 -17.5035
752.1006 1198.3233 11.3295
753.8654 1195.6610 10.4475
737.8934 1242.1250 10.4475
721.7507 1264.7071 -9.7680
754.9323 1185.5701 -15.1920
753.1799 1188.3800 9.8640
754.1883 1186.8587 9.3600
732.3643 1250.3467 9.3600
727.3220 1257.1982 -12.5625
754.8220 1177.1982 -12.5625
754.1970 1178.2807 8.0625
754.1970 1178.2807 8.0625
726.6970 1258.2807 8.0625
733.1083 1249.0581 -15.1920
754.4867 1169.4751 -9.7680
754.9991 1168.8129 6.0960
753.9907 1170.3341 6.6000
721.2547 1265.5661 6.6000
738.7404 1240.6580 -17.5035
754.0316 1162.7971 -6.9615
755.4334 1160.7636 4.1355
753.6686 1163.4258 5.0175
716.4006 1271.8418 5.0175
743.8490 1232.3695 -19.3440
753.5620 1157.5609 -4.2960
755.3469 1154.9202 2.3520
753.3300 1157.9627 3.3600
712.4980 1276.7467 3.3600
748.0650 1224.5640 -20.5605
753.1830 1154.1630 -1.9245
754.5867 1152.0699 0.9165
753.0740 1154.3518 1.6725
709.9100 1279.9198 1.6725
709.0000 1281.0000 0.0000
750.5190 1218.4790 -21.0000
749.5190 1220.2110 12.0000
749.5190 1220.2110 12.0000
749.5190 1220.2110 12.0000
710.0050 1279.7553 -1.9245
752.3750 1211.4538 -20.5605
749.8993 1215.4036 12.5685
751.3940 1213.1529 11.8125
746.5980 1227.1049 11.8125
712.6780 1276.4350 -4.2960
753.6090 1203.4495 -19.3440
750.6881 1208.0578 12.2880
752.6810 1205.0568 11.2800
742.4730 1234.7528 11.2800
716.6556 1271.4002 -6.9615
754.3204 1194.8730 -17.5035
751.7296 1198.9659 11.3295
753.4734 1196.3400 10.4475
737.5014 1242.8040 10.4475
721.5747 1265.0119 -9.7680
754.6083 1186.1313 -15.1920
752.8679 1188.9204 9.8640
753.8643 1187.4199 9.3600
732.0403 1250.9079 9.3600
727.0720 1257.6312 -12.5625
754.5720 1177.6313 -12.5625
753.9470 1178.7137 8.0625
753.9470 1178.7137 8.0625
726.4470 1258.7137 8.0625
732.7843 1249.6193 -15.1920
754.3107 1169.7799 -9.7680
754.8111 1169.1385 6.0960
753.8147 1170.6390 6.6000
721.0787 1265.8710 6.6000
738.3484 1241.3370 -17.5035
753.9236 1162.9842 -6.9615
755.3044 1160.9870 4.1355
753.5606 1163.6129 5.0175
716.2926 1272.0289 5.0175
743.4010 1233.1455 -19.3440
753.5100 1157.6510 -4.2960
755.2709 1155.0518 2.3520
753.2780 1158.0528 3.3600
712.4460 1276.8368 3.3600
747.5790 1225.4058 -20.5605
753.1690 1154.1873 -1.9245
754.5547 1152.1253 0.9165
753.0600 1154.3761 1.6725
709.8960 1279.9441 1.6725
709.0000 1282.0000 0.0000
784.0190 1160.4560 -20.0000
749.0190 1221.0770 12.0000
749.0190 1221.0770 12.0000
749.0190 1221.0770 12.0000
712.3200 1276.0831 -1.8560
785.0900 1164.4769 -19.5840
748.0543 1228.3217 12.5280
750.7550 1223.9461 11.8080
745.9590 1222.5291 11.8080
718.3380 1265.2717 -4.1280
784.1690 1174.3106 -18.4320
748.0881 1236.4010 12.2240
751.6890 1230.5669 11.2640
741.4810 1227.5509 11.2640
726.3906 1250.8814 -6.6720
781.6554 1188.5634 -16.6880
748.8596 1245.0143 11.2560
752.0104 1239.9094 10.4160
736.0384 1235.1904 10.4160
735.8147 1234.2278 -9.3440
777.9483 1205.8417 -14.4960
750.1079 1253.8608 9.7920
751.9083 1250.9437 9.3120
730.0843 1244.4957 9.3120
745.9470 1216.6267 -12.0000
773.4470 1224.7517 -12.0000
751.5720 1262.6398 8.0000
751.5720 1262.6398 8.0000
724.0720 1254.5148 8.0000
756.1243 1199.3937 -14.4960
768.5507 1243.8998 -9.3440
752.9911 1271.0508 6.0480
751.1907 1273.9678 6.5280
718.4547 1264.2958 6.5280
765.6834 1183.8444 -16.6880
763.6586 1261.8924 -6.6720
754.1044 1278.7929 4.1040
750.9536 1283.8978 4.9440
713.6856 1272.8868 4.9440
773.9610 1171.2946 -18.4320
759.1700 1277.3357 -4.1280
754.6509 1285.5656 2.3360
751.0500 1291.3998 3.2960
710.2180 1279.3358 3.2960
780.2940 1163.0599 -19.5840
755.4840 1288.8361 -1.8560
754.3697 1291.0682 0.9120
751.6690 1295.4438 1.6320
708.5050 1282.6908 1.6320
709.0000 1282.0000 0.0000
783.5190 1161.3220 -20.0000
748.5190 1221.9430 12.0000
748.5190 1221.9430 12.0000
748.5190 1221.9430 12.0000
712.3060 1276.1074 -1.8560
784.6040 1165.3187 -19.5840
747.5863 1229.1323 12.5280
750.2690 1224.7879 11.8080
745.4730 1223.3709 11.8080
718.2860 1265.3617 -4.1280
783.7210 1175.0866 -18.4320
747.6641 1237.1354 12.2240
751.2410 1231.3429 11.2640
741.0330 1228.3269 11.2640
726.2826 1251.0684 -6.6720
781.2634 1189.2424 -16.6880
748.4886 1245.6568 11.2560
751.6184 1240.5884 10.4160
735.6464 1235.8694 10.4160
735.6387 1234.5326 -9.3440
777.6243 1206.4028 -14.4960
749.7959 1254.4011 9.7920
751.5843 1251.5049 9.3120
729.7603 1245.0569 9.3120
745.6970 1217.0597 -12.0000
773.1970 1225.1847 -12.0000
751.3220 1263.0728 8.0000
751.3220 1263.0728 8.0000
723.8220 1254.9478 8.0000
755.8003 1199.9548 -14.4960
768.3747 1244.2046 -9.3440
752.8031 1271.3764 6.0480
751.0147 1274.2726 6.5280
718.2787 1264.6006 6.5280
765.2914 1184.5234 -16.6880
763.5506 1262.0794 -6.6720
753.9754 1279.0164 4.1040
750.8456 1284.0848 4.9440
713.5776 1273.0738 4.9440
773.5130 1172.0706 -18.4320
759.1180 1277.4257 -4.1280
754.5749 1285.6973 2.3360
750.9980 1291.4898 3.2960
710.1660 1279.4258 3.2960
779.8080 1163.9017 -19.5840
755.4700 1288.8604 -1.8560
754.3377 1291.1236 0.9120
751.6550 1295.4681 1.6320
708.4910 1282.7151 1.6320
709.0000 1283.0000 0.0000
783.5190 1161.3220 -20.0000
748.0190 1222.8090 12.0000
748.0190 1222.8090 12.0000
748.0190 1222.8090 12.0000
712.3263 1277.0443 -1.8560
784.6062 1165.3428 -19.5840
747.0980 1230.0419 12.5280
749.7807 1225.6615 11.8080
744.9847 1224.2445 11.8080
718.3180 1266.2023 -4.1280
783.7290 1175.1767 -18.4320
747.2081 1238.0772 12.2240
750.7850 1232.2367 11.2640
740.5770 1229.2207 11.2640
726.3194 1251.7888 -6.6720
781.2791 1189.4311 -16.6880
748.0808 1246.6211 11.2560
751.2106 1241.5106 10.4160
735.2386 1236.7916 10.4160
735.6747 1235.1183 -9.3440
777.6483 1206.7133 -14.4960
749.4479 1255.3799 9.7920
751.2363 1252.4596 9.3120
729.4123 1246.0116 9.3120
745.7283 1217.5056 -12.0000
773.2283 1225.6306 -12.0000
751.0408 1264.0599 8.0000
751.0408 1264.0599 8.0000
723.5408 1255.9349 8.0000
755.8243 1200.2653 -14.4960
768.4107 1244.7903 -9.3440
752.5911 1272.3676 6.0480
750.8027 1275.2878 6.5280
718.0667 1265.6158 6.5280
765.3071 1184.7121 -16.6880
763.5874 1262.7998 -6.6720
753.8307 1280.0091 4.1040
750.7009 1285.1195 4.9440
713.4329 1274.1085 4.9440
773.5210 1172.1607 -18.4320
759.1500 1278.2663 -4.1280
754.4909 1286.6908 2.3360
750.9140 1292.5313 3.2960
710.0820 1280.4673 3.2960
779.8102 1163.9258 -19.5840
755.4903 1289.7973 -1.8560
754.3035 1292.1190 0.9120
751.6208 1296.4994 1.6320
708.4568 1283.7464 1.6320
709.0000 1283.0000 0.0000
783.0190 1162.1880 -20.0000
731.5190 1251.3880 12.0000
731.5190 1251.3880 12.0000
731.5190 1251.3880 12.0000
712.9603 1275.9462 -1.8560
784.1922 1166.0598 -19.5840
731.0060 1257.9143 12.5280
733.6707 1253.5650 11.8080
728.8747 1252.1480 11.8080
719.2900 1264.5188 -4.1280
783.5370 1175.5092 -18.4320
732.1921 1264.0858 12.2240
735.7450 1258.2868 11.2640
725.5370 1255.2708 11.2640
727.3874 1249.9389 -6.6720
781.3911 1189.2371 -16.6880
734.6618 1269.8636 11.2560
737.7706 1264.7895 10.4160
721.7986 1260.0705 10.4160
736.6507 1233.4278 -9.3440
778.0923 1205.9442 -14.4960
737.9999 1275.2085 9.7920
739.7763 1272.3090 9.3120
717.9523 1265.8610 9.3120
746.4783 1216.2065 -12.0000
773.9783 1224.3315 -12.0000
741.7908 1280.0815 8.0000
741.7908 1280.0815 8.0000
714.2908 1271.9565 8.0000
756.2683 1199.4962 -14.4960
769.3867 1243.0998 -9.3440
745.6191 1284.4435 6.0480
743.8427 1287.3430 6.5280
711.1067 1277.6710 6.5280
765.4191 1184.5181 -16.6880
764.6554 1260.9499 -6.6720
749.0697 1288.2554 4.1040
745.9609 1293.3295 4.9440
708.6929 1282.3185 4.9440
773.3290 1172.4932 -18.4320
760.1220 1276.5828 -4.1280
751.7269 1291.4782 2.3360
748.1740 1297.2772 3.2960
707.3420 1285.2132 3.2960
779.3962 1164.6428 -19.5840
756.1243 1288.6992 -1.8560
753.1755 1294.0727 0.9120
750.5108 1298.4220 1.6320
707.3468 1285.6690 1.6320
709.0000 1284.0000 0.0000
782.5190 1163.0530 -20.0000
731.0190 1252.2540 12.0000
731.0190 1252.2540 12.0000
731.0190 1252.2540 12.0000
712.9463 1276.9423 -1.8560
783.7062 1166.9286 -19.5840
730.5380 1258.7889 12.5280
733.1847 1254.4348 11.8080
728.3887 1253.0178 11.8080
719.2380 1265.5046 -4.1280
783.0890 1176.3883 -18.4320
731.7681 1264.9723 12.2240
735.2970 1259.1668 11.2640
725.0890 1256.1508 11.2640
727.2794 1250.9097 -6.6720
780.9991 1190.1312 -16.6880
734.2908 1270.7642 11.2560
737.3786 1265.6845 10.4160
721.4066 1260.9655 10.4160
736.4747 1234.3802 -9.3440
777.7683 1206.8567 -14.4960
737.6879 1276.1250 9.7920
739.4523 1273.2222 9.3120
717.6283 1266.7742 9.3120
746.2283 1217.1389 -12.0000
773.7283 1225.2639 -12.0000
741.5408 1281.0146 8.0000
741.5408 1281.0146 8.0000
714.0408 1272.8896 8.0000
755.9443 1200.4087 -14.4960
769.2107 1244.0522 -9.3440
745.4311 1285.3932 6.0480
743.6667 1288.2959 6.5280
710.9307 1278.6239 6.5280
765.0271 1185.4122 -16.6880
764.5474 1261.9207 -6.6720
748.9407 1289.2209 4.1040
745.8529 1294.3006 4.9440
708.5849 1283.2896 4.9440
772.8810 1173.3723 -18.4320
760.0700 1277.5686 -4.1280
751.6509 1292.4578 2.3360
748.1220 1298.2633 3.2960
707.2900 1286.1993 3.2960
778.9102 1165.5116 -19.5840
756.1103 1289.6953 -1.8560
753.1435 1295.0642 0.9120
750.4968 1299.4183 1.6320
