ply
format ascii 1.0
comment VCGLIB generated
element vertex 653
property float x
property float y
property float z
property float nx
property float ny
property float nz
element face 0
property list uchar int vertex_indices
end_header
777.019 1172.58 -24 0 0 0 
776.519 1173.446 -24 0 0 0 
776.019 1174.312 -24 0 0 0 
769.019 1186.436 -24 0 0 0 
768.519 1187.302 -24 0 0 0 
768.019 1188.168 -24 0 0 0 
767.519 1189.034 -24 0 0 0 
767.019 1189.9 -24 0 0 0 
766.519 1190.766 -24 0 0 0 
766.019 1191.632 -24 0 0 0 
765.519 1192.498 -24 0 0 0 
765.019 1193.364 -24 0 0 0 
764.519 1194.23 -24 0 0 0 
764.019 1195.096 -24 0 0 0 
779.519 1168.25 -23 0 0 0 
779.019 1169.116 -23 0 0 0 
778.519 1169.982 -23 0 0 0 
778.019 1170.848 -23 0 0 0 
777.519 1171.714 -23 0 0 0 
777.019 1172.58 -23 0 0 0 
776.519 1173.446 -23 0 0 0 
776.019 1174.312 -23 0 0 0 
775.519 1175.178 -23 0 0 0 
775.019 1176.044 -23 0 0 0 
774.519 1176.91 -23 0 0 0 
774.019 1177.776 -23 0 0 0 
773.519 1178.642 -23 0 0 0 
772.019 1181.24 -23 0 0 0 
771.519 1182.106 -23 0 0 0 
771.019 1182.972 -23 0 0 0 
770.519 1183.838 -23 0 0 0 
770.019 1184.704 -23 0 0 0 
769.519 1185.57 -23 0 0 0 
769.019 1186.436 -23 0 0 0 
768.519 1187.302 -23 0 0 0 
768.019 1188.168 -23 0 0 0 
767.519 1189.034 -23 0 0 0 
767.019 1189.9 -23 0 0 0 
766.519 1190.766 -23 0 0 0 
766.019 1191.632 -23 0 0 0 
765.519 1192.498 -23 0 0 0 
765.019 1193.364 -23 0 0 0 
764.519 1194.23 -23 0 0 0 
764.019 1195.096 -23 0 0 0 
763.519 1195.963 -23 0 0 0 
763.019 1196.828 -23 0 0 0 
762.519 1197.695 -23 0 0 0 
762.019 1198.561 -23 0 0 0 
782.019 1163.92 -22 0 0 0 
781.519 1164.786 -22 0 0 0 
781.019 1165.652 -22 0 0 0 
780.519 1166.518 -22 0 0 0 
780.019 1167.384 -22 0 0 0 
779.519 1168.25 -22 0 0 0 
779.019 1169.116 -22 0 0 0 
778.519 1169.982 -22 0 0 0 
778.019 1170.848 -22 0 0 0 
777.519 1171.714 -22 0 0 0 
775.519 1175.178 -22 0 0 0 
775.019 1176.044 -22 0 0 0 
774.519 1176.91 -22 0 0 0 
774.019 1177.776 -22 0 0 0 
773.519 1178.642 -22 0 0 0 
773.019 1179.508 -22 0 0 0 
772.519 1180.374 -22 0 0 0 
772.019 1181.24 -22 0 0 0 
771.519 1182.106 -22 0 0 0 
771.019 1182.972 -22 0 0 0 
770.519 1183.838 -22 0 0 0 
770.019 1184.704 -22 0 0 0 
769.519 1185.57 -22 0 0 0 
769.019 1186.436 -22 0 0 0 
768.519 1187.302 -22 0 0 0 
768.019 1188.168 -22 0 0 0 
767.519 1189.034 -22 0 0 0 
767.019 1189.9 -22 0 0 0 
766.519 1190.766 -22 0 0 0 
766.019 1191.632 -22 0 0 0 
765.519 1192.498 -22 0 0 0 
765.019 1193.364 -22 0 0 0 
764.519 1194.23 -22 0 0 0 
764.019 1195.096 -22 0 0 0 
763.519 1195.963 -22 0 0 0 
763.019 1196.828 -22 0 0 0 
762.519 1197.695 -22 0 0 0 
762.019 1198.561 -22 0 0 0 
761.519 1199.427 -22 0 0 0 
761.019 1200.293 -22 0 0 0 
760.519 1201.159 -22 0 0 0 
760.019 1202.025 -22 0 0 0 
759.519 1202.891 -22 0 0 0 
759.019 1203.757 -22 0 0 0 
758.519 1204.623 -22 0 0 0 
758.019 1205.489 -22 0 0 0 
757.519 1206.355 -22 0 0 0 
757.019 1207.221 -22 0 0 0 
756.519 1208.087 -22 0 0 0 
783.019 1162.188 -21 0 0 0 
782.519 1163.053 -21 0 0 0 
782.019 1163.92 -21 0 0 0 
781.519 1164.786 -21 0 0 0 
781.019 1165.652 -21 0 0 0 
780.519 1166.518 -21 0 0 0 
780.019 1167.384 -21 0 0 0 
779.519 1168.25 -21 0 0 0 
779.019 1169.116 -21 0 0 0 
774.519 1176.91 -21 0 0 0 
774.019 1177.776 -21 0 0 0 
773.519 1178.642 -21 0 0 0 
773.019 1179.508 -21 0 0 0 
772.519 1180.374 -21 0 0 0 
772.019 1181.24 -21 0 0 0 
771.519 1182.106 -21 0 0 0 
771.019 1182.972 -21 0 0 0 
770.519 1183.838 -21 0 0 0 
762.519 1197.695 -21 0 0 0 
762.019 1198.561 -21 0 0 0 
761.519 1199.427 -21 0 0 0 
761.019 1200.293 -21 0 0 0 
760.519 1201.159 -21 0 0 0 
760.019 1202.025 -21 0 0 0 
759.519 1202.891 -21 0 0 0 
759.019 1203.757 -21 0 0 0 
758.519 1204.623 -21 0 0 0 
758.019 1205.489 -21 0 0 0 
757.519 1206.355 -21 0 0 0 
757.019 1207.221 -21 0 0 0 
756.519 1208.087 -21 0 0 0 
756.019 1208.953 -21 0 0 0 
755.019 1210.685 -21 0 0 0 
754.519 1211.551 -21 0 0 0 
754.019 1212.417 -21 0 0 0 
753.519 1213.283 -21 0 0 0 
753.019 1214.149 -21 0 0 0 
752.519 1215.015 -21 0 0 0 
752.019 1215.881 -21 0 0 0 
751.519 1216.747 -21 0 0 0 
751.019 1217.613 -21 0 0 0 
750.519 1218.479 -21 0 0 0 
784.019 1160.456 -20 0 0 0 
783.519 1161.322 -20 0 0 0 
783.019 1162.188 -20 0 0 0 
782.519 1163.053 -20 0 0 0 
782.019 1163.92 -20 0 0 0 
781.519 1164.786 -20 0 0 0 
781.019 1165.652 -20 0 0 0 
773.019 1179.508 -20 0 0 0 
772.519 1180.374 -20 0 0 0 
772.019 1181.24 -20 0 0 0 
761.519 1199.427 -20 0 0 0 
761.019 1200.293 -20 0 0 0 
760.519 1201.159 -20 0 0 0 
760.019 1202.025 -20 0 0 0 
759.519 1202.891 -20 0 0 0 
757.519 1206.355 -20 0 0 0 
757.019 1207.221 -20 0 0 0 
756.519 1208.087 -20 0 0 0 
754.519 1211.551 -20 0 0 0 
754.019 1212.417 -20 0 0 0 
753.519 1213.283 -20 0 0 0 
753.019 1214.149 -20 0 0 0 
752.519 1215.015 -20 0 0 0 
752.019 1215.881 -20 0 0 0 
751.519 1216.747 -20 0 0 0 
751.019 1217.613 -20 0 0 0 
750.519 1218.479 -20 0 0 0 
750.019 1219.345 -20 0 0 0 
749.519 1220.211 -20 0 0 0 
736.019 1243.594 -20 0 0 0 
735.519 1244.46 -20 0 0 0 
735.019 1245.326 -20 0 0 0 
734.519 1246.192 -20 0 0 0 
734.019 1247.058 -20 0 0 0 
733.519 1247.924 -20 0 0 0 
733.019 1248.79 -20 0 0 0 
732.519 1249.656 -20 0 0 0 
784.519 1159.589 -19 0 0 0 
784.019 1160.456 -19 0 0 0 
783.519 1161.322 -19 0 0 0 
783.019 1162.188 -19 0 0 0 
782.519 1163.053 -19 0 0 0 
754.519 1211.551 -19 0 0 0 
754.019 1212.417 -19 0 0 0 
753.519 1213.283 -19 0 0 0 
753.019 1214.149 -19 0 0 0 
752.519 1215.015 -19 0 0 0 
752.019 1215.881 -19 0 0 0 
751.519 1216.747 -19 0 0 0 
751.019 1217.613 -19 0 0 0 
750.519 1218.479 -19 0 0 0 
750.019 1219.345 -19 0 0 0 
749.519 1220.211 -19 0 0 0 
749.019 1221.077 -19 0 0 0 
748.519 1221.943 -19 0 0 0 
738.019 1240.13 -19 0 0 0 
737.519 1240.996 -19 0 0 0 
737.019 1241.862 -19 0 0 0 
736.519 1242.728 -19 0 0 0 
736.019 1243.594 -19 0 0 0 
735.519 1244.46 -19 0 0 0 
735.019 1245.326 -19 0 0 0 
734.519 1246.192 -19 0 0 0 
734.019 1247.058 -19 0 0 0 
733.519 1247.924 -19 0 0 0 
730.519 1253.12 -19 0 0 0 
730.019 1253.986 -19 0 0 0 
792.019 1146.599 -18 0 0 0 
785.519 1157.857 -18 0 0 0 
785.019 1158.723 -18 0 0 0 
784.519 1159.589 -18 0 0 0 
784.019 1160.456 -18 0 0 0 
783.519 1161.322 -18 0 0 0 
750.519 1218.479 -18 0 0 0 
750.019 1219.345 -18 0 0 0 
749.519 1220.211 -18 0 0 0 
749.019 1221.077 -18 0 0 0 
748.519 1221.943 -18 0 0 0 
748.019 1222.809 -18 0 0 0 
747.519 1223.675 -18 0 0 0 
740.019 1236.666 -18 0 0 0 
739.519 1237.532 -18 0 0 0 
739.019 1238.398 -18 0 0 0 
738.519 1239.264 -18 0 0 0 
738.019 1240.13 -18 0 0 0 
737.519 1240.996 -18 0 0 0 
737.019 1241.862 -18 0 0 0 
736.519 1242.728 -18 0 0 0 
736.019 1243.594 -18 0 0 0 
735.519 1244.46 -18 0 0 0 
735.019 1245.326 -18 0 0 0 
734.519 1246.192 -18 0 0 0 
729.019 1255.718 -18 0 0 0 
728.519 1256.584 -18 0 0 0 
792.019 1146.599 -17 0 0 0 
791.519 1147.465 -17 0 0 0 
791.019 1148.331 -17 0 0 0 
786.019 1156.991 -17 0 0 0 
785.519 1157.857 -17 0 0 0 
785.019 1158.723 -17 0 0 0 
784.519 1159.589 -17 0 0 0 
784.019 1160.456 -17 0 0 0 
749.519 1220.211 -17 0 0 0 
749.019 1221.077 -17 0 0 0 
748.519 1221.943 -17 0 0 0 
748.019 1222.809 -17 0 0 0 
747.519 1223.675 -17 0 0 0 
747.019 1224.541 -17 0 0 0 
746.519 1225.407 -17 0 0 0 
746.019 1226.273 -17 0 0 0 
745.519 1227.139 -17 0 0 0 
745.019 1228.005 -17 0 0 0 
744.519 1228.871 -17 0 0 0 
744.019 1229.738 -17 0 0 0 
741.019 1234.934 -17 0 0 0 
740.519 1235.8 -17 0 0 0 
740.019 1236.666 -17 0 0 0 
739.519 1237.532 -17 0 0 0 
739.019 1238.398 -17 0 0 0 
738.519 1239.264 -17 0 0 0 
738.019 1240.13 -17 0 0 0 
737.519 1240.996 -17 0 0 0 
729.019 1255.718 -17 0 0 0 
728.519 1256.584 -17 0 0 0 
728.019 1257.45 -17 0 0 0 
792.019 1146.599 -16 0 0 0 
791.519 1147.465 -16 0 0 0 
791.019 1148.331 -16 0 0 0 
790.519 1149.197 -16 0 0 0 
790.019 1150.063 -16 0 0 0 
789.519 1150.929 -16 0 0 0 
789.019 1151.795 -16 0 0 0 
788.519 1152.661 -16 0 0 0 
788.019 1153.527 -16 0 0 0 
787.519 1154.393 -16 0 0 0 
787.019 1155.259 -16 0 0 0 
786.519 1156.125 -16 0 0 0 
786.019 1156.991 -16 0 0 0 
785.519 1157.857 -16 0 0 0 
785.019 1158.723 -16 0 0 0 
749.019 1221.077 -16 0 0 0 
748.519 1221.943 -16 0 0 0 
748.019 1222.809 -16 0 0 0 
747.519 1223.675 -16 0 0 0 
747.019 1224.541 -16 0 0 0 
746.519 1225.407 -16 0 0 0 
746.019 1226.273 -16 0 0 0 
745.519 1227.139 -16 0 0 0 
745.019 1228.005 -16 0 0 0 
744.519 1228.871 -16 0 0 0 
744.019 1229.738 -16 0 0 0 
743.519 1230.604 -16 0 0 0 
743.019 1231.47 -16 0 0 0 
742.519 1232.336 -16 0 0 0 
742.019 1233.202 -16 0 0 0 
741.519 1234.068 -16 0 0 0 
741.019 1234.934 -16 0 0 0 
740.519 1235.8 -16 0 0 0 
740.019 1236.666 -16 0 0 0 
729.019 1255.718 -16 0 0 0 
728.519 1256.584 -16 0 0 0 
728.019 1257.45 -16 0 0 0 
727.519 1258.316 -16 0 0 0 
724.519 1263.512 -16 0 0 0 
724.019 1264.379 -16 0 0 0 
723.519 1265.245 -16 0 0 0 
723.019 1266.111 -16 0 0 0 
722.519 1266.977 -16 0 0 0 
722.019 1267.843 -16 0 0 0 
721.519 1268.709 -16 0 0 0 
721.019 1269.575 -16 0 0 0 
720.519 1270.441 -16 0 0 0 
720.019 1271.307 -16 0 0 0 
719.519 1272.173 -16 0 0 0 
791.019 1148.331 -15 0 0 0 
790.519 1149.197 -15 0 0 0 
790.019 1150.063 -15 0 0 0 
789.519 1150.929 -15 0 0 0 
789.019 1151.795 -15 0 0 0 
788.519 1152.661 -15 0 0 0 
788.019 1153.527 -15 0 0 0 
787.519 1154.393 -15 0 0 0 
787.019 1155.259 -15 0 0 0 
786.519 1156.125 -15 0 0 0 
786.019 1156.991 -15 0 0 0 
785.519 1157.857 -15 0 0 0 
748.519 1221.943 -15 0 0 0 
748.019 1222.809 -15 0 0 0 
747.519 1223.675 -15 0 0 0 
747.019 1224.541 -15 0 0 0 
746.519 1225.407 -15 0 0 0 
746.019 1226.273 -15 0 0 0 
745.519 1227.139 -15 0 0 0 
745.019 1228.005 -15 0 0 0 
744.519 1228.871 -15 0 0 0 
744.019 1229.738 -15 0 0 0 
743.519 1230.604 -15 0 0 0 
743.019 1231.47 -15 0 0 0 
742.519 1232.336 -15 0 0 0 
742.019 1233.202 -15 0 0 0 
741.519 1234.068 -15 0 0 0 
741.019 1234.934 -15 0 0 0 
740.519 1235.8 -15 0 0 0 
730.519 1253.12 -15 0 0 0 
728.519 1256.584 -15 0 0 0 
728.019 1257.45 -15 0 0 0 
727.519 1258.316 -15 0 0 0 
727.019 1259.182 -15 0 0 0 
726.519 1260.048 -15 0 0 0 
726.019 1260.914 -15 0 0 0 
725.519 1261.78 -15 0 0 0 
725.019 1262.646 -15 0 0 0 
724.519 1263.512 -15 0 0 0 
724.019 1264.379 -15 0 0 0 
723.519 1265.245 -15 0 0 0 
723.019 1266.111 -15 0 0 0 
722.519 1266.977 -15 0 0 0 
722.019 1267.843 -15 0 0 0 
721.519 1268.709 -15 0 0 0 
721.019 1269.575 -15 0 0 0 
720.519 1270.441 -15 0 0 0 
720.019 1271.307 -15 0 0 0 
719.519 1272.173 -15 0 0 0 
719.019 1273.039 -15 0 0 0 
718.519 1273.905 -15 0 0 0 
718.019 1274.771 -15 0 0 0 
717.519 1275.637 -15 0 0 0 
717.019 1276.503 -15 0 0 0 
790.019 1150.063 -14 0 0 0 
789.519 1150.929 -14 0 0 0 
789.019 1151.795 -14 0 0 0 
788.519 1152.661 -14 0 0 0 
788.019 1153.527 -14 0 0 0 
787.519 1154.393 -14 0 0 0 
787.019 1155.259 -14 0 0 0 
786.519 1156.125 -14 0 0 0 
786.019 1156.991 -14 0 0 0 
744.519 1228.871 -14 0 0 0 
744.019 1229.738 -14 0 0 0 
743.519 1230.604 -14 0 0 0 
743.019 1231.47 -14 0 0 0 
742.519 1232.336 -14 0 0 0 
742.019 1233.202 -14 0 0 0 
741.519 1234.068 -14 0 0 0 
741.019 1234.934 -14 0 0 0 
730.519 1253.12 -14 0 0 0 
730.019 1253.986 -14 0 0 0 
729.019 1255.718 -14 0 0 0 
728.519 1256.584 -14 0 0 0 
728.019 1257.45 -14 0 0 0 
727.519 1258.316 -14 0 0 0 
727.019 1259.182 -14 0 0 0 
726.519 1260.048 -14 0 0 0 
726.019 1260.914 -14 0 0 0 
725.519 1261.78 -14 0 0 0 
725.019 1262.646 -14 0 0 0 
718.019 1274.771 -14 0 0 0 
717.519 1275.637 -14 0 0 0 
717.019 1276.503 -14 0 0 0 
716.519 1277.369 -14 0 0 0 
788.019 1153.527 -13 0 0 0 
787.519 1154.393 -13 0 0 0 
742.519 1232.336 -13 0 0 0 
742.019 1233.202 -13 0 0 0 
741.519 1234.068 -13 0 0 0 
731.019 1252.254 -13 0 0 0 
730.519 1253.12 -13 0 0 0 
730.019 1253.986 -13 0 0 0 
729.519 1254.852 -13 0 0 0 
729.019 1255.718 -13 0 0 0 
728.519 1256.584 -13 0 0 0 
728.019 1257.45 -13 0 0 0 
727.519 1258.316 -13 0 0 0 
727.019 1259.182 -13 0 0 0 
726.519 1260.048 -13 0 0 0 
726.019 1260.914 -13 0 0 0 
717.019 1276.503 -13 0 0 0 
716.519 1277.369 -13 0 0 0 
716.019 1278.235 -13 0 0 0 
731.519 1251.388 -12 0 0 0 
731.019 1252.254 -12 0 0 0 
730.519 1253.12 -12 0 0 0 
730.019 1253.986 -12 0 0 0 
729.519 1254.852 -12 0 0 0 
729.019 1255.718 -12 0 0 0 
716.519 1277.369 -12 0 0 0 
716.019 1278.235 -12 0 0 0 
715.519 1279.101 -12 0 0 0 
735.019 1245.326 -11 0 0 0 
734.519 1246.192 -11 0 0 0 
734.019 1247.058 -11 0 0 0 
732.519 1249.656 -11 0 0 0 
732.019 1250.522 -11 0 0 0 
731.519 1251.388 -11 0 0 0 
731.019 1252.254 -11 0 0 0 
716.019 1278.235 -11 0 0 0 
715.519 1279.101 -11 0 0 0 
735.519 1244.46 -10 0 0 0 
735.019 1245.326 -10 0 0 0 
734.519 1246.192 -10 0 0 0 
734.019 1247.058 -10 0 0 0 
733.519 1247.924 -10 0 0 0 
733.019 1248.79 -10 0 0 0 
732.519 1249.656 -10 0 0 0 
716.019 1278.235 -10 0 0 0 
715.519 1279.101 -10 0 0 0 
715.019 1279.967 -10 0 0 0 
753.019 1214.149 -9 0 0 0 
752.519 1215.015 -9 0 0 0 
736.019 1243.594 -9 0 0 0 
735.519 1244.46 -9 0 0 0 
735.019 1245.326 -9 0 0 0 
734.519 1246.192 -9 0 0 0 
734.019 1247.058 -9 0 0 0 
733.519 1247.924 -9 0 0 0 
715.519 1279.101 -9 0 0 0 
715.019 1279.967 -9 0 0 0 
753.519 1213.283 -8 0 0 0 
753.019 1214.149 -8 0 0 0 
752.519 1215.015 -8 0 0 0 
752.019 1215.881 -8 0 0 0 
737.519 1240.996 -8 0 0 0 
737.019 1241.862 -8 0 0 0 
736.519 1242.728 -8 0 0 0 
736.019 1243.594 -8 0 0 0 
735.519 1244.46 -8 0 0 0 
735.019 1245.326 -8 0 0 0 
716.019 1278.235 -8 0 0 0 
715.519 1279.101 -8 0 0 0 
753.019 1214.149 -7 0 0 0 
752.519 1215.015 -7 0 0 0 
752.019 1215.881 -7 0 0 0 
751.519 1216.747 -7 0 0 0 
739.519 1237.532 -7 0 0 0 
739.019 1238.398 -7 0 0 0 
738.519 1239.264 -7 0 0 0 
738.019 1240.13 -7 0 0 0 
737.519 1240.996 -7 0 0 0 
737.019 1241.862 -7 0 0 0 
720.019 1271.307 -7 0 0 0 
719.519 1272.173 -7 0 0 0 
717.019 1276.503 -7 0 0 0 
716.519 1277.369 -7 0 0 0 
716.019 1278.235 -7 0 0 0 
715.519 1279.101 -7 0 0 0 
715.019 1279.967 -7 0 0 0 
752.519 1215.015 -6 0 0 0 
752.019 1215.881 -6 0 0 0 
751.519 1216.747 -6 0 0 0 
751.019 1217.613 -6 0 0 0 
750.519 1218.479 -6 0 0 0 
740.519 1235.8 -6 0 0 0 
740.019 1236.666 -6 0 0 0 
739.519 1237.532 -6 0 0 0 
739.019 1238.398 -6 0 0 0 
738.519 1239.264 -6 0 0 0 
738.019 1240.13 -6 0 0 0 
723.019 1266.111 -6 0 0 0 
722.519 1266.977 -6 0 0 0 
722.019 1267.843 -6 0 0 0 
721.519 1268.709 -6 0 0 0 
721.019 1269.575 -6 0 0 0 
720.519 1270.441 -6 0 0 0 
720.019 1271.307 -6 0 0 0 
719.519 1272.173 -6 0 0 0 
719.019 1273.039 -6 0 0 0 
718.519 1273.905 -6 0 0 0 
718.019 1274.771 -6 0 0 0 
717.519 1275.637 -6 0 0 0 
717.019 1276.503 -6 0 0 0 
716.519 1277.369 -6 0 0 0 
716.019 1278.235 -6 0 0 0 
715.519 1279.101 -6 0 0 0 
715.019 1279.967 -6 0 0 0 
714.519 1280.833 -6 0 0 0 
752.019 1215.881 -5 0 0 0 
751.519 1216.747 -5 0 0 0 
751.019 1217.613 -5 0 0 0 
750.519 1218.479 -5 0 0 0 
750.019 1219.345 -5 0 0 0 
749.519 1220.211 -5 0 0 0 
741.019 1234.934 -5 0 0 0 
740.519 1235.8 -5 0 0 0 
740.019 1236.666 -5 0 0 0 
739.519 1237.532 -5 0 0 0 
739.019 1238.398 -5 0 0 0 
724.519 1263.512 -5 0 0 0 
724.019 1264.379 -5 0 0 0 
723.519 1265.245 -5 0 0 0 
723.019 1266.111 -5 0 0 0 
722.519 1266.977 -5 0 0 0 
722.019 1267.843 -5 0 0 0 
721.519 1268.709 -5 0 0 0 
721.019 1269.575 -5 0 0 0 
720.519 1270.441 -5 0 0 0 
720.019 1271.307 -5 0 0 0 
718.519 1273.905 -5 0 0 0 
718.019 1274.771 -5 0 0 0 
717.519 1275.637 -5 0 0 0 
717.019 1276.503 -5 0 0 0 
714.019 1281.699 -5 0 0 0 
713.519 1282.565 -5 0 0 0 
713.019 1283.431 -5 0 0 0 
712.519 1284.297 -5 0 0 0 
712.019 1285.163 -5 0 0 0 
711.519 1286.029 -5 0 0 0 
711.019 1286.895 -5 0 0 0 
710.519 1287.761 -5 0 0 0 
710.019 1288.627 -5 0 0 0 
709.519 1289.493 -5 0 0 0 
709.019 1290.359 -5 0 0 0 
751.519 1216.747 -4 0 0 0 
751.019 1217.613 -4 0 0 0 
750.519 1218.479 -4 0 0 0 
750.019 1219.345 -4 0 0 0 
749.519 1220.211 -4 0 0 0 
749.019 1221.077 -4 0 0 0 
748.519 1221.943 -4 0 0 0 
748.019 1222.809 -4 0 0 0 
747.519 1223.675 -4 0 0 0 
742.019 1233.202 -4 0 0 0 
741.519 1234.068 -4 0 0 0 
741.019 1234.934 -4 0 0 0 
740.519 1235.8 -4 0 0 0 
740.019 1236.666 -4 0 0 0 
739.519 1237.532 -4 0 0 0 
726.019 1260.914 -4 0 0 0 
725.519 1261.78 -4 0 0 0 
725.019 1262.646 -4 0 0 0 
724.519 1263.512 -4 0 0 0 
724.019 1264.379 -4 0 0 0 
723.519 1265.245 -4 0 0 0 
723.019 1266.111 -4 0 0 0 
722.519 1266.977 -4 0 0 0 
722.019 1267.843 -4 0 0 0 
721.519 1268.709 -4 0 0 0 
721.019 1269.575 -4 0 0 0 
720.519 1270.441 -4 0 0 0 
712.019 1285.163 -4 0 0 0 
711.519 1286.029 -4 0 0 0 
711.019 1286.895 -4 0 0 0 
710.519 1287.761 -4 0 0 0 
710.019 1288.627 -4 0 0 0 
709.519 1289.493 -4 0 0 0 
709.019 1290.359 -4 0 0 0 
708.519 1291.225 -4 0 0 0 
749.519 1220.211 -3 0 0 0 
749.019 1221.077 -3 0 0 0 
748.519 1221.943 -3 0 0 0 
748.019 1222.809 -3 0 0 0 
747.519 1223.675 -3 0 0 0 
747.019 1224.541 -3 0 0 0 
746.519 1225.407 -3 0 0 0 
746.019 1226.273 -3 0 0 0 
745.519 1227.139 -3 0 0 0 
745.019 1228.005 -3 0 0 0 
744.519 1228.871 -3 0 0 0 
744.019 1229.738 -3 0 0 0 
743.519 1230.604 -3 0 0 0 
743.019 1231.47 -3 0 0 0 
742.519 1232.336 -3 0 0 0 
742.019 1233.202 -3 0 0 0 
741.519 1234.068 -3 0 0 0 
741.019 1234.934 -3 0 0 0 
740.519 1235.8 -3 0 0 0 
740.019 1236.666 -3 0 0 0 
727.019 1259.182 -3 0 0 0 
726.519 1260.048 -3 0 0 0 
726.019 1260.914 -3 0 0 0 
725.519 1261.78 -3 0 0 0 
725.019 1262.646 -3 0 0 0 
724.519 1263.512 -3 0 0 0 
724.019 1264.379 -3 0 0 0 
723.519 1265.245 -3 0 0 0 
723.019 1266.111 -3 0 0 0 
722.519 1266.977 -3 0 0 0 
722.019 1267.843 -3 0 0 0 
709.519 1289.493 -3 0 0 0 
709.019 1290.359 -3 0 0 0 
708.519 1291.225 -3 0 0 0 
708.019 1292.091 -3 0 0 0 
746.519 1225.407 -2 0 0 0 
746.019 1226.273 -2 0 0 0 
745.519 1227.139 -2 0 0 0 
745.019 1228.005 -2 0 0 0 
744.519 1228.871 -2 0 0 0 
744.019 1229.738 -2 0 0 0 
743.519 1230.604 -2 0 0 0 
743.019 1231.47 -2 0 0 0 
742.519 1232.336 -2 0 0 0 
742.019 1233.202 -2 0 0 0 
741.519 1234.068 -2 0 0 0 
728.519 1256.584 -2 0 0 0 
728.019 1257.45 -2 0 0 0 
727.519 1258.316 -2 0 0 0 
727.019 1259.182 -2 0 0 0 
726.519 1260.048 -2 0 0 0 
709.519 1289.493 -2 0 0 0 
709.019 1290.359 -2 0 0 0 
708.519 1291.225 -2 0 0 0 
708.019 1292.091 -2 0 0 0 
744.019 1229.738 -1 0 0 0 
743.519 1230.604 -1 0 0 0 
730.019 1253.986 -1 0 0 0 
729.519 1254.852 -1 0 0 0 
729.019 1255.718 -1 0 0 0 
728.519 1256.584 -1 0 0 0 
728.019 1257.45 -1 0 0 0 
710.019 1288.627 -1 0 0 0 
709.519 1289.493 -1 0 0 0 
709.019 1290.359 -1 0 0 0 
708.519 1291.225 -1 0 0 0 
708.019 1292.091 -1 0 0 0 
707.519 1292.957 -1 0 0 0 
