ply
format ascii 1.0
comment VCGLIB generated
element vertex 886
property float x
property float y
property float z
property float nx
property float ny
property float nz
element face 0
property list uchar int vertex_indices
end_header
732.019 1250.522 1 0 0 0 
731.519 1251.388 1 0 0 0 
731.019 1252.254 1 0 0 0 
730.519 1253.12 1 0 0 0 
730.019 1253.986 1 0 0 0 
710.519 1287.761 1 0 0 0 
710.019 1288.627 1 0 0 0 
709.519 1289.493 1 0 0 0 
709.019 1290.359 1 0 0 0 
708.519 1291.225 1 0 0 0 
708.019 1292.091 1 0 0 0 
707.519 1292.957 1 0 0 0 
733.019 1248.79 2 0 0 0 
732.519 1249.656 2 0 0 0 
732.019 1250.522 2 0 0 0 
731.519 1251.388 2 0 0 0 
731.019 1252.254 2 0 0 0 
710.519 1287.761 2 0 0 0 
710.019 1288.627 2 0 0 0 
709.519 1289.493 2 0 0 0 
709.019 1290.359 2 0 0 0 
708.519 1291.225 2 0 0 0 
708.019 1292.091 2 0 0 0 
734.519 1246.192 3 0 0 0 
734.019 1247.058 3 0 0 0 
733.519 1247.924 3 0 0 0 
733.019 1248.79 3 0 0 0 
715.519 1279.101 3 0 0 0 
713.519 1282.565 3 0 0 0 
713.019 1283.431 3 0 0 0 
712.519 1284.297 3 0 0 0 
712.019 1285.163 3 0 0 0 
711.519 1286.029 3 0 0 0 
711.019 1286.895 3 0 0 0 
710.519 1287.761 3 0 0 0 
710.019 1288.627 3 0 0 0 
709.519 1289.493 3 0 0 0 
709.019 1290.359 3 0 0 0 
708.519 1291.225 3 0 0 0 
708.019 1292.091 3 0 0 0 
735.519 1244.46 4 0 0 0 
735.019 1245.326 4 0 0 0 
734.519 1246.192 4 0 0 0 
734.019 1247.058 4 0 0 0 
716.519 1277.369 4 0 0 0 
716.019 1278.235 4 0 0 0 
715.519 1279.101 4 0 0 0 
715.019 1279.967 4 0 0 0 
714.519 1280.833 4 0 0 0 
714.019 1281.699 4 0 0 0 
713.519 1282.565 4 0 0 0 
713.019 1283.431 4 0 0 0 
712.519 1284.297 4 0 0 0 
712.019 1285.163 4 0 0 0 
711.519 1286.029 4 0 0 0 
711.019 1286.895 4 0 0 0 
710.519 1287.761 4 0 0 0 
710.019 1288.627 4 0 0 0 
709.519 1289.493 4 0 0 0 
709.019 1290.359 4 0 0 0 
708.519 1291.225 4 0 0 0 
736.519 1242.728 5 0 0 0 
736.019 1243.594 5 0 0 0 
735.519 1244.46 5 0 0 0 
718.019 1274.771 5 0 0 0 
717.519 1275.637 5 0 0 0 
717.019 1276.503 5 0 0 0 
716.519 1277.369 5 0 0 0 
716.019 1278.235 5 0 0 0 
712.519 1284.297 5 0 0 0 
712.019 1285.163 5 0 0 0 
711.519 1286.029 5 0 0 0 
711.019 1286.895 5 0 0 0 
710.519 1287.761 5 0 0 0 
710.019 1288.627 5 0 0 0 
709.519 1289.493 5 0 0 0 
737.519 1240.996 6 0 0 0 
737.019 1241.862 6 0 0 0 
736.519 1242.728 6 0 0 0 
736.019 1243.594 6 0 0 0 
723.519 1265.245 6 0 0 0 
723.019 1266.111 6 0 0 0 
722.519 1266.977 6 0 0 0 
722.019 1267.843 6 0 0 0 
721.019 1269.575 6 0 0 0 
720.519 1270.441 6 0 0 0 
720.019 1271.307 6 0 0 0 
719.519 1272.173 6 0 0 0 
719.019 1273.039 6 0 0 0 
718.519 1273.905 6 0 0 0 
739.519 1237.532 7 0 0 0 
739.019 1238.398 7 0 0 0 
738.519 1239.264 7 0 0 0 
738.019 1240.13 7 0 0 0 
737.519 1240.996 7 0 0 0 
737.019 1241.862 7 0 0 0 
724.519 1263.512 7 0 0 0 
724.019 1264.379 7 0 0 0 
723.519 1265.245 7 0 0 0 
723.019 1266.111 7 0 0 0 
722.519 1266.977 7 0 0 0 
722.019 1267.843 7 0 0 0 
743.019 1231.47 8 0 0 0 
742.519 1232.336 8 0 0 0 
742.019 1233.202 8 0 0 0 
741.519 1234.068 8 0 0 0 
741.019 1234.934 8 0 0 0 
740.519 1235.8 8 0 0 0 
740.019 1236.666 8 0 0 0 
739.519 1237.532 8 0 0 0 
739.019 1238.398 8 0 0 0 
738.519 1239.264 8 0 0 0 
725.519 1261.78 8 0 0 0 
725.019 1262.646 8 0 0 0 
724.519 1263.512 8 0 0 0 
724.019 1264.379 8 0 0 0 
723.519 1265.245 8 0 0 0 
723.019 1266.111 8 0 0 0 
744.519 1228.871 9 0 0 0 
744.019 1229.738 9 0 0 0 
743.519 1230.604 9 0 0 0 
743.019 1231.47 9 0 0 0 
742.519 1232.336 9 0 0 0 
742.019 1233.202 9 0 0 0 
741.519 1234.068 9 0 0 0 
741.019 1234.934 9 0 0 0 
727.019 1259.182 9 0 0 0 
726.519 1260.048 9 0 0 0 
726.019 1260.914 9 0 0 0 
725.519 1261.78 9 0 0 0 
725.019 1262.646 9 0 0 0 
748.019 1222.809 10 0 0 0 
747.019 1224.541 10 0 0 0 
746.519 1225.407 10 0 0 0 
746.019 1226.273 10 0 0 0 
745.519 1227.139 10 0 0 0 
745.019 1228.005 10 0 0 0 
744.519 1228.871 10 0 0 0 
744.019 1229.738 10 0 0 0 
743.519 1230.604 10 0 0 0 
743.019 1231.47 10 0 0 0 
742.519 1232.336 10 0 0 0 
730.019 1253.986 10 0 0 0 
729.519 1254.852 10 0 0 0 
729.019 1255.718 10 0 0 0 
728.519 1256.584 10 0 0 0 
728.019 1257.45 10 0 0 0 
727.519 1258.316 10 0 0 0 
727.019 1259.182 10 0 0 0 
726.519 1260.048 10 0 0 0 
726.019 1260.914 10 0 0 0 
725.519 1261.78 10 0 0 0 
749.519 1220.211 11 0 0 0 
749.019 1221.077 11 0 0 0 
748.519 1221.943 11 0 0 0 
748.019 1222.809 11 0 0 0 
747.519 1223.675 11 0 0 0 
747.019 1224.541 11 0 0 0 
746.519 1225.407 11 0 0 0 
746.019 1226.273 11 0 0 0 
745.519 1227.139 11 0 0 0 
745.019 1228.005 11 0 0 0 
744.519 1228.871 11 0 0 0 
744.019 1229.738 11 0 0 0 
743.519 1230.604 11 0 0 0 
730.519 1253.12 11 0 0 0 
730.019 1253.986 11 0 0 0 
729.519 1254.852 11 0 0 0 
729.019 1255.718 11 0 0 0 
728.519 1256.584 11 0 0 0 
728.019 1257.45 11 0 0 0 
727.519 1258.316 11 0 0 0 
727.019 1259.182 11 0 0 0 
726.519 1260.048 11 0 0 0 
726.019 1260.914 11 0 0 0 
725.519 1261.78 11 0 0 0 
725.019 1262.646 11 0 0 0 
724.519 1263.512 11 0 0 0 
724.019 1264.379 11 0 0 0 
723.519 1265.245 11 0 0 0 
723.019 1266.111 11 0 0 0 
722.519 1266.977 11 0 0 0 
719.519 1272.173 11 0 0 0 
719.019 1273.039 11 0 0 0 
718.519 1273.905 11 0 0 0 
718.019 1274.771 11 0 0 0 
717.519 1275.637 11 0 0 0 
750.019 1219.345 12 0 0 0 
749.519 1220.211 12 0 0 0 
749.019 1221.077 12 0 0 0 
748.519 1221.943 12 0 0 0 
748.019 1222.809 12 0 0 0 
731.519 1251.388 12 0 0 0 
731.019 1252.254 12 0 0 0 
730.519 1253.12 12 0 0 0 
730.019 1253.986 12 0 0 0 
729.519 1254.852 12 0 0 0 
729.019 1255.718 12 0 0 0 
728.519 1256.584 12 0 0 0 
728.019 1257.45 12 0 0 0 
727.519 1258.316 12 0 0 0 
727.019 1259.182 12 0 0 0 
726.519 1260.048 12 0 0 0 
726.019 1260.914 12 0 0 0 
725.519 1261.78 12 0 0 0 
725.019 1262.646 12 0 0 0 
724.519 1263.512 12 0 0 0 
724.019 1264.379 12 0 0 0 
723.519 1265.245 12 0 0 0 
723.019 1266.111 12 0 0 0 
717.519 1275.637 12 0 0 0 
717.019 1276.503 12 0 0 0 
716.519 1277.369 12 0 0 0 
733.019 1248.79 13 0 0 0 
732.519 1249.656 13 0 0 0 
732.019 1250.522 13 0 0 0 
731.519 1251.388 13 0 0 0 
731.019 1252.254 13 0 0 0 
730.519 1253.12 13 0 0 0 
730.019 1253.986 13 0 0 0 
716.519 1277.369 13 0 0 0 
716.019 1278.235 13 0 0 0 
715.519 1279.101 13 0 0 0 
715.019 1279.967 13 0 0 0 
714.519 1280.833 13 0 0 0 
735.019 1245.326 14 0 0 0 
734.519 1246.192 14 0 0 0 
734.019 1247.058 14 0 0 0 
733.519 1247.924 14 0 0 0 
733.019 1248.79 14 0 0 0 
732.519 1249.656 14 0 0 0 
732.019 1250.522 14 0 0 0 
716.019 1278.235 14 0 0 0 
715.519 1279.101 14 0 0 0 
715.019 1279.967 14 0 0 0 
714.519 1280.833 14 0 0 0 
714.019 1281.699 14 0 0 0 
737.519 1240.996 15 0 0 0 
737.019 1241.862 15 0 0 0 
736.519 1242.728 15 0 0 0 
736.019 1243.594 15 0 0 0 
735.519 1244.46 15 0 0 0 
735.019 1245.326 15 0 0 0 
734.519 1246.192 15 0 0 0 
734.019 1247.058 15 0 0 0 
715.519 1279.101 15 0 0 0 
715.019 1279.967 15 0 0 0 
714.519 1280.833 15 0 0 0 
714.019 1281.699 15 0 0 0 
713.519 1282.565 15 0 0 0 
740.519 1235.8 16 0 0 0 
740.019 1236.666 16 0 0 0 
739.519 1237.532 16 0 0 0 
739.019 1238.398 16 0 0 0 
738.519 1239.264 16 0 0 0 
738.019 1240.13 16 0 0 0 
737.519 1240.996 16 0 0 0 
737.019 1241.862 16 0 0 0 
736.519 1242.728 16 0 0 0 
736.019 1243.594 16 0 0 0 
735.519 1244.46 16 0 0 0 
715.019 1279.967 16 0 0 0 
714.519 1280.833 16 0 0 0 
714.019 1281.699 16 0 0 0 
713.519 1282.565 16 0 0 0 
742.519 1232.336 17 0 0 0 
742.019 1233.202 17 0 0 0 
741.519 1234.068 17 0 0 0 
741.019 1234.934 17 0 0 0 
740.519 1235.8 17 0 0 0 
740.019 1236.666 17 0 0 0 
739.519 1237.532 17 0 0 0 
739.019 1238.398 17 0 0 0 
738.519 1239.264 17 0 0 0 
738.019 1240.13 17 0 0 0 
737.519 1240.996 17 0 0 0 
737.019 1241.862 17 0 0 0 
736.519 1242.728 17 0 0 0 
720.519 1270.441 17 0 0 0 
715.019 1279.967 17 0 0 0 
714.519 1280.833 17 0 0 0 
714.019 1281.699 17 0 0 0 
713.519 1282.565 17 0 0 0 
745.019 1228.005 18 0 0 0 
744.519 1228.871 18 0 0 0 
744.019 1229.738 18 0 0 0 
743.519 1230.604 18 0 0 0 
743.019 1231.47 18 0 0 0 
742.519 1232.336 18 0 0 0 
742.019 1233.202 18 0 0 0 
741.519 1234.068 18 0 0 0 
741.019 1234.934 18 0 0 0 
740.519 1235.8 18 0 0 0 
740.019 1236.666 18 0 0 0 
739.519 1237.532 18 0 0 0 
739.019 1238.398 18 0 0 0 
738.519 1239.264 18 0 0 0 
721.019 1269.575 18 0 0 0 
720.519 1270.441 18 0 0 0 
715.019 1279.967 18 0 0 0 
714.519 1280.833 18 0 0 0 
714.019 1281.699 18 0 0 0 
713.519 1282.565 18 0 0 0 
746.519 1225.407 19 0 0 0 
746.019 1226.273 19 0 0 0 
745.519 1227.139 19 0 0 0 
745.019 1228.005 19 0 0 0 
744.519 1228.871 19 0 0 0 
744.019 1229.738 19 0 0 0 
743.519 1230.604 19 0 0 0 
743.019 1231.47 19 0 0 0 
742.519 1232.336 19 0 0 0 
742.019 1233.202 19 0 0 0 
741.519 1234.068 19 0 0 0 
741.019 1234.934 19 0 0 0 
725.519 1261.78 19 0 0 0 
725.019 1262.646 19 0 0 0 
724.519 1263.512 19 0 0 0 
724.019 1264.379 19 0 0 0 
723.519 1265.245 19 0 0 0 
723.019 1266.111 19 0 0 0 
722.519 1266.977 19 0 0 0 
722.019 1267.843 19 0 0 0 
721.519 1268.709 19 0 0 0 
721.019 1269.575 19 0 0 0 
720.519 1270.441 19 0 0 0 
715.519 1279.101 19 0 0 0 
715.019 1279.967 19 0 0 0 
714.519 1280.833 19 0 0 0 
714.019 1281.699 19 0 0 0 
713.519 1282.565 19 0 0 0 
750.019 1219.345 20 0 0 0 
749.519 1220.211 20 0 0 0 
749.019 1221.077 20 0 0 0 
748.519 1221.943 20 0 0 0 
748.019 1222.809 20 0 0 0 
747.519 1223.675 20 0 0 0 
747.019 1224.541 20 0 0 0 
746.519 1225.407 20 0 0 0 
746.019 1226.273 20 0 0 0 
745.519 1227.139 20 0 0 0 
745.019 1228.005 20 0 0 0 
744.519 1228.871 20 0 0 0 
727.019 1259.182 20 0 0 0 
726.519 1260.048 20 0 0 0 
726.019 1260.914 20 0 0 0 
725.519 1261.78 20 0 0 0 
725.019 1262.646 20 0 0 0 
724.519 1263.512 20 0 0 0 
724.019 1264.379 20 0 0 0 
723.519 1265.245 20 0 0 0 
723.019 1266.111 20 0 0 0 
722.519 1266.977 20 0 0 0 
722.019 1267.843 20 0 0 0 
721.519 1268.709 20 0 0 0 
721.019 1269.575 20 0 0 0 
720.519 1270.441 20 0 0 0 
720.019 1271.307 20 0 0 0 
719.519 1272.173 20 0 0 0 
719.019 1273.039 20 0 0 0 
718.519 1273.905 20 0 0 0 
717.019 1276.503 20 0 0 0 
716.519 1277.369 20 0 0 0 
716.019 1278.235 20 0 0 0 
715.519 1279.101 20 0 0 0 
715.019 1279.967 20 0 0 0 
714.519 1280.833 20 0 0 0 
714.019 1281.699 20 0 0 0 
713.519 1282.565 20 0 0 0 
750.519 1218.479 21 0 0 0 
750.019 1219.345 21 0 0 0 
749.519 1220.211 21 0 0 0 
749.019 1221.077 21 0 0 0 
748.519 1221.943 21 0 0 0 
748.019 1222.809 21 0 0 0 
747.519 1223.675 21 0 0 0 
747.019 1224.541 21 0 0 0 
731.519 1251.388 21 0 0 0 
731.019 1252.254 21 0 0 0 
730.519 1253.12 21 0 0 0 
729.019 1255.718 21 0 0 0 
728.519 1256.584 21 0 0 0 
728.019 1257.45 21 0 0 0 
727.519 1258.316 21 0 0 0 
727.019 1259.182 21 0 0 0 
726.519 1260.048 21 0 0 0 
726.019 1260.914 21 0 0 0 
725.519 1261.78 21 0 0 0 
725.019 1262.646 21 0 0 0 
724.519 1263.512 21 0 0 0 
724.019 1264.379 21 0 0 0 
723.519 1265.245 21 0 0 0 
723.019 1266.111 21 0 0 0 
722.519 1266.977 21 0 0 0 
722.019 1267.843 21 0 0 0 
721.519 1268.709 21 0 0 0 
721.019 1269.575 21 0 0 0 
720.519 1270.441 21 0 0 0 
720.019 1271.307 21 0 0 0 
719.519 1272.173 21 0 0 0 
719.019 1273.039 21 0 0 0 
718.519 1273.905 21 0 0 0 
718.019 1274.771 21 0 0 0 
717.519 1275.637 21 0 0 0 
717.019 1276.503 21 0 0 0 
716.519 1277.369 21 0 0 0 
716.019 1278.235 21 0 0 0 
715.519 1279.101 21 0 0 0 
715.019 1279.967 21 0 0 0 
714.519 1280.833 21 0 0 0 
714.019 1281.699 21 0 0 0 
713.519 1282.565 21 0 0 0 
750.019 1219.345 22 0 0 0 
749.519 1220.211 22 0 0 0 
749.019 1221.077 22 0 0 0 
733.519 1247.924 22 0 0 0 
733.019 1248.79 22 0 0 0 
732.519 1249.656 22 0 0 0 
732.019 1250.522 22 0 0 0 
731.519 1251.388 22 0 0 0 
731.019 1252.254 22 0 0 0 
730.519 1253.12 22 0 0 0 
730.019 1253.986 22 0 0 0 
729.519 1254.852 22 0 0 0 
729.019 1255.718 22 0 0 0 
728.519 1256.584 22 0 0 0 
728.019 1257.45 22 0 0 0 
727.519 1258.316 22 0 0 0 
727.019 1259.182 22 0 0 0 
726.519 1260.048 22 0 0 0 
726.019 1260.914 22 0 0 0 
725.519 1261.78 22 0 0 0 
725.019 1262.646 22 0 0 0 
724.519 1263.512 22 0 0 0 
720.019 1271.307 22 0 0 0 
719.519 1272.173 22 0 0 0 
719.019 1273.039 22 0 0 0 
718.519 1273.905 22 0 0 0 
718.019 1274.771 22 0 0 0 
717.519 1275.637 22 0 0 0 
717.019 1276.503 22 0 0 0 
716.519 1277.369 22 0 0 0 
716.019 1278.235 22 0 0 0 
715.519 1279.101 22 0 0 0 
715.019 1279.967 22 0 0 0 
714.519 1280.833 22 0 0 0 
714.019 1281.699 22 0 0 0 
735.519 1244.46 23 0 0 0 
735.019 1245.326 23 0 0 0 
734.519 1246.192 23 0 0 0 
734.019 1247.058 23 0 0 0 
733.519 1247.924 23 0 0 0 
733.019 1248.79 23 0 0 0 
732.519 1249.656 23 0 0 0 
732.019 1250.522 23 0 0 0 
731.519 1251.388 23 0 0 0 
731.019 1252.254 23 0 0 0 
730.519 1253.12 23 0 0 0 
730.019 1253.986 23 0 0 0 
729.519 1254.852 23 0 0 0 
729.019 1255.718 23 0 0 0 
728.519 1256.584 23 0 0 0 
728.019 1257.45 23 0 0 0 
727.519 1258.316 23 0 0 0 
727.019 1259.182 23 0 0 0 
726.519 1260.048 23 0 0 0 
726.019 1260.914 23 0 0 0 
725.519 1261.78 23 0 0 0 
716.519 1277.369 23 0 0 0 
716.019 1278.235 23 0 0 0 
715.519 1279.101 23 0 0 0 
715.019 1279.967 23 0 0 0 
714.519 1280.833 23 0 0 0 
792.019 1146.599 24 0 0 0 
753.019 1214.149 24 0 0 0 
752.519 1215.015 24 0 0 0 
752.019 1215.881 24 0 0 0 
751.519 1216.747 24 0 0 0 
751.019 1217.613 24 0 0 0 
750.519 1218.479 24 0 0 0 
750.019 1219.345 24 0 0 0 
749.519 1220.211 24 0 0 0 
749.019 1221.077 24 0 0 0 
748.519 1221.943 24 0 0 0 
748.019 1222.809 24 0 0 0 
742.519 1232.336 24 0 0 0 
742.019 1233.202 24 0 0 0 
741.519 1234.068 24 0 0 0 
741.019 1234.934 24 0 0 0 
740.519 1235.8 24 0 0 0 
740.019 1236.666 24 0 0 0 
739.519 1237.532 24 0 0 0 
739.019 1238.398 24 0 0 0 
738.519 1239.264 24 0 0 0 
738.019 1240.13 24 0 0 0 
737.519 1240.996 24 0 0 0 
737.019 1241.862 24 0 0 0 
736.519 1242.728 24 0 0 0 
736.019 1243.594 24 0 0 0 
735.519 1244.46 24 0 0 0 
735.019 1245.326 24 0 0 0 
734.519 1246.192 24 0 0 0 
734.019 1247.058 24 0 0 0 
733.519 1247.924 24 0 0 0 
733.019 1248.79 24 0 0 0 
732.519 1249.656 24 0 0 0 
732.019 1250.522 24 0 0 0 
731.519 1251.388 24 0 0 0 
731.019 1252.254 24 0 0 0 
730.519 1253.12 24 0 0 0 
730.019 1253.986 24 0 0 0 
729.519 1254.852 24 0 0 0 
729.019 1255.718 24 0 0 0 
792.019 1146.599 25 0 0 0 
791.519 1147.465 25 0 0 0 
791.019 1148.331 25 0 0 0 
790.519 1149.197 25 0 0 0 
790.019 1150.063 25 0 0 0 
789.519 1150.929 25 0 0 0 
789.019 1151.795 25 0 0 0 
788.519 1152.661 25 0 0 0 
788.019 1153.527 25 0 0 0 
787.519 1154.393 25 0 0 0 
787.019 1155.259 25 0 0 0 
786.519 1156.125 25 0 0 0 
786.019 1156.991 25 0 0 0 
785.519 1157.857 25 0 0 0 
781.019 1165.652 25 0 0 0 
780.519 1166.518 25 0 0 0 
758.019 1205.489 25 0 0 0 
757.519 1206.355 25 0 0 0 
757.019 1207.221 25 0 0 0 
756.519 1208.087 25 0 0 0 
756.019 1208.953 25 0 0 0 
755.519 1209.819 25 0 0 0 
755.019 1210.685 25 0 0 0 
754.519 1211.551 25 0 0 0 
754.019 1212.417 25 0 0 0 
753.519 1213.283 25 0 0 0 
753.019 1214.149 25 0 0 0 
752.519 1215.015 25 0 0 0 
752.019 1215.881 25 0 0 0 
751.519 1216.747 25 0 0 0 
751.019 1217.613 25 0 0 0 
750.519 1218.479 25 0 0 0 
750.019 1219.345 25 0 0 0 
749.519 1220.211 25 0 0 0 
749.019 1221.077 25 0 0 0 
748.519 1221.943 25 0 0 0 
748.019 1222.809 25 0 0 0 
747.519 1223.675 25 0 0 0 
747.019 1224.541 25 0 0 0 
746.519 1225.407 25 0 0 0 
746.019 1226.273 25 0 0 0 
745.519 1227.139 25 0 0 0 
745.019 1228.005 25 0 0 0 
744.519 1228.871 25 0 0 0 
744.019 1229.738 25 0 0 0 
743.519 1230.604 25 0 0 0 
743.019 1231.47 25 0 0 0 
742.519 1232.336 25 0 0 0 
742.019 1233.202 25 0 0 0 
741.519 1234.068 25 0 0 0 
741.019 1234.934 25 0 0 0 
740.519 1235.8 25 0 0 0 
740.019 1236.666 25 0 0 0 
739.519 1237.532 25 0 0 0 
739.019 1238.398 25 0 0 0 
738.519 1239.264 25 0 0 0 
738.019 1240.13 25 0 0 0 
737.519 1240.996 25 0 0 0 
737.019 1241.862 25 0 0 0 
736.519 1242.728 25 0 0 0 
736.019 1243.594 25 0 0 0 
735.519 1244.46 25 0 0 0 
735.019 1245.326 25 0 0 0 
734.519 1246.192 25 0 0 0 
734.019 1247.058 25 0 0 0 
733.519 1247.924 25 0 0 0 
733.019 1248.79 25 0 0 0 
732.519 1249.656 25 0 0 0 
732.019 1250.522 25 0 0 0 
792.019 1146.599 26 0 0 0 
791.519 1147.465 26 0 0 0 
791.019 1148.331 26 0 0 0 
790.519 1149.197 26 0 0 0 
790.019 1150.063 26 0 0 0 
789.519 1150.929 26 0 0 0 
789.019 1151.795 26 0 0 0 
788.519 1152.661 26 0 0 0 
788.019 1153.527 26 0 0 0 
787.519 1154.393 26 0 0 0 
787.019 1155.259 26 0 0 0 
786.519 1156.125 26 0 0 0 
786.019 1156.991 26 0 0 0 
785.519 1157.857 26 0 0 0 
785.019 1158.723 26 0 0 0 
784.519 1159.589 26 0 0 0 
784.019 1160.456 26 0 0 0 
783.519 1161.322 26 0 0 0 
783.019 1162.188 26 0 0 0 
782.519 1163.053 26 0 0 0 
782.019 1163.92 26 0 0 0 
781.519 1164.786 26 0 0 0 
781.019 1165.652 26 0 0 0 
780.519 1166.518 26 0 0 0 
780.019 1167.384 26 0 0 0 
779.519 1168.25 26 0 0 0 
779.019 1169.116 26 0 0 0 
778.519 1169.982 26 0 0 0 
778.019 1170.848 26 0 0 0 
777.519 1171.714 26 0 0 0 
777.019 1172.58 26 0 0 0 
776.519 1173.446 26 0 0 0 
776.019 1174.312 26 0 0 0 
775.519 1175.178 26 0 0 0 
775.019 1176.044 26 0 0 0 
774.519 1176.91 26 0 0 0 
774.019 1177.776 26 0 0 0 
767.519 1189.034 26 0 0 0 
767.019 1189.9 26 0 0 0 
766.519 1190.766 26 0 0 0 
766.019 1191.632 26 0 0 0 
765.519 1192.498 26 0 0 0 
765.019 1193.364 26 0 0 0 
764.519 1194.23 26 0 0 0 
764.019 1195.096 26 0 0 0 
763.519 1195.963 26 0 0 0 
763.019 1196.828 26 0 0 0 
762.519 1197.695 26 0 0 0 
762.019 1198.561 26 0 0 0 
761.519 1199.427 26 0 0 0 
761.019 1200.293 26 0 0 0 
760.519 1201.159 26 0 0 0 
760.019 1202.025 26 0 0 0 
759.519 1202.891 26 0 0 0 
759.019 1203.757 26 0 0 0 
758.519 1204.623 26 0 0 0 
758.019 1205.489 26 0 0 0 
757.519 1206.355 26 0 0 0 
757.019 1207.221 26 0 0 0 
756.519 1208.087 26 0 0 0 
756.019 1208.953 26 0 0 0 
755.519 1209.819 26 0 0 0 
755.019 1210.685 26 0 0 0 
754.519 1211.551 26 0 0 0 
754.019 1212.417 26 0 0 0 
753.519 1213.283 26 0 0 0 
753.019 1214.149 26 0 0 0 
752.519 1215.015 26 0 0 0 
752.019 1215.881 26 0 0 0 
751.519 1216.747 26 0 0 0 
751.019 1217.613 26 0 0 0 
750.519 1218.479 26 0 0 0 
750.019 1219.345 26 0 0 0 
749.519 1220.211 26 0 0 0 
749.019 1221.077 26 0 0 0 
748.519 1221.943 26 0 0 0 
748.019 1222.809 26 0 0 0 
747.519 1223.675 26 0 0 0 
747.019 1224.541 26 0 0 0 
746.519 1225.407 26 0 0 0 
746.019 1226.273 26 0 0 0 
745.519 1227.139 26 0 0 0 
745.019 1228.005 26 0 0 0 
744.519 1228.871 26 0 0 0 
744.019 1229.738 26 0 0 0 
743.519 1230.604 26 0 0 0 
743.019 1231.47 26 0 0 0 
742.519 1232.336 26 0 0 0 
742.019 1233.202 26 0 0 0 
741.519 1234.068 26 0 0 0 
741.019 1234.934 26 0 0 0 
740.519 1235.8 26 0 0 0 
740.019 1236.666 26 0 0 0 
739.519 1237.532 26 0 0 0 
739.019 1238.398 26 0 0 0 
738.519 1239.264 26 0 0 0 
738.019 1240.13 26 0 0 0 
737.519 1240.996 26 0 0 0 
737.019 1241.862 26 0 0 0 
736.519 1242.728 26 0 0 0 
736.019 1243.594 26 0 0 0 
735.519 1244.46 26 0 0 0 
735.019 1245.326 26 0 0 0 
792.019 1146.599 27 0 0 0 
791.519 1147.465 27 0 0 0 
791.019 1148.331 27 0 0 0 
790.519 1149.197 27 0 0 0 
790.019 1150.063 27 0 0 0 
789.519 1150.929 27 0 0 0 
789.019 1151.795 27 0 0 0 
788.519 1152.661 27 0 0 0 
788.019 1153.527 27 0 0 0 
787.519 1154.393 27 0 0 0 
787.019 1155.259 27 0 0 0 
786.519 1156.125 27 0 0 0 
786.019 1156.991 27 0 0 0 
785.519 1157.857 27 0 0 0 
785.019 1158.723 27 0 0 0 
784.519 1159.589 27 0 0 0 
784.019 1160.456 27 0 0 0 
783.519 1161.322 27 0 0 0 
783.019 1162.188 27 0 0 0 
782.519 1163.053 27 0 0 0 
782.019 1163.92 27 0 0 0 
781.519 1164.786 27 0 0 0 
781.019 1165.652 27 0 0 0 
780.519 1166.518 27 0 0 0 
780.019 1167.384 27 0 0 0 
779.519 1168.25 27 0 0 0 
779.019 1169.116 27 0 0 0 
778.519 1169.982 27 0 0 0 
778.019 1170.848 27 0 0 0 
777.519 1171.714 27 0 0 0 
777.019 1172.58 27 0 0 0 
776.519 1173.446 27 0 0 0 
776.019 1174.312 27 0 0 0 
775.519 1175.178 27 0 0 0 
775.019 1176.044 27 0 0 0 
774.519 1176.91 27 0 0 0 
774.019 1177.776 27 0 0 0 
773.519 1178.642 27 0 0 0 
773.019 1179.508 27 0 0 0 
772.519 1180.374 27 0 0 0 
772.019 1181.24 27 0 0 0 
771.519 1182.106 27 0 0 0 
771.019 1182.972 27 0 0 0 
770.519 1183.838 27 0 0 0 
770.019 1184.704 27 0 0 0 
769.519 1185.57 27 0 0 0 
769.019 1186.436 27 0 0 0 
768.519 1187.302 27 0 0 0 
768.019 1188.168 27 0 0 0 
767.519 1189.034 27 0 0 0 
767.019 1189.9 27 0 0 0 
766.519 1190.766 27 0 0 0 
766.019 1191.632 27 0 0 0 
765.519 1192.498 27 0 0 0 
765.019 1193.364 27 0 0 0 
764.519 1194.23 27 0 0 0 
764.019 1195.096 27 0 0 0 
763.519 1195.963 27 0 0 0 
763.019 1196.828 27 0 0 0 
762.519 1197.695 27 0 0 0 
762.019 1198.561 27 0 0 0 
761.519 1199.427 27 0 0 0 
761.019 1200.293 27 0 0 0 
760.519 1201.159 27 0 0 0 
760.019 1202.025 27 0 0 0 
759.519 1202.891 27 0 0 0 
759.019 1203.757 27 0 0 0 
758.519 1204.623 27 0 0 0 
758.019 1205.489 27 0 0 0 
757.519 1206.355 27 0 0 0 
757.019 1207.221 27 0 0 0 
756.519 1208.087 27 0 0 0 
756.019 1208.953 27 0 0 0 
755.519 1209.819 27 0 0 0 
755.019 1210.685 27 0 0 0 
754.519 1211.551 27 0 0 0 
754.019 1212.417 27 0 0 0 
753.519 1213.283 27 0 0 0 
753.019 1214.149 27 0 0 0 
752.519 1215.015 27 0 0 0 
752.019 1215.881 27 0 0 0 
746.019 1226.273 27 0 0 0 
745.519 1227.139 27 0 0 0 
745.019 1228.005 27 0 0 0 
744.519 1228.871 27 0 0 0 
744.019 1229.738 27 0 0 0 
743.519 1230.604 27 0 0 0 
743.019 1231.47 27 0 0 0 
742.519 1232.336 27 0 0 0 
742.019 1233.202 27 0 0 0 
741.519 1234.068 27 0 0 0 
741.019 1234.934 27 0 0 0 
740.519 1235.8 27 0 0 0 
740.019 1236.666 27 0 0 0 
739.519 1237.532 27 0 0 0 
790.019 1150.063 28 0 0 0 
789.519 1150.929 28 0 0 0 
785.019 1158.723 28 0 0 0 
784.519 1159.589 28 0 0 0 
784.019 1160.456 28 0 0 0 
783.519 1161.322 28 0 0 0 
783.019 1162.188 28 0 0 0 
782.519 1163.053 28 0 0 0 
782.019 1163.92 28 0 0 0 
781.519 1164.786 28 0 0 0 
781.019 1165.652 28 0 0 0 
780.519 1166.518 28 0 0 0 
780.019 1167.384 28 0 0 0 
779.519 1168.25 28 0 0 0 
779.019 1169.116 28 0 0 0 
778.519 1169.982 28 0 0 0 
778.019 1170.848 28 0 0 0 
777.519 1171.714 28 0 0 0 
777.019 1172.58 28 0 0 0 
776.519 1173.446 28 0 0 0 
776.019 1174.312 28 0 0 0 
775.519 1175.178 28 0 0 0 
775.019 1176.044 28 0 0 0 
774.519 1176.91 28 0 0 0 
774.019 1177.776 28 0 0 0 
773.519 1178.642 28 0 0 0 
773.019 1179.508 28 0 0 0 
772.519 1180.374 28 0 0 0 
772.019 1181.24 28 0 0 0 
771.519 1182.106 28 0 0 0 
771.019 1182.972 28 0 0 0 
770.519 1183.838 28 0 0 0 
770.019 1184.704 28 0 0 0 
769.519 1185.57 28 0 0 0 
769.019 1186.436 28 0 0 0 
768.519 1187.302 28 0 0 0 
768.019 1188.168 28 0 0 0 
767.519 1189.034 28 0 0 0 
767.019 1189.9 28 0 0 0 
766.519 1190.766 28 0 0 0 
766.019 1191.632 28 0 0 0 
765.519 1192.498 28 0 0 0 
765.019 1193.364 28 0 0 0 
764.519 1194.23 28 0 0 0 
764.019 1195.096 28 0 0 0 
763.519 1195.963 28 0 0 0 
763.019 1196.828 28 0 0 0 
762.519 1197.695 28 0 0 0 
762.019 1198.561 28 0 0 0 
761.519 1199.427 28 0 0 0 
761.019 1200.293 28 0 0 0 
760.519 1201.159 28 0 0 0 
760.019 1202.025 28 0 0 0 
759.519 1202.891 28 0 0 0 
759.019 1203.757 28 0 0 0 
758.519 1204.623 28 0 0 0 
758.019 1205.489 28 0 0 0 
757.519 1206.355 28 0 0 0 
757.019 1207.221 28 0 0 0 
756.519 1208.087 28 0 0 0 
756.019 1208.953 28 0 0 0 
755.519 1209.819 28 0 0 0 
755.019 1210.685 28 0 0 0 
754.519 1211.551 28 0 0 0 
780.019 1167.384 29 0 0 0 
779.519 1168.25 29 0 0 0 
779.019 1169.116 29 0 0 0 
778.519 1169.982 29 0 0 0 
778.019 1170.848 29 0 0 0 
777.519 1171.714 29 0 0 0 
777.019 1172.58 29 0 0 0 
776.519 1173.446 29 0 0 0 
776.019 1174.312 29 0 0 0 
775.519 1175.178 29 0 0 0 
775.019 1176.044 29 0 0 0 
774.519 1176.91 29 0 0 0 
774.019 1177.776 29 0 0 0 
773.519 1178.642 29 0 0 0 
773.019 1179.508 29 0 0 0 
772.519 1180.374 29 0 0 0 
772.019 1181.24 29 0 0 0 
771.519 1182.106 29 0 0 0 
771.019 1182.972 29 0 0 0 
770.519 1183.838 29 0 0 0 
770.019 1184.704 29 0 0 0 
769.519 1185.57 29 0 0 0 
769.019 1186.436 29 0 0 0 
768.519 1187.302 29 0 0 0 
768.019 1188.168 29 0 0 0 
767.519 1189.034 29 0 0 0 
767.019 1189.9 29 0 0 0 
766.519 1190.766 29 0 0 0 
766.019 1191.632 29 0 0 0 
765.519 1192.498 29 0 0 0 
765.019 1193.364 29 0 0 0 
764.519 1194.23 29 0 0 0 
764.019 1195.096 29 0 0 0 
763.519 1195.963 29 0 0 0 
763.019 1196.828 29 0 0 0 
762.519 1197.695 29 0 0 0 
762.019 1198.561 29 0 0 0 
761.519 1199.427 29 0 0 0 
761.019 1200.293 29 0 0 0 
775.019 1176.044 30 0 0 0 
774.519 1176.91 30 0 0 0 
774.019 1177.776 30 0 0 0 
