ply
format ascii 1.0
element vertex 1760
property float x
property float y
property float z
element face 0
property list uchar int vertex_index
end_header
1093.0865 313.8445 -8.4485
1094.0000 509.0000 0.0000
1040.0000 517.0000 53.0000
1040.0000 353.0000 -92.0000
1040.0000 353.0000 -92.0000
1040.0000 353.0000 -92.0000
1093.0865 516.3025 7.3565
1032.4015 510.8695 52.1685
1034.3455 349.6975 -91.9845
1032.4015 349.9855 -90.0765
1046.8985 360.5585 -90.0765
1090.5120 521.8800 14.7920
1023.2720 502.4960 49.8080
1025.8640 349.9200 -87.2960
1023.2720 350.3040 -84.7520
1054.1280 372.8080 -84.7520
1086.5255 525.8375 22.1055
1013.1605 492.3565 46.1195
1015.4285 353.1125 -78.9215
1013.1605 353.4485 -76.6955
1061.4395 388.6595 -76.6955
1081.3760 528.2800 29.0960
1002.6160 480.9280 41.3040
1003.9120 358.7200 -67.8480
1002.6160 358.9120 -66.5760
1068.5840 407.0240 -66.5760
1075.3125 529.3125 35.5625
992.1875 468.6875 35.5625
992.1875 366.1875 -55.0625
992.1875 366.1875 -55.0625
1075.3125 426.8125 -55.0625
1068.5840 529.0400 41.3040
982.4240 456.1120 29.0960
981.1280 374.9600 -41.5520
982.4240 374.7680 -42.8240
1081.3760 446.9360 -42.8240
1061.4395 527.5675 46.1195
973.8745 443.6785 22.1055
971.6065 384.4825 -28.3035
973.8745 384.1465 -30.5295
1086.5255 466.3055 -30.5295
1054.1280 525.0000 49.8080
967.0880 431.8640 14.7920
964.4960 394.2000 -16.3040
967.0880 393.8160 -18.8480
1090.5120 483.8320 -18.8480
1046.8985 521.4425 52.1685
962.6135 421.1455 7.3565
960.6695 403.5575 -6.5405
962.6135 403.2695 -8.4485
1093.0865 498.4265 -8.4485
1094.0000 509.0000 0.0000
1040.0000 518.0000 53.0000
1040.0000 354.0000 -92.0000
1040.0000 354.0000 -92.0000
1040.0000 354.0000 -92.0000
1093.0865 516.3260 7.3565
1032.4015 511.9100 52.1685
1034.3455 350.7020 -91.9845
1032.4015 351.0260 -90.0765
1046.8985 361.4900 -90.0765
1090.5120 521.9680 14.7920
1023.2720 503.5600 49.8080
1025.8640 350.9360 -87.2960
1023.2720 351.3680 -84.7520
1054.1280 373.6400 -84.7520
1086.5255 526.0220 22.1055
1013.1605 493.4300 46.1195
1015.4285 354.1440 -78.9215
1013.1605 354.5220 -76.6955
1061.4395 389.3700 -76.6955
1081.3760 528.5840 29.0960
1002.6160 482.0000 41.3040
1003.9120 359.7680 -67.8480
1002.6160 359.9840 -66.5760
1068.5840 407.6000 -66.5760
1075.3125 529.7500 35.5625
992.1875 469.7500 35.5625
992.1875 367.2500 -55.0625
992.1875 367.2500 -55.0625
1075.3125 427.2500 -55.0625
1068.5840 529.6160 41.3040
982.4240 457.1600 29.0960
981.1280 376.0320 -41.5520
982.4240 375.8160 -42.8240
1081.3760 447.2400 -42.8240
1061.4395 528.2780 46.1195
973.8745 444.7100 22.1055
971.6065 385.5560 -28.3035
973.8745 385.1780 -30.5295
1086.5255 466.4900 -30.5295
1054.1280 525.8320 49.8080
967.0880 432.8800 14.7920
964.4960 395.2640 -16.3040
967.0880 394.8320 -18.8480
1090.5120 483.9200 -18.8480
1046.8985 522.3740 52.1685
962.6135 422.1500 7.3565
960.6695 404.5980 -6.5405
962.6135 404.2740 -8.4485
1093.0865 498.4500 -8.4485
1094.0000 510.0000 0.0000
1040.0000 313.0000 54.0000
1040.0000 355.0000 -92.0000
1040.0000 355.0000 -92.0000
1040.0000 355.0000 -92.0000
1093.0865 503.2195 7.4250
1032.4015 311.6825 53.1450
1034.3455 359.9765 -92.0250
1032.4015 352.8845 -90.0810
1046.8985 363.4575 -90.0810
1090.5120 488.3760 14.9600
1023.2720 316.5200 50.7200
1025.8640 364.9520 -87.3600
1023.2720 355.4960 -84.7680
1054.1280 378.0000 -84.7680
1086.5255 467.4165 22.3950
1013.1605 326.1475 46.9350
1015.4285 369.9955 -78.9950
1013.1605 361.7215 -76.7270
1061.4395 396.9325 -76.7270
1081.3760 442.2880 29.5200
1002.6160 339.2000 42.0000
1003.9120 375.1760 -67.9200
1002.6160 370.4480 -66.6240
1068.5840 418.5600 -66.6240
1075.3125 414.9375 36.1250
992.1875 354.3125 36.1250
992.1875 380.5625 -55.1250
992.1875 380.5625 -55.1250
1075.3125 441.1875 -55.1250
1068.5840 387.3120 42.0000
982.4240 370.1200 29.5200
981.1280 386.2240 -41.6000
982.4240 390.9520 -42.8960
1081.3760 463.1200 -42.8960
1061.4395 361.3585 46.9350
973.8745 385.2575 22.3950
971.6065 392.2295 -28.3350
973.8745 400.5035 -30.6030
1086.5255 482.6625 -30.6030
1054.1280 339.0240 50.7200
967.0880 398.3600 14.9600
964.4960 398.6480 -16.3200
967.0880 408.1040 -18.9120
1090.5120 498.1200 -18.9120
1046.8985 322.2555 53.1450
962.6135 408.0625 7.4250
960.6695 405.5485 -6.5450
962.6135 412.6405 -8.4890
1093.0865 507.7975 -8.4890
1094.0000 511.0000 0.0000
1040.0000 314.0000 54.0000
1040.0000 356.0000 -92.0000
1040.0000 356.0000 -92.0000
1040.0000 356.0000 -92.0000
1093.0865 504.2195 7.4250
1032.4015 312.6825 53.1450
1034.3455 360.9765 -92.0250
1032.4015 353.8845 -90.0810
1046.8985 364.4575 -90.0810
1090.5120 489.3760 14.9600
1023.2720 317.5200 50.7200
1025.8640 365.9520 -87.3600
1023.2720 356.4960 -84.7680
1054.1280 379.0000 -84.7680
1086.5255 468.4165 22.3950
1013.1605 327.1475 46.9350
1015.4285 370.9955 -78.9950
1013.1605 362.7215 -76.7270
1061.4395 397.9325 -76.7270
1081.3760 443.2880 29.5200
1002.6160 340.2000 42.0000
1003.9120 376.1760 -67.9200
1002.6160 371.4480 -66.6240
1068.5840 419.5600 -66.6240
1075.3125 415.9375 36.1250
992.1875 355.3125 36.1250
992.1875 381.5625 -55.1250
992.1875 381.5625 -55.1250
1075.3125 442.1875 -55.1250
1068.5840 388.3120 42.0000
982.4240 371.1200 29.5200
981.1280 387.2240 -41.6000
982.4240 391.9520 -42.8960
1081.3760 464.1200 -42.8960
1061.4395 362.3585 46.9350
973.8745 386.2575 22.3950
971.6065 393.2295 -28.3350
973.8745 401.5035 -30.6030
1086.5255 483.6625 -30.6030
1054.1280 340.0240 50.7200
967.0880 399.3600 14.9600
964.4960 399.6480 -16.3200
967.0880 409.1040 -18.9120
1090.5120 499.1200 -18.9120
1046.8985 323.2555 53.1450
962.6135 409.0625 7.4250
960.6695 406.5485 -6.5450
962.6135 413.6405 -8.4890
1093.0865 508.7975 -8.4890
1094.0000 512.0000 0.0000
1040.0000 315.0000 54.0000
1040.0000 419.0000 -92.0000
1040.0000 419.0000 -92.0000
1040.0000 419.0000 -92.0000
1093.0865 502.7085 7.4250
1032.4015 313.4035 53.1450
1034.3455 422.5195 -92.0250
1032.4015 415.4275 -90.0810
1046.8985 426.0005 -90.0810
1090.5120 486.4080 14.9600
1023.2720 317.5280 50.7200
1025.8640 423.4960 -87.3600
1023.2720 414.0400 -84.7680
1054.1280 436.5440 -84.7680
1086.5255 464.8595 22.3950
1013.1605 326.1945 46.9350
1015.4285 422.5565 -78.9950
1013.1605 414.2825 -76.7270
1061.4395 449.4935 -76.7270
1081.3760 439.8240 29.5200
1002.6160 338.2240 42.0000
1003.9120 420.3280 -67.9200
1002.6160 415.6000 -66.6240
1068.5840 463.7120 -66.6240
1075.3125 413.0625 36.1250
992.1875 352.4375 36.1250
992.1875 417.4375 -55.1250
992.1875 417.4375 -55.1250
1075.3125 478.0625 -55.1250
1068.5840 386.3360 42.0000
982.4240 367.6560 29.5200
981.1280 414.5120 -41.6000
982.4240 419.2400 -42.8960
1081.3760 491.4080 -42.8960
1061.4395 361.4055 46.9350
973.8745 382.7005 22.3950
971.6065 412.1785 -28.3350
973.8745 420.4525 -30.6030
1086.5255 502.6115 -30.6030
1054.1280 340.0320 50.7200
967.0880 396.3920 14.9600
964.4960 411.0640 -16.3200
967.0880 420.5200 -18.9120
1090.5120 510.5360 -18.9120
1046.8985 323.9765 53.1450
962.6135 407.5515 7.4250
960.6695 411.7955 -6.5450
962.6135 418.8875 -8.4890
1093.0865 514.0445 -8.4890
1094.0000 512.0000 0.0000
1040.0000 316.0000 54.0000
1040.0000 420.0000 -92.0000
1040.0000 420.0000 -92.0000
1040.0000 420.0000 -92.0000
1093.0865 502.7320 7.4250
1032.4015 314.4440 53.1450
1034.3455 423.5240 -92.0250
1032.4015 416.4680 -90.0810
1046.8985 426.9320 -90.0810
1090.5120 486.4960 14.9600
1023.2720 318.5920 50.7200
1025.8640 424.5120 -87.3600
1023.2720 415.1040 -84.7680
1054.1280 437.3760 -84.7680
1086.5255 465.0440 22.3950
1013.1605 327.2680 46.9350
1015.4285 423.5880 -78.9950
1013.1605 415.3560 -76.7270
1061.4395 450.2040 -76.7270
1081.3760 440.1280 29.5200
1002.6160 339.2960 42.0000
1003.9120 421.3760 -67.9200
1002.6160 416.6720 -66.6240
1068.5840 464.2880 -66.6240
1075.3125 413.5000 36.1250
992.1875 353.5000 36.1250
992.1875 418.5000 -55.1250
992.1875 418.5000 -55.1250
1075.3125 478.5000 -55.1250
1068.5840 386.9120 42.0000
982.4240 368.7040 29.5200
981.1280 415.5840 -41.6000
982.4240 420.2880 -42.8960
1081.3760 491.7120 -42.8960
1061.4395 362.1160 46.9350
973.8745 383.7320 22.3950
971.6065 413.2520 -28.3350
973.8745 421.4840 -30.6030
1086.5255 502.7960 -30.6030
1054.1280 340.8640 50.7200
967.0880 397.4080 14.9600
964.4960 412.1280 -16.3200
967.0880 421.5360 -18.9120
1090.5120 510.6240 -18.9120
1046.8985 324.9080 53.1450
962.6135 408.5560 7.4250
960.6695 412.8360 -6.5450
962.6135 419.8920 -8.4890
1093.0865 514.0680 -8.4890
1094.0000 513.0000 0.0000
1040.0000 516.0000 54.0000
1040.0000 421.0000 -92.0000
1040.0000 421.0000 -92.0000
1040.0000 421.0000 -92.0000
1093.0865 517.3680 7.4250
1032.4015 509.6990 53.1450
1034.3455 416.3960 -92.0250
1032.4015 416.5040 -90.0810
1046.8985 427.0770 -90.0810
1090.5120 520.9440 14.9600
1023.2720 500.9120 50.7200
1025.8640 412.6080 -87.3600
1023.2720 412.7520 -84.7680
1054.1280 435.2560 -84.7680
1086.5255 523.6860 22.3950
1013.1605 490.2630 46.9350
1015.4285 409.6720 -78.9950
1013.1605 409.7980 -76.7270
1061.4395 445.0090 -76.7270
1081.3760 525.5520 29.5200
1002.6160 478.3760 42.0000
1003.9120 407.6240 -67.9200
1002.6160 407.6960 -66.6240
1068.5840 455.8080 -66.6240
1075.3125 526.5000 36.1250
992.1875 465.8750 36.1250
992.1875 406.5000 -55.1250
992.1875 406.5000 -55.1250
1075.3125 467.1250 -55.1250
1068.5840 526.4880 42.0000
982.4240 453.3840 29.5200
981.1280 406.3360 -41.6000
982.4240 406.2640 -42.8960
1081.3760 478.4320 -42.8960
1061.4395 525.4740 46.9350
973.8745 441.5270 22.3950
971.6065 407.1680 -28.3350
973.8745 407.0420 -30.6030
1086.5255 489.2010 -30.6030
1054.1280 523.4160 50.7200
967.0880 430.9280 14.9600
964.4960 409.0320 -16.3200
967.0880 408.8880 -18.9120
1090.5120 498.9040 -18.9120
1046.8985 520.2720 53.1450
962.6135 422.2110 7.4250
960.6695 411.9640 -6.5450
962.6135 411.8560 -8.4890
1093.0865 507.0130 -8.4890
1094.0000 514.0000 0.0000
1040.0000 517.0000 54.0000
1040.0000 422.0000 -92.0000
1040.0000 422.0000 -92.0000
1040.0000 422.0000 -92.0000
1093.0865 518.3680 7.4250
1032.4015 510.6990 53.1450
1034.3455 417.3960 -92.0250
1032.4015 417.5040 -90.0810
1046.8985 428.0770 -90.0810
1090.5120 521.9440 14.9600
1023.2720 501.9120 50.7200
1025.8640 413.6080 -87.3600
1023.2720 413.7520 -84.7680
1054.1280 436.2560 -84.7680
1086.5255 524.6860 22.3950
1013.1605 491.2630 46.9350
1015.4285 410.6720 -78.9950
1013.1605 410.7980 -76.7270
1061.4395 446.0090 -76.7270
1081.3760 526.5520 29.5200
1002.6160 479.3760 42.0000
1003.9120 408.6240 -67.9200
1002.6160 408.6960 -66.6240
1068.5840 456.8080 -66.6240
1075.3125 527.5000 36.1250
992.1875 466.8750 36.1250
992.1875 407.5000 -55.1250
992.1875 407.5000 -55.1250
1075.3125 468.1250 -55.1250
1068.5840 527.4880 42.0000
982.4240 454.3840 29.5200
981.1280 407.3360 -41.6000
982.4240 407.2640 -42.8960
1081.3760 479.4320 -42.8960
1061.4395 526.4740 46.9350
973.8745 442.5270 22.3950
971.6065 408.1680 -28.3350
973.8745 408.0420 -30.6030
1086.5255 490.2010 -30.6030
1054.1280 524.4160 50.7200
967.0880 431.9280 14.9600
964.4960 410.0320 -16.3200
967.0880 409.8880 -18.9120
1090.5120 499.9040 -18.9120
1046.8985 521.2720 53.1450
962.6135 423.2110 7.4250
960.6695 412.9640 -6.5450
962.6135 412.8560 -8.4890
1093.0865 508.0130 -8.4890
1094.0000 515.0000 0.0000
1040.0000 518.0000 54.0000
1040.0000 423.0000 -92.0000
1040.0000 423.0000 -92.0000
1040.0000 423.0000 -92.0000
1093.0865 519.3680 7.4250
1032.4015 511.6990 53.1450
1034.3455 418.3960 -92.0250
1032.4015 418.5040 -90.0810
1046.8985 429.0770 -90.0810
1090.5120 522.9440 14.9600
1023.2720 502.9120 50.7200
1025.8640 414.6080 -87.3600
1023.2720 414.7520 -84.7680
1054.1280 437.2560 -84.7680
1086.5255 525.6860 22.3950
1013.1605 492.2630 46.9350
1015.4285 411.6720 -78.9950
1013.1605 411.7980 -76.7270
1061.4395 447.0090 -76.7270
1081.3760 527.5520 29.5200
1002.6160 480.3760 42.0000
1003.9120 409.6240 -67.9200
1002.6160 409.6960 -66.6240
1068.5840 457.8080 -66.6240
1075.3125 528.5000 36.1250
992.1875 467.8750 36.1250
992.1875 408.5000 -55.1250
992.1875 408.5000 -55.1250
1075.3125 469.1250 -55.1250
1068.5840 528.4880 42.0000
982.4240 455.3840 29.5200
981.1280 408.3360 -41.6000
982.4240 408.2640 -42.8960
1081.3760 480.4320 -42.8960
1061.4395 527.4740 46.9350
973.8745 443.5270 22.3950
971.6065 409.1680 -28.3350
973.8745 409.0420 -30.6030
1086.5255 491.2010 -30.6030
1054.1280 525.4160 50.7200
967.0880 432.9280 14.9600
964.4960 411.0320 -16.3200
967.0880 410.8880 -18.9120
1090.5120 500.9040 -18.9120
1046.8985 522.2720 53.1450
962.6135 424.2110 7.4250
960.6695 413.9640 -6.5450
962.6135 413.8560 -8.4890
1093.0865 509.0130 -8.4890
1094.0000 516.0000 0.0000
1040.0000 519.0000 54.0000
1040.0000 424.0000 -92.0000
1040.0000 424.0000 -92.0000
1040.0000 424.0000 -92.0000
1093.0820 520.7055 7.4250
1032.4700 507.5615 53.1450
1034.4140 414.2585 -92.0250
1032.4700 414.3665 -90.0810
1046.8580 433.1145 -90.0810
1090.4960 525.1440 14.9600
1023.4400 491.3120 50.7200
1026.0320 403.0080 -87.3600
1023.4400 403.1520 -84.7680
1054.0640 443.0560 -84.7680
1086.4940 529.0485 22.3950
1013.4500 471.5505 46.9350
1015.7180 390.9595 -78.9950
1013.4500 391.0855 -76.7270
1061.3660 453.5215 -76.7270
1081.3280 532.1520 29.5200
1003.0400 449.5760 42.0000
1004.3360 378.8240 -67.9200
1003.0400 378.8960 -66.6240
1068.5120 464.2080 -66.6240
1075.2500 534.1875 36.1250
992.7500 426.6875 36.1250
992.7500 367.3125 -55.1250
992.7500 367.3125 -55.1250
1075.2500 474.8125 -55.1250
1068.5120 534.8880 42.0000
983.1200 404.1840 29.5200
981.8240 357.1360 -41.6000
983.1200 357.0640 -42.8960
1081.3280 485.0320 -42.8960
1061.3660 533.9865 46.9350
974.6900 383.3645 22.3950
972.4220 349.0055 -28.3350
974.6900 348.8795 -30.6030
1086.4940 494.5635 -30.6030
1054.0640 531.2160 50.7200
968.0000 365.5280 14.9600
965.4080 343.6320 -16.3200
968.0000 343.4880 -18.9120
1090.4960 503.1040 -18.9120
1046.8580 526.3095 53.1450
963.5900 351.9735 7.4250
961.6460 341.7265 -6.5450
963.5900 341.6185 -8.4890
1093.0820 510.3505 -8.4890
1094.0000 516.0000 0.0000
1040.0000 314.0000 55.0000
1040.0000 425.0000 -92.0000
1040.0000 425.0000 -92.0000
1040.0000 425.0000 -92.0000
1093.0820 506.6225 7.4935
1032.4700 307.3745 54.1215
1034.4140 423.5375 -92.0655
1032.4700 416.2655 -90.0855
1046.8580 435.0135 -90.0855
1090.4960 490.6400 15.1280
1023.4400 304.3360 51.6320
1026.0320 417.0400 -87.4240
1023.4400 407.3440 -84.7840
1054.0640 447.2480 -84.7840
1086.4940 469.6275 22.6845
1013.4500 304.3415 47.7505
1015.7180 406.8425 -79.0685
1013.4500 398.3585 -76.7585
1061.3660 460.7945 -76.7585
1081.3280 445.1600 29.9440
1003.0400 306.8480 42.6960
1004.3360 394.2800 -67.9920
1003.0400 389.4320 -66.6720
1068.5120 474.7440 -66.6720
1075.2500 418.8125 36.6875
992.7500 311.3125 36.6875
992.7500 380.6875 -55.1875
992.7500 380.6875 -55.1875
1075.2500 488.1875 -55.1875
1068.5120 392.1600 42.6960
983.1200 317.1920 29.9440
981.8240 367.4000 -41.6480
983.1200 372.2480 -42.9680
1081.3280 500.2160 -42.9680
1061.3660 366.7775 47.7505
974.6900 323.9435 22.6845
972.4220 355.7525 -28.3665
974.6900 364.2365 -30.6765
1086.4940 509.9205 -30.6765
1054.0640 344.2400 51.6320
968.0000 331.0240 15.1280
965.4080 347.0800 -16.3360
968.0000 356.7760 -18.9760
1090.4960 516.3920 -18.9760
1046.8580 326.1225 54.1215
963.5900 337.8905 7.4935
961.6460 342.7175 -6.5495
963.5900 349.9895 -8.5295
1093.0820 518.7215 -8.5295
1094.0000 517.0000 0.0000
1040.0000 315.0000 55.0000
1040.0000 426.0000 -92.0000
1040.0000 426.0000 -92.0000
1040.0000 426.0000 -92.0000
1093.0820 507.6225 7.4935
1032.4700 308.3745 54.1215
1034.4140 424.5375 -92.0655
1032.4700 417.2655 -90.0855
1046.8580 436.0135 -90.0855
1090.4960 491.6400 15.1280
1023.4400 305.3360 51.6320
1026.0320 418.0400 -87.4240
1023.4400 408.3440 -84.7840
1054.0640 448.2480 -84.7840
1086.4940 470.6275 22.6845
1013.4500 305.3415 47.7505
1015.7180 407.8425 -79.0685
1013.4500 399.3585 -76.7585
1061.3660 461.7945 -76.7585
1081.3280 446.1600 29.9440
1003.0400 307.8480 42.6960
1004.3360 395.2800 -67.9920
1003.0400 390.4320 -66.6720
1068.5120 475.7440 -66.6720
1075.2500 419.8125 36.6875
992.7500 312.3125 36.6875
992.7500 381.6875 -55.1875
992.7500 381.6875 -55.1875
1075.2500 489.1875 -55.1875
1068.5120 393.1600 42.6960
983.1200 318.1920 29.9440
981.8240 368.4000 -41.6480
983.1200 373.2480 -42.9680
1081.3280 501.2160 -42.9680
1061.3660 367.7775 47.7505
974.6900 324.9435 22.6845
972.4220 356.7525 -28.3665
974.6900 365.2365 -30.6765
1086.4940 510.9205 -30.6765
1054.0640 345.2400 51.6320
968.0000 332.0240 15.1280
965.4080 348.0800 -16.3360
968.0000 357.7760 -18.9760
1090.4960 517.3920 -18.9760
1046.8580 327.1225 54.1215
963.5900 338.8905 7.4935
961.6460 343.7175 -6.5495
963.5900 350.9895 -8.5295
1093.0820 519.7215 -8.5295
1094.0000 518.0000 0.0000
1040.0000 316.0000 55.0000
1040.0000 427.0000 -92.0000
1040.0000 427.0000 -92.0000
1040.0000 427.0000 -92.0000
1093.0820 508.6225 7.4935
1032.4700 309.3745 54.1215
1034.4140 425.5375 -92.0655
1032.4700 418.2655 -90.0855
1046.8580 437.0135 -90.0855
1090.4960 492.6400 15.1280
1023.4400 306.3360 51.6320
1026.0320 419.0400 -87.4240
1023.4400 409.3440 -84.7840
1054.0640 449.2480 -84.7840
1086.4940 471.6275 22.6845
1013.4500 306.3415 47.7505
1015.7180 408.8425 -79.0685
1013.4500 400.3585 -76.7585
1061.3660 462.7945 -76.7585
1081.3280 447.1600 29.9440
1003.0400 308.8480 42.6960
1004.3360 396.2800 -67.9920
1003.0400 391.4320 -66.6720
1068.5120 476.7440 -66.6720
1075.2500 420.8125 36.6875
992.7500 313.3125 36.6875
992.7500 382.6875 -55.1875
992.7500 382.6875 -55.1875
1075.2500 490.1875 -55.1875
1068.5120 394.1600 42.6960
983.1200 319.1920 29.9440
981.8240 369.4000 -41.6480
983.1200 374.2480 -42.9680
1081.3280 502.2160 -42.9680
1061.3660 368.7775 47.7505
974.6900 325.9435 22.6845
972.4220 357.7525 -28.3665
974.6900 366.2365 -30.6765
1086.4940 511.9205 -30.6765
1054.0640 346.2400 51.6320
968.0000 333.0240 15.1280
965.4080 349.0800 -16.3360
968.0000 358.7760 -18.9760
1090.4960 518.3920 -18.9760
1046.8580 328.1225 54.1215
963.5900 339.8905 7.4935
961.6460 344.7175 -6.5495
963.5900 351.9895 -8.5295
1093.0820 520.7215 -8.5295
1094.0000 519.0000 0.0000
1040.0000 516.0000 55.0000
1040.0000 348.0000 -91.0000
1040.0000 348.0000 -91.0000
1040.0000 348.0000 -91.0000
1093.0820 526.4940 7.4530
1032.4700 505.0580 54.1170
1034.4140 340.3580 -91.0890
1032.4700 340.2500 -89.1090
1046.8580 358.9980 -89.1090
1090.4960 532.1920 15.0640
1023.4400 490.1040 51.6160
1026.0320 334.3440 -86.5120
1023.4400 334.2000 -83.8720
1054.0640 374.1040 -83.8720
1086.4940 536.1180 22.6110
1013.4500 472.1460 47.7190
1015.7180 329.9760 -78.2530
1013.4500 329.8500 -75.9430
1061.3660 392.2860 -75.9430
1081.3280 538.2960 29.8720
1003.0400 452.1920 42.6480
1004.3360 327.2720 -67.2960
1003.0400 327.2000 -65.9760
1068.5120 412.5120 -65.9760
1075.2500 538.7500 36.6250
992.7500 431.2500 36.6250
992.7500 326.2500 -54.6250
992.7500 326.2500 -54.6250
1075.2500 433.7500 -54.6250
1068.5120 537.5040 42.6480
983.1200 410.3280 29.8720
981.8240 326.9280 -41.2240
983.1200 327.0000 -42.5440
1081.3280 454.9680 -42.5440
1061.3660 534.5820 47.7190
974.6900 390.4340 22.6110
972.4220 329.3240 -28.0770
974.6900 329.4500 -30.3870
1086.4940 475.1340 -30.3870
1054.0640 530.0080 51.6160
968.0000 372.5760 15.0640
965.4080 333.4560 -16.1680
968.0000 333.6000 -18.8080
1090.4960 493.2160 -18.8080
1046.8580 523.8060 54.1170
963.5900 357.7620 7.4530
961.6460 339.3420 -6.4810
963.5900 339.4500 -8.4610
1093.0820 508.1820 -8.4610
1094.0000 519.0000 0.0000
1040.0000 517.0000 55.0000
1040.0000 349.0000 -91.0000
1040.0000 349.0000 -91.0000
1040.0000 349.0000 -91.0000
1093.0820 526.5220 7.4530
1032.4700 506.0300 54.1170
1034.4140 341.2940 -91.0890
1032.4700 341.2220 -89.1090
1046.8580 359.9700 -89.1090
1090.4960 532.2960 15.0640
1023.4400 491.0000 51.6160
1026.0320 335.1920 -86.5120
1023.4400 335.0960 -83.8720
1054.0640 375.0000 -83.8720
1086.4940 536.3340 22.6110
1013.4500 472.9300 47.7190
1015.7180 330.7180 -78.2530
1013.4500 330.6340 -75.9430
1061.3660 393.0700 -75.9430
1081.3280 538.6480 29.8720
1003.0400 452.8400 42.6480
1004.3360 327.8960 -67.2960
1003.0400 327.8480 -65.9760
1068.5120 413.1600 -65.9760
1075.2500 539.2500 36.6250
992.7500 431.7500 36.6250
992.7500 326.7500 -54.6250
992.7500 326.7500 -54.6250
1075.2500 434.2500 -54.6250
1068.5120 538.1520 42.6480
983.1200 410.6800 29.8720
981.8240 327.3040 -41.2240
983.1200 327.3520 -42.5440
1081.3280 455.3200 -42.5440
1061.3660 535.3660 47.7190
974.6900 390.6500 22.6110
972.4220 329.5820 -28.0770
974.6900 329.6660 -30.3870
1086.4940 475.3500 -30.3870
1054.0640 530.9040 51.6160
968.0000 372.6800 15.0640
965.4080 333.6080 -16.1680
968.0000 333.7040 -18.8080
1090.4960 493.3200 -18.8080
1046.8580 524.7780 54.1170
963.5900 357.7900 7.4530
961.6460 339.4060 -6.4810
963.5900 339.4780 -8.4610
1093.0820 508.2100 -8.4610
1094.0000 520.0000 0.0000
1040.0000 518.0000 55.0000
1040.0000 350.0000 -91.0000
1040.0000 350.0000 -91.0000
1040.0000 350.0000 -91.0000
1093.0820 527.5220 7.4530
1032.4700 507.0300 54.1170
1034.4140 342.2940 -91.0890
1032.4700 342.2220 -89.1090
1046.8580 360.9700 -89.1090
1090.4960 533.2960 15.0640
1023.4400 492.0000 51.6160
1026.0320 336.1920 -86.5120
1023.4400 336.0960 -83.8720
1054.0640 376.0000 -83.8720
1086.4940 537.3340 22.6110
1013.4500 473.9300 47.7190
1015.7180 331.7180 -78.2530
1013.4500 331.6340 -75.9430
1061.3660 394.0700 -75.9430
1081.3280 539.6480 29.8720
1003.0400 453.8400 42.6480
1004.3360 328.8960 -67.2960
1003.0400 328.8480 -65.9760
1068.5120 414.1600 -65.9760
1075.2500 540.2500 36.6250
992.7500 432.7500 36.6250
992.7500 327.7500 -54.6250
992.7500 327.7500 -54.6250
1075.2500 435.2500 -54.6250
1068.5120 539.1520 42.6480
983.1200 411.6800 29.8720
981.8240 328.3040 -41.2240
983.1200 328.3520 -42.5440
1081.3280 456.3200 -42.5440
1061.3660 536.3660 47.7190
974.6900 391.6500 22.6110
972.4220 330.5820 -28.0770
974.6900 330.6660 -30.3870
1086.4940 476.3500 -30.3870
1054.0640 531.9040 51.6160
968.0000 373.6800 15.0640
965.4080 334.6080 -16.1680
968.0000 334.7040 -18.8080
1090.4960 494.3200 -18.8080
1046.8580 525.7780 54.1170
963.5900 358.7900 7.4530
961.6460 340.4060 -6.4810
963.5900 340.4780 -8.4610
1093.0820 509.2100 -8.4610
1094.0000 521.0000 0.0000
1040.0000 519.0000 55.0000
1040.0000 351.0000 -91.0000
1040.0000 351.0000 -91.0000
1040.0000 351.0000 -91.0000
1093.0820 528.5220 7.4530
1032.4700 508.0300 54.1170
1034.4140 343.2940 -91.0890
1032.4700 343.2220 -89.1090
1046.8580 361.9700 -89.1090
1090.4960 534.2960 15.0640
1023.4400 493.0000 51.6160
1026.0320 337.1920 -86.5120
1023.4400 337.0960 -83.8720
1054.0640 377.0000 -83.8720
1086.4940 538.3340 22.6110
1013.4500 474.9300 47.7190
1015.7180 332.7180 -78.2530
1013.4500 332.6340 -75.9430
1061.3660 395.0700 -75.9430
1081.3280 540.6480 29.8720
1003.0400 454.8400 42.6480
1004.3360 329.8960 -67.2960
1003.0400 329.8480 -65.9760
1068.5120 415.1600 -65.9760
1075.2500 541.2500 36.6250
992.7500 433.7500 36.6250
992.7500 328.7500 -54.6250
992.7500 328.7500 -54.6250
1075.2500 436.2500 -54.6250
1068.5120 540.1520 42.6480
983.1200 412.6800 29.8720
981.8240 329.3040 -41.2240
983.1200 329.3520 -42.5440
1081.3280 457.3200 -42.5440
1061.3660 537.3660 47.7190
974.6900 392.6500 22.6110
972.4220 331.5820 -28.0770
974.6900 331.6660 -30.3870
1086.4940 477.3500 -30.3870
1054.0640 532.9040 51.6160
968.0000 374.6800 15.0640
965.4080 335.6080 -16.1680
968.0000 335.7040 -18.8080
1090.4960 495.3200 -18.8080
1046.8580 526.7780 54.1170
963.5900 359.7900 7.4530
961.6460 341.4060 -6.4810
963.5900 341.4780 -8.4610
1093.0820 510.2100 -8.4610
1094.0000 522.0000 0.0000
1040.0000 314.0000 56.0000
1040.0000 352.0000 -91.0000
1040.0000 352.0000 -91.0000
1040.0000 352.0000 -91.0000
1093.0820 515.1320 7.5215
1032.4700 312.1180 55.0935
1034.4140 356.8840 -91.1295
1032.4700 349.3960 -89.1135
1046.8580 361.3860 -89.1135
1090.4960 499.6960 15.2320
1023.4400 316.5440 52.5280
1026.0320 361.7920 -86.5760
1023.4400 351.8080 -83.8880
1054.0640 377.3280 -83.8880
1086.4940 477.7440 22.9005
1013.4500 325.8860 48.5345
1015.7180 366.8080 -78.3265
1013.4500 358.0720 -75.9745
1061.3660 398.0020 -75.9745
1081.3280 451.3280 30.2960
1003.0400 338.7520 43.3440
1004.3360 372.0160 -67.3680
1003.0400 367.0240 -66.0240
1068.5120 421.5840 -66.0240
1075.2500 422.5000 37.1875
992.7500 353.7500 37.1875
992.7500 377.5000 -54.6875
992.7500 377.5000 -54.6875
1075.2500 446.2500 -54.6875
1068.5120 393.3120 43.3440
983.1200 369.4880 30.2960
981.8240 383.3440 -41.2720
983.1200 388.3360 -42.6160
1081.3280 470.1760 -42.6160
1061.3660 365.8160 48.5345
974.6900 384.5740 22.9005
972.4220 389.6320 -28.1085
974.6900 398.3680 -30.4605
1086.4940 491.5380 -30.4605
1054.0640 342.0640 52.5280
968.0000 397.6160 15.2320
965.4080 396.4480 -16.1840
968.0000 406.4320 -18.8720
1090.4960 508.5120 -18.8720
1046.8580 324.1080 55.0935
963.5900 407.2220 7.5215
961.6460 403.8760 -6.4855
963.5900 411.3640 -8.5015
1093.0820 519.2740 -8.5015
1094.0000 523.0000 0.0000
1040.0000 315.0000 56.0000
1040.0000 353.0000 -91.0000
1040.0000 353.0000 -91.0000
1040.0000 353.0000 -91.0000
1093.0820 516.1365 7.5215
1032.4700 313.0495 55.0935
1034.4140 357.8155 -91.1295
1032.4700 350.3275 -89.1135
1046.8580 362.4265 -89.1135
1090.4960 500.7120 15.2320
1023.4400 317.3760 52.5280
1026.0320 362.6240 -86.5760
1023.4400 352.6400 -83.8880
1054.0640 378.3920 -83.8880
1086.4940 478.7755 22.9005
1013.4500 326.5965 48.5345
1015.7180 367.5185 -78.3265
1013.4500 358.7825 -75.9745
1061.3660 399.0755 -75.9745
1081.3280 452.3760 30.2960
1003.0400 339.3280 43.3440
1004.3360 372.5920 -67.3680
1003.0400 367.6000 -66.0240
1068.5120 422.6560 -66.0240
1075.2500 423.5625 37.1875
992.7500 354.1875 37.1875
992.7500 377.9375 -54.6875
992.7500 377.9375 -54.6875
1075.2500 447.3125 -54.6875
1068.5120 394.3840 43.3440
983.1200 369.7920 30.2960
981.8240 383.6480 -41.2720
983.1200 388.6400 -42.6160
1081.3280 471.2240 -42.6160
1061.3660 366.8895 48.5345
974.6900 384.7585 22.9005
972.4220 389.8165 -28.1085
974.6900 398.5525 -30.4605
1086.4940 492.5695 -30.4605
1054.0640 343.1280 52.5280
968.0000 397.7040 15.2320
965.4080 396.5360 -16.1840
968.0000 406.5200 -18.8720
1090.4960 509.5280 -18.8720
1046.8580 325.1485 55.0935
963.5900 407.2455 7.5215
961.6460 403.8995 -6.4855
963.5900 411.3875 -8.5015
1093.0820 520.2785 -8.5015
1094.0000 523.0000 0.0000
1040.0000 316.0000 56.0000
1040.0000 354.0000 -91.0000
1040.0000 354.0000 -91.0000
1040.0000 354.0000 -91.0000
1093.0820 516.1600 7.5215
1032.4700 314.0900 55.0935
1034.4140 358.8200 -91.1295
1032.4700 351.3680 -89.1135
1046.8580 363.3580 -89.1135
1090.4960 500.8000 15.2320
1023.4400 318.4400 52.5280
1026.0320 363.6400 -86.5760
1023.4400 353.7040 -83.8880
1054.0640 379.2240 -83.8880
1086.4940 478.9600 22.9005
1013.4500 327.6700 48.5345
1015.7180 368.5500 -78.3265
1013.4500 359.8560 -75.9745
1061.3660 399.7860 -75.9745
1081.3280 452.6800 30.2960
1003.0400 340.4000 43.3440
1004.3360 373.6400 -67.3680
1003.0400 368.6720 -66.0240
1068.5120 423.2320 -66.0240
1075.2500 424.0000 37.1875
992.7500 355.2500 37.1875
992.7500 379.0000 -54.6875
992.7500 379.0000 -54.6875
1075.2500 447.7500 -54.6875
1068.5120 394.9600 43.3440
983.1200 370.8400 30.2960
981.8240 384.7200 -41.2720
983.1200 389.6880 -42.6160
1081.3280 471.5280 -42.6160
1061.3660 367.6000 48.5345
974.6900 385.7900 22.9005
972.4220 390.8900 -28.1085
974.6900 399.5840 -30.4605
1086.4940 492.7540 -30.4605
1054.0640 343.9600 52.5280
968.0000 398.7200 15.2320
965.4080 397.6000 -16.1840
968.0000 407.5360 -18.8720
1090.4960 509.6160 -18.8720
1046.8580 326.0800 55.0935
963.5900 408.2500 7.5215
961.6460 404.9400 -6.4855
963.5900 412.3920 -8.5015
1093.0820 520.3020 -8.5015
1094.0000 524.0000 0.0000
1040.0000 516.0000 56.0000
1040.0000 422.0000 -91.0000
1040.0000 422.0000 -91.0000
1040.0000 422.0000 -91.0000
1093.0820 528.0780 7.5215
1032.4700 509.1120 55.0935
1034.4140 417.1860 -91.1295
1032.4700 416.8980 -89.1135
1046.8580 428.8880 -89.1135
1090.4960 530.9440 15.2320
1023.4400 499.8560 52.5280
1026.0320 413.0080 -86.5760
1023.4400 412.6240 -83.8880
1054.0640 438.1440 -83.8880
1086.4940 532.6460 22.9005
1013.4500 488.8440 48.5345
1015.7180 409.5620 -78.3265
1013.4500 409.2260 -75.9745
1061.3660 449.1560 -75.9745
1081.3280 533.2320 30.2960
1003.0400 476.6880 43.3440
1004.3360 406.9440 -67.3680
1003.0400 406.7520 -66.0240
1068.5120 461.3120 -66.0240
1075.2500 532.7500 37.1875
992.7500 464.0000 37.1875
992.7500 405.2500 -54.6875
992.7500 405.2500 -54.6875
1075.2500 474.0000 -54.6875
1068.5120 531.2480 43.3440
983.1200 451.3920 30.2960
981.8240 404.5760 -41.2720
983.1200 404.7680 -42.6160
1081.3280 486.6080 -42.6160
1061.3660 528.7740 48.5345
974.6900 439.4760 22.9005
972.4220 405.0180 -28.1085
974.6900 405.3540 -30.4605
1086.4940 498.5240 -30.4605
1054.0640 525.3760 52.5280
968.0000 428.8640 15.2320
965.4080 406.6720 -16.1840
968.0000 407.0560 -18.8720
1090.4960 509.1360 -18.8720
1046.8580 521.1020 55.0935
963.5900 420.1680 7.5215
961.6460 409.6340 -6.4855
963.5900 409.9220 -8.5015
1093.0820 517.8320 -8.5015
1094.0000 525.0000 0.0000
1040.0000 517.0000 56.0000
1040.0000 422.0000 -91.0000
1040.0000 422.0000 -91.0000
1040.0000 422.0000 -91.0000
1093.0820 529.1185 7.5215
1032.4700 510.1165 55.0935
1034.4140 417.2095 -91.1295
1032.4700 416.9215 -89.1135
1046.8580 428.9115 -89.1135
1090.4960 532.0080 15.2320
1023.4400 500.8720 52.5280
1026.0320 413.0960 -86.5760
1023.4400 412.7120 -83.8880
1054.0640 438.2320 -83.8880
1086.4940 533.7195 22.9005
1013.4500 489.8755 48.5345
1015.7180 409.7465 -78.3265
1013.4500 409.4105 -75.9745
1061.3660 449.3405 -75.9745
1081.3280 534.3040 30.2960
1003.0400 477.7360 43.3440
1004.3360 407.2480 -67.3680
1003.0400 407.0560 -66.0240
1068.5120 461.6160 -66.0240
1075.2500 533.8125 37.1875
992.7500 465.0625 37.1875
992.7500 405.6875 -54.6875
992.7500 405.6875 -54.6875
1075.2500 474.4375 -54.6875
1068.5120 532.2960 43.3440
983.1200 452.4640 30.2960
981.8240 405.1520 -41.2720
983.1200 405.3440 -42.6160
1081.3280 487.1840 -42.6160
1061.3660 529.8055 48.5345
974.6900 440.5495 22.9005
972.4220 405.7285 -28.1085
974.6900 406.0645 -30.4605
1086.4940 499.2345 -30.4605
1054.0640 526.3920 52.5280
968.0000 429.9280 15.2320
965.4080 407.5040 -16.1840
968.0000 407.8880 -18.8720
1090.4960 509.9680 -18.8720
1046.8580 522.1065 55.0935
963.5900 421.2085 7.5215
961.6460 410.5655 -6.4855
963.5900 410.8535 -8.5015
1093.0820 518.7635 -8.5015
1094.0000 526.0000 0.0000
1040.0000 518.0000 56.0000
1040.0000 423.0000 -91.0000
1040.0000 423.0000 -91.0000
1040.0000 423.0000 -91.0000
1093.0820 530.1230 7.5215
1032.4700 511.0480 55.0935
1034.4140 418.1410 -91.1295
1032.4700 417.8530 -89.1135
1046.8580 429.9520 -89.1135
1090.4960 533.0240 15.2320
1023.4400 501.7040 52.5280
1026.0320 413.9280 -86.5760
1023.4400 413.5440 -83.8880
1054.0640 439.2960 -83.8880
1086.4940 534.7510 22.9005
1013.4500 490.5860 48.5345
1015.7180 410.4570 -78.3265
1013.4500 410.1210 -75.9745
1061.3660 450.4140 -75.9745
1081.3280 535.3520 30.2960
1003.0400 478.3120 43.3440
1004.3360 407.8240 -67.3680
1003.0400 407.6320 -66.0240
1068.5120 462.6880 -66.0240
1075.2500 534.8750 37.1875
992.7500 465.5000 37.1875
992.7500 406.1250 -54.6875
992.7500 406.1250 -54.6875
1075.2500 475.5000 -54.6875
1068.5120 533.3680 43.3440
983.1200 452.7680 30.2960
981.8240 405.4560 -41.2720
983.1200 405.6480 -42.6160
1081.3280 488.2320 -42.6160
1061.3660 530.8790 48.5345
974.6900 440.7340 22.9005
972.4220 405.9130 -28.1085
974.6900 406.2490 -30.4605
1086.4940 500.2660 -30.4605
1054.0640 527.4560 52.5280
968.0000 430.0160 15.2320
965.4080 407.5920 -16.1840
968.0000 407.9760 -18.8720
1090.4960 510.9840 -18.8720
1046.8580 523.1470 55.0935
963.5900 421.2320 7.5215
961.6460 410.5890 -6.4855
963.5900 410.8770 -8.5015
1093.0820 519.7680 -8.5015
1094.0000 526.0000 0.0000
1040.0000 519.0000 56.0000
1040.0000 424.0000 -91.0000
1040.0000 424.0000 -91.0000
1040.0000 424.0000 -91.0000
1093.0820 530.1465 7.5215
1032.4700 512.0885 55.0935
1034.4140 419.1455 -91.1295
1032.4700 418.8935 -89.1135
1046.8580 430.8835 -89.1135
1090.4960 533.1120 15.2320
1023.4400 502.7680 52.5280
1026.0320 414.9440 -86.5760
1023.4400 414.6080 -83.8880
1054.0640 440.1280 -83.8880
1086.4940 534.9355 22.9005
1013.4500 491.6595 48.5345
1015.7180 411.4885 -78.3265
1013.4500 411.1945 -75.9745
1061.3660 451.1245 -75.9745
1081.3280 535.6560 30.2960
1003.0400 479.3840 43.3440
1004.3360 408.8720 -67.3680
1003.0400 408.7040 -66.0240
1068.5120 463.2640 -66.0240
1075.2500 535.3125 37.1875
992.7500 466.5625 37.1875
992.7500 407.1875 -54.6875
992.7500 407.1875 -54.6875
1075.2500 475.9375 -54.6875
1068.5120 533.9440 43.3440
983.1200 453.8160 30.2960
981.8240 406.5280 -41.2720
983.1200 406.6960 -42.6160
1081.3280 488.5360 -42.6160
1061.3660 531.5895 48.5345
974.6900 441.7655 22.9005
972.4220 406.9865 -28.1085
974.6900 407.2805 -30.4605
1086.4940 500.4505 -30.4605
1054.0640 528.2880 52.5280
968.0000 431.0320 15.2320
965.4080 408.6560 -16.1840
968.0000 408.9920 -18.8720
1090.4960 511.0720 -18.8720
1046.8580 524.0785 55.0935
963.5900 422.2365 7.5215
961.6460 411.6295 -6.4855
963.5900 411.8815 -8.5015
1093.0820 519.7915 -8.5015
1094.0000 527.0000 0.0000
1040.0000 314.0000 57.0000
1040.0000 425.0000 -91.0000
1040.0000 425.0000 -91.0000
1040.0000 425.0000 -91.0000
1093.0820 517.0355 7.5900
1032.4700 311.9295 56.0700
1034.4140 428.4885 -91.1700
1032.4700 420.8205 -89.1180
1046.8580 432.8105 -89.1180
1090.4960 499.5040 15.4000
1023.4400 315.8960 53.4400
1026.0320 429.1280 -86.6400
1023.4400 418.9040 -83.9040
1054.0640 444.4240 -83.9040
1086.4940 476.2985 23.1900
1013.4500 324.6665 49.3500
1015.7180 427.6295 -78.4000
1013.4500 418.6835 -76.0060
1061.3660 458.6135 -76.0060
1081.3280 449.3120 30.7200
1003.0400 337.0080 44.0400
1004.3360 424.7040 -67.4400
1003.0400 419.5920 -66.0720
1068.5120 474.1520 -66.0720
1075.2500 420.4375 37.7500
992.7500 351.6875 37.7500
992.7500 421.0625 -54.7500
992.7500 421.0625 -54.7500
1075.2500 489.8125 -54.7500
1068.5120 391.5680 44.0400
983.1200 367.4720 30.7200
981.8240 417.4160 -41.3200
983.1200 422.5280 -42.6880
1081.3280 504.3680 -42.6880
1061.3660 364.5965 49.3500
974.6900 383.1285 23.1900
972.4220 414.4755 -28.1400
974.6900 423.4215 -30.5340
1086.4940 516.5915 -30.5340
1054.0640 341.4160 53.4400
968.0000 397.4240 15.4000
965.4080 412.9520 -16.2000
968.0000 423.1760 -18.9360
1090.4960 525.2560 -18.9360
1046.8580 323.9195 56.0700
963.5900 409.1255 7.5900
961.6460 413.5565 -6.4900
963.5900 421.2245 -8.5420
1093.0820 529.1345 -8.5420
1094.0000 528.0000 0.0000
1040.0000 315.0000 57.0000
1040.0000 426.0000 -91.0000
1040.0000 426.0000 -91.0000
1040.0000 426.0000 -91.0000
1093.0820 518.0355 7.5900
1032.4700 312.9295 56.0700
1034.4140 429.4885 -91.1700
1032.4700 421.8205 -89.1180
1046.8580 433.8105 -89.1180
1090.4960 500.5040 15.4000
1023.4400 316.8960 53.4400
1026.0320 430.1280 -86.6400
1023.4400 419.9040 -83.9040
1054.0640 445.4240 -83.9040
1086.4940 477.2985 23.1900
1013.4500 325.6665 49.3500
1015.7180 428.6295 -78.4000
1013.4500 419.6835 -76.0060
1061.3660 459.6135 -76.0060
1081.3280 450.3120 30.7200
1003.0400 338.0080 44.0400
1004.3360 425.7040 -67.4400
1003.0400 420.5920 -66.0720
1068.5120 475.1520 -66.0720
1075.2500 421.4375 37.7500
992.7500 352.6875 37.7500
992.7500 422.0625 -54.7500
992.7500 422.0625 -54.7500
1075.2500 490.8125 -54.7500
1068.5120 392.5680 44.0400
983.1200 368.4720 30.7200
981.8240 418.4160 -41.3200
983.1200 423.5280 -42.6880
1081.3280 505.3680 -42.6880
1061.3660 365.5965 49.3500
974.6900 384.1285 23.1900
972.4220 415.4755 -28.1400
974.6900 424.4215 -30.5340
1086.4940 517.5915 -30.5340
1054.0640 342.4160 53.4400
968.0000 398.4240 15.4000
965.4080 413.9520 -16.2000
968.0000 424.1760 -18.9360
1090.4960 526.2560 -18.9360
1046.8580 324.9195 56.0700
963.5900 410.1255 7.5900
961.6460 414.5565 -6.4900
963.5900 422.2245 -8.5420
1093.0820 530.1345 -8.5420
1094.0000 529.0000 0.0000
1040.0000 316.0000 57.0000
1040.0000 427.0000 -91.0000
1040.0000 427.0000 -91.0000
1040.0000 427.0000 -91.0000
1093.0820 519.0400 7.5900
1032.4700 313.8610 56.0700
1034.4140 430.4200 -91.1700
1032.4700 422.7520 -89.1180
1046.8580 434.8510 -89.1180
1090.4960 501.5200 15.4000
1023.4400 317.7280 53.4400
1026.0320 430.9600 -86.6400
1023.4400 420.7360 -83.9040
1054.0640 446.4880 -83.9040
1086.4940 478.3300 23.1900
1013.4500 326.3770 49.3500
1015.7180 429.3400 -78.4000
1013.4500 420.3940 -76.0060
1061.3660 460.6870 -76.0060
1081.3280 451.3600 30.7200
1003.0400 338.5840 44.0400
1004.3360 426.2800 -67.4400
1003.0400 421.1680 -66.0720
1068.5120 476.2240 -66.0720
1075.2500 422.5000 37.7500
992.7500 353.1250 37.7500
992.7500 422.5000 -54.7500
992.7500 422.5000 -54.7500
1075.2500 491.8750 -54.7500
1068.5120 393.6400 44.0400
983.1200 368.7760 30.7200
981.8240 418.7200 -41.3200
983.1200 423.8320 -42.6880
1081.3280 506.4160 -42.6880
1061.3660 366.6700 49.3500
974.6900 384.3130 23.1900
972.4220 415.6600 -28.1400
974.6900 424.6060 -30.5340
1086.4940 518.6230 -30.5340
1054.0640 343.4800 53.4400
968.0000 398.5120 15.4000
965.4080 414.0400 -16.2000
968.0000 424.2640 -18.9360
1090.4960 527.2720 -18.9360
1046.8580 325.9600 56.0700
963.5900 410.1490 7.5900
961.6460 414.5800 -6.4900
963.5900 422.2480 -8.5420
1093.0820 531.1390 -8.5420
1094.0000 529.0000 0.0000
1040.0000 517.0000 57.0000
1040.0000 428.0000 -91.0000
1040.0000 428.0000 -91.0000
1040.0000 428.0000 -91.0000
1093.0820 532.7635 7.5900
1032.4700 510.2015 56.0700
1034.4140 423.3245 -91.1700
1032.4700 422.8925 -89.1180
1046.8580 434.8825 -89.1180
1090.4960 535.2080 15.4000
1023.4400 501.1920 53.4400
1026.0320 419.1760 -86.6400
1023.4400 418.6000 -83.9040
1054.0640 444.1200 -83.9040
1086.4940 536.4145 23.1900
1013.4500 490.5505 49.3500
1015.7180 415.6715 -78.4000
1013.4500 415.1675 -76.0060
1061.3660 455.0975 -76.0060
1081.3280 536.4640 30.7200
1003.0400 478.8560 44.0400
1004.3360 412.9280 -67.4400
1003.0400 412.6400 -66.0720
1068.5120 467.2000 -66.0720
1075.2500 535.4375 37.7500
992.7500 466.6875 37.7500
992.7500 411.0625 -54.7500
992.7500 411.0625 -54.7500
1075.2500 479.8125 -54.7500
1068.5120 533.4160 44.0400
983.1200 454.6240 30.7200
981.8240 410.1920 -41.3200
983.1200 410.4800 -42.6880
1081.3280 492.3200 -42.6880
1061.3660 530.4805 49.3500
974.6900 443.2445 23.1900
972.4220 410.4335 -28.1400
974.6900 410.9375 -30.5340
1086.4940 504.1075 -30.5340
1054.0640 526.7120 53.4400
968.0000 433.1280 15.4000
965.4080 411.9040 -16.2000
968.0000 412.4800 -18.9360
1090.4960 514.5600 -18.9360
1046.8580 522.1915 56.0700
963.5900 424.8535 7.5900
961.6460 414.7205 -6.4900
963.5900 415.1525 -8.5420
1093.0820 523.0625 -8.5420
1094.0000 530.0000 0.0000
1040.0000 518.0000 57.0000
1040.0000 429.0000 -91.0000
1040.0000 429.0000 -91.0000
1040.0000 429.0000 -91.0000
1093.0820 533.7635 7.5900
1032.4700 511.2015 56.0700
1034.4140 424.3245 -91.1700
1032.4700 423.8925 -89.1180
1046.8580 435.8825 -89.1180
1090.4960 536.2080 15.4000
1023.4400 502.1920 53.4400
1026.0320 420.1760 -86.6400
1023.4400 419.6000 -83.9040
1054.0640 445.1200 -83.9040
1086.4940 537.4145 23.1900
1013.4500 491.5505 49.3500
1015.7180 416.6715 -78.4000
1013.4500 416.1675 -76.0060
1061.3660 456.0975 -76.0060
1081.3280 537.4640 30.7200
1003.0400 479.8560 44.0400
1004.3360 413.9280 -67.4400
1003.0400 413.6400 -66.0720
1068.5120 468.2000 -66.0720
1075.2500 536.4375 37.7500
992.7500 467.6875 37.7500
992.7500 412.0625 -54.7500
992.7500 412.0625 -54.7500
1075.2500 480.8125 -54.7500
1068.5120 534.4160 44.0400
983.1200 455.6240 30.7200
981.8240 411.1920 -41.3200
983.1200 411.4800 -42.6880
1081.3280 493.3200 -42.6880
1061.3660 531.4805 49.3500
974.6900 444.2445 23.1900
972.4220 411.4335 -28.1400
974.6900 411.9375 -30.5340
1086.4940 505.1075 -30.5340
1054.0640 527.7120 53.4400
968.0000 434.1280 15.4000
965.4080 412.9040 -16.2000
968.0000 413.4800 -18.9360
1090.4960 515.5600 -18.9360
1046.8580 523.1915 56.0700
963.5900 425.8535 7.5900
961.6460 415.7205 -6.4900
963.5900 416.1525 -8.5420
1093.0820 524.0625 -8.5420
1094.0000 531.0000 0.0000
1040.0000 519.0000 57.0000
1040.0000 347.0000 -90.0000
1040.0000 347.0000 -90.0000
1040.0000 347.0000 -90.0000
1093.0820 538.1250 7.5495
1032.4700 512.5750 56.0655
1034.4140 344.2750 -90.1935
1032.4700 343.8430 -88.1415
1046.8580 355.8330 -88.1415
1090.4960 542.5200 15.3360
1023.4400 504.5200 53.4240
1026.0320 345.4800 -85.7280
1023.4400 344.9040 -82.9920
1054.0640 370.4240 -82.9920
1086.4940 544.5150 23.1165
1013.4500 495.1650 49.3185
1015.7180 349.9850 -77.5845
1013.4500 349.4810 -75.1905
1061.3660 389.4110 -75.1905
1081.3280 544.4400 30.6480
1003.0400 484.8400 43.9920
1004.3360 357.1600 -66.7440
1003.0400 356.8720 -65.3760
1068.5120 411.4320 -65.3760
1075.2500 542.6250 37.6875
992.7500 473.8750 37.6875
992.7500 366.3750 -54.1875
992.7500 366.3750 -54.1875
1075.2500 435.1250 -54.1875
1068.5120 539.4000 43.9920
983.1200 462.6000 30.6480
981.8240 377.0000 -40.8960
983.1200 377.2880 -42.2640
1081.3280 459.1280 -42.2640
1061.3660 535.0950 49.3185
974.6900 451.3450 23.1165
972.4220 388.4050 -27.8505
974.6900 388.9090 -30.2445
1086.4940 482.0790 -30.2445
1054.0640 530.0400 53.4240
968.0000 440.4400 15.3360
965.4080 399.9600 -16.0320
968.0000 400.5360 -18.7680
1090.4960 502.6160 -18.7680
1046.8580 524.5650 56.0655
963.5900 430.2150 7.5495
961.6460 411.0350 -6.4215
963.5900 411.4670 -8.4735
1093.0820 519.3770 -8.4735
1094.0000 532.0000 0.0000
1040.0000 314.0000 58.0000
1040.0000 348.0000 -90.0000
1040.0000 348.0000 -90.0000
1040.0000 348.0000 -90.0000
1093.0820 525.0185 7.6180
1032.4700 312.3475 57.0420
1034.4140 353.5495 -90.2340
1032.4700 345.7015 -88.1460
1046.8580 357.8005 -88.1460
1090.4960 508.9280 15.5040
1023.4400 317.4800 54.3360
1026.0320 359.4960 -85.7920
1023.4400 349.0320 -83.0080
1054.0640 374.7840 -83.0080
1086.4940 485.9095 23.4060
1013.4500 327.8825 50.1340
1015.7180 365.8365 -77.6580
1013.4500 356.6805 -75.2220
1061.3660 396.9735 -75.2220
1081.3280 458.1440 31.0720
1003.0400 342.0400 44.6880
1004.3360 372.5680 -66.8160
1003.0400 367.3360 -65.4240
1068.5120 422.3920 -65.4240
1075.2500 427.8125 38.2500
992.7500 358.4375 38.2500
992.7500 379.6875 -54.2500
992.7500 379.6875 -54.2500
1075.2500 449.0625 -54.2500
1068.5120 397.0960 44.6880
983.1200 375.5600 31.0720
981.8240 387.1920 -40.9440
983.1200 392.4240 -42.3360
1081.3280 475.0080 -42.3360
1061.3660 368.1755 50.1340
974.6900 391.8925 23.4060
972.4220 395.0785 -27.8820
974.6900 404.2345 -30.3180
1086.4940 498.2515 -30.3180
1054.0640 343.2320 54.3360
968.0000 405.9200 15.5040
965.4080 403.3440 -16.0480
968.0000 413.8080 -18.8320
1090.4960 516.8160 -18.8320
1046.8580 324.4465 57.0420
963.5900 416.1275 7.6180
961.6460 411.9855 -6.4260
963.5900 419.8335 -8.5140
1093.0820 528.7245 -8.5140
1094.0000 533.0000 0.0000
1040.0000 315.0000 58.0000
1040.0000 349.0000 -90.0000
1040.0000 349.0000 -90.0000
1040.0000 349.0000 -90.0000
1093.0820 525.9825 7.6180
1032.4700 313.8955 57.0420
1034.4140 355.0975 -90.2340
1032.4700 347.2495 -88.1460
1046.8580 358.4765 -88.1460
1090.4960 509.8000 15.5040
1023.4400 319.8240 54.3360
1026.0320 361.8400 -85.7920
1023.4400 351.3760 -83.0080
1054.0640 375.2720 -83.0080
1086.4940 486.6575 23.4060
1013.4500 331.1985 50.1340
1015.7180 369.1525 -77.6580
1013.4500 359.9965 -75.2220
1061.3660 397.3855 -75.2220
1081.3280 458.7600 31.0720
1003.0400 346.4320 44.6880
1004.3360 376.9600 -66.8160
1003.0400 371.7280 -65.4240
1068.5120 422.8160 -65.4240
1075.2500 428.3125 38.2500
992.7500 363.9375 38.2500
992.7500 385.1875 -54.2500
992.7500 385.1875 -54.2500
1075.2500 449.5625 -54.2500
1068.5120 397.5200 44.6880
983.1200 382.1280 31.0720
981.8240 393.7600 -40.9440
983.1200 398.9920 -42.3360
1081.3280 475.6240 -42.3360
1061.3660 368.5875 50.1340
974.6900 399.4165 23.4060
972.4220 402.6025 -27.8820
974.6900 411.7585 -30.3180
1086.4940 498.9995 -30.3180
1054.0640 343.7200 54.3360
968.0000 414.2160 15.5040
965.4080 411.6400 -16.0480
968.0000 422.1040 -18.8320
1090.4960 517.6880 -18.8320
1046.8580 325.1225 57.0420
963.5900 424.9395 7.6180
961.6460 420.7975 -6.4260
963.5900 428.6455 -8.5140
1093.0820 529.6885 -8.5140
1094.0000 533.0000 0.0000
1040.0000 316.0000 58.0000
1040.0000 350.0000 -90.0000
1040.0000 350.0000 -90.0000
1040.0000 350.0000 -90.0000
1093.0820 526.0060 7.6180
1032.4700 314.9360 57.0420
1034.4140 356.1020 -90.2340
1032.4700 348.2900 -88.1460
1046.8580 359.4080 -88.1460
1090.4960 509.8880 15.5040
1023.4400 320.8880 54.3360
1026.0320 362.8560 -85.7920
1023.4400 352.4400 -83.0080
1054.0640 376.1040 -83.0080
1086.4940 486.8420 23.4060
1013.4500 332.2720 50.1340
1015.7180 370.1840 -77.6580
1013.4500 361.0700 -75.2220
1061.3660 398.0960 -75.2220
1081.3280 459.0640 31.0720
1003.0400 347.5040 44.6880
1004.3360 378.0080 -66.8160
1003.0400 372.8000 -65.4240
1068.5120 423.3920 -65.4240
1075.2500 428.7500 38.2500
992.7500 365.0000 38.2500
992.7500 386.2500 -54.2500
992.7500 386.2500 -54.2500
1075.2500 450.0000 -54.2500
1068.5120 398.0960 44.6880
983.1200 383.1760 31.0720
981.8240 394.8320 -40.9440
983.1200 400.0400 -42.3360
1081.3280 475.9280 -42.3360
1061.3660 369.2980 50.1340
974.6900 400.4480 23.4060
972.4220 403.6760 -27.8820
974.6900 412.7900 -30.3180
1086.4940 499.1840 -30.3180
1054.0640 344.5520 54.3360
968.0000 415.2320 15.5040
965.4080 412.7040 -16.0480
968.0000 423.1200 -18.8320
1090.4960 517.7760 -18.8320
1046.8580 326.0540 57.0420
963.5900 425.9440 7.6180
961.6460 421.8380 -6.4260
963.5900 429.6500 -8.5140
1093.0820 529.7120 -8.5140
1094.0000 534.0000 0.0000
1040.0000 317.0000 58.0000
1040.0000 351.0000 -90.0000
1040.0000 351.0000 -90.0000
1040.0000 351.0000 -90.0000
1093.0820 527.0105 7.6180
1032.4700 315.8675 57.0420
1034.4140 357.0335 -90.2340
1032.4700 349.2215 -88.1460
1046.8580 360.4485 -88.1460
1090.4960 510.9040 15.5040
1023.4400 321.7200 54.3360
1026.0320 363.6880 -85.7920
1023.4400 353.2720 -83.0080
1054.0640 377.1680 -83.0080
1086.4940 487.8735 23.4060
1013.4500 332.9825 50.1340
1015.7180 370.8945 -77.6580
1013.4500 361.7805 -75.2220
1061.3660 399.1695 -75.2220
1081.3280 460.1120 31.0720
1003.0400 348.0800 44.6880
1004.3360 378.5840 -66.8160
1003.0400 373.3760 -65.4240
1068.5120 424.4640 -65.4240
1075.2500 429.8125 38.2500
992.7500 365.4375 38.2500
992.7500 386.6875 -54.2500
992.7500 386.6875 -54.2500
1075.2500 451.0625 -54.2500
1068.5120 399.1680 44.6880
983.1200 383.4800 31.0720
981.8240 395.1360 -40.9440
983.1200 400.3440 -42.3360
1081.3280 476.9760 -42.3360
1061.3660 370.3715 50.1340
974.6900 400.6325 23.4060
972.4220 403.8605 -27.8820
974.6900 412.9745 -30.3180
1086.4940 500.2155 -30.3180
1054.0640 345.6160 54.3360
968.0000 415.3200 15.5040
965.4080 412.7920 -16.0480
968.0000 423.2080 -18.8320
1090.4960 518.7920 -18.8320
1046.8580 327.0945 57.0420
963.5900 425.9675 7.6180
961.6460 421.8615 -6.4260
963.5900 429.6735 -8.5140
1093.0820 530.7165 -8.5140
1095.0000 318.0000 0.0000
1040.0000 517.0000 58.0000
1040.0000 425.0000 -90.0000
1040.0000 425.0000 -90.0000
1040.0000 425.0000 -90.0000
1094.0585 326.7850 7.6180
1032.4295 519.6510 57.0420
1034.4095 422.2350 -90.2340
1032.4295 429.3990 -88.1460
1046.9265 416.9730 -88.1460
1091.4080 342.7600 15.5040
1023.3760 516.9280 54.3360
1026.0160 422.0000 -85.7920
1023.3760 431.5520 -83.0080
1054.2320 405.1040 -83.0080
1087.3095 364.1550 23.4060
1013.3765 509.9170 50.1340
1015.6865 423.6350 -77.6580
1013.3765 431.9930 -75.2220
1061.6555 390.6110 -75.2220
1082.0240 389.2000 31.0720
1002.9680 499.7040 44.6880
1004.2880 426.4800 -66.8160
1002.9680 431.2560 -65.4240
1068.9360 374.7120 -65.4240
1075.8125 416.1250 38.2500
992.6875 487.3750 38.2500
992.6875 429.8750 -54.2500
992.6875 429.8750 -54.2500
1075.8125 358.6250 -54.2500
1068.9360 443.1600 44.6880
983.0720 474.0160 31.0720
981.7520 433.1600 -40.9440
983.0720 428.3840 -42.3360
1082.0240 343.5680 -42.3360
1061.6555 468.5350 50.1340
974.6585 460.7130 23.4060
972.3485 435.6750 -27.8820
974.6585 427.3170 -30.3180
1087.3095 330.7590 -30.3180
1054.2320 490.4800 54.3360
967.9840 448.5520 15.5040
965.3440 436.7600 -16.0480
967.9840 427.2080 -18.8320
1091.4080 321.4160 -18.8320
1046.9265 507.2250 57.0420
963.5855 438.6190 7.6180
961.6055 435.7550 -6.4260
963.5855 428.5910 -8.5140
1094.0585 316.7570 -8.5140
1095.0000 319.0000 0.0000
1040.0000 518.0000 58.0000
1040.0000 426.0000 -90.0000
1040.0000 426.0000 -90.0000
1040.0000 426.0000 -90.0000
1094.0585 327.7850 7.6180
1032.4295 520.6510 57.0420
1034.4095 423.2350 -90.2340
1032.4295 430.3990 -88.1460
