ply
format ascii 1.0
element vertex 1725
property float x
property float y
property float z
element face 0
property list uchar int vertex_index
end_header
1000.0000 1991.0000 70.0000
1000.0000 1991.0000 70.0000
1000.0000 1991.0000 70.0000
1043.1415 1948.1805 -8.5205
995.5465 1936.7715 -81.3645
997.1305 1992.2835 71.7165
995.5465 1991.7075 68.7285
1004.5935 1989.2005 68.7285
1040.7520 1945.3840 -18.4240
990.6320 1939.6320 -76.8160
992.7440 1992.3680 69.1520
990.6320 1991.6000 65.1680
1009.8880 1986.2640 65.1680
1037.1105 1942.7035 -29.1735
985.4755 1943.3505 -69.8915
987.3235 1991.4545 63.1855
985.4755 1990.7825 59.6995
1015.6045 1982.4335 59.6995
1032.4960 1940.2320 -40.2320
980.2960 1947.6960 -61.1280
981.3520 1989.7440 54.6960
980.2960 1989.3600 52.7040
1021.4640 1977.9520 52.7040
1027.1875 1938.0625 -51.0625
975.3125 1952.4375 -51.0625
975.3125 1987.4375 44.5625
975.3125 1987.4375 44.5625
1027.1875 1973.0625 44.5625
1021.4640 1936.2880 -61.1280
970.7440 1957.3440 -40.2320
969.6880 1984.7360 33.6640
970.7440 1985.1200 35.6560
1032.4960 1968.0080 35.6560
1015.6045 1935.0015 -69.8915
966.8095 1962.1845 -29.1735
964.9615 1981.8405 22.8795
966.8095 1982.5125 26.3655
1037.1105 1963.0315 26.3655
1009.8880 1934.2960 -76.8160
963.7280 1966.7280 -18.4240
961.6160 1978.9520 13.0880
963.7280 1979.7200 17.0720
1040.7520 1958.3760 17.0720
1004.5935 1934.2645 -81.3645
961.7185 1970.7435 -8.5205
960.1345 1976.2715 5.1685
961.7185 1976.8475 8.1565
1043.1415 1954.2845 8.1565
1044.0000 1951.0000 0.0000
1000.0000 1936.0000 -83.0000
1000.0000 1958.0000 71.0000
1000.0000 1958.0000 71.0000
1000.0000 1958.0000 71.0000
1043.1415 1949.5855 -8.5610
995.5465 1937.8965 -81.3690
997.1305 1960.0185 72.6930
995.5465 1959.4785 69.7050
1004.5935 1956.9715 69.7050
1040.7520 1947.6640 -18.4880
990.6320 1941.0720 -76.8320
992.7440 1962.2080 70.0640
990.6320 1961.4880 66.0800
1009.8880 1956.1520 66.0800
1037.1105 1945.4185 -29.2470
985.4755 1945.2055 -69.9230
987.3235 1964.4695 64.0010
985.4755 1963.8395 60.5150
1015.6045 1955.4905 60.5150
1032.4960 1943.0320 -40.3040
980.2960 1949.9760 -61.1760
981.3520 1966.7040 55.3920
980.2960 1966.3440 53.4000
1021.4640 1954.9360 53.4000
1027.1875 1940.6875 -51.1250
975.3125 1955.0625 -51.1250
975.3125 1968.8125 45.1250
975.3125 1968.8125 45.1250
1027.1875 1954.4375 45.1250
1021.4640 1938.5680 -61.1760
970.7440 1960.1440 -40.3040
969.6880 1970.6960 34.0880
970.7440 1971.0560 36.0800
1032.4960 1953.9440 36.0800
1015.6045 1936.8565 -69.9230
966.8095 1964.8995 -29.2470
964.9615 1972.2555 23.1690
966.8095 1972.8855 26.6550
1037.1105 1953.4045 26.6550
1009.8880 1935.7360 -76.8320
963.7280 1969.0080 -18.4880
961.6160 1973.3920 13.2560
963.7280 1974.1120 17.2400
1040.7520 1952.7680 17.2400
1004.5935 1935.3895 -81.3690
961.7185 1972.1485 -8.5610
960.1345 1974.0065 5.2370
961.7185 1974.5465 8.2250
1043.1415 1951.9835 8.2250
1044.0000 1951.0000 0.0000
1000.0000 1936.0000 -83.0000
1000.0000 1959.0000 71.0000
1000.0000 1959.0000 71.0000
1000.0000 1959.0000 71.0000
1043.1415 1949.5405 -8.5610
995.5465 1937.9605 -81.3690
997.1305 1961.0635 72.6930
995.5465 1960.5235 69.7050
1004.5935 1957.9075 69.7050
1040.7520 1947.5840 -18.4880
990.6320 1941.2240 -76.8320
992.7440 1963.2880 70.0640
990.6320 1962.5680 66.0800
1009.8880 1957.0000 66.0800
1037.1105 1945.3135 -29.2470
985.4755 1945.4635 -69.9230
987.3235 1965.5745 64.0010
985.4755 1964.9445 60.5150
1015.6045 1956.2325 60.5150
1032.4960 1942.9120 -40.3040
980.2960 1950.3520 -61.1760
981.3520 1967.8240 55.3920
980.2960 1967.4640 53.4000
1021.4640 1955.5600 53.4000
1027.1875 1940.5625 -51.1250
975.3125 1955.5625 -51.1250
975.3125 1969.9375 45.1250
975.3125 1969.9375 45.1250
1027.1875 1954.9375 45.1250
1021.4640 1938.4480 -61.1760
970.7440 1960.7680 -40.3040
969.6880 1971.8160 34.0880
970.7440 1972.1760 36.0800
1032.4960 1954.3200 36.0800
1015.6045 1936.7515 -69.9230
966.8095 1965.6415 -29.2470
964.9615 1973.3605 23.1690
966.8095 1973.9905 26.6550
1037.1105 1953.6625 26.6550
1009.8880 1935.6560 -76.8320
963.7280 1969.8560 -18.4880
961.6160 1974.4720 13.2560
963.7280 1975.1920 17.2400
1040.7520 1952.9200 17.2400
1004.5935 1935.3445 -81.3690
961.7185 1973.0845 -8.5610
960.1345 1975.0515 5.2370
961.7185 1975.5915 8.2250
1043.1415 1952.0475 8.2250
1044.0000 1951.0000 0.0000
1000.0000 1936.0000 -83.0000
1000.0000 1990.0000 71.0000
1000.0000 1990.0000 71.0000
1000.0000 1990.0000 71.0000
1043.1415 1948.2805 -8.5610
995.5465 1937.8895 -81.3690
997.1305 1991.4035 72.6930
995.5465 1990.8635 69.7050
1004.5935 1988.1385 69.7050
1040.7520 1945.5840 -18.4880
990.6320 1940.8960 -76.8320
992.7440 1991.7280 70.0640
990.6320 1991.0080 66.0800
1009.8880 1985.2080 66.0800
1037.1105 1943.0035 -29.2470
985.4755 1944.7765 -69.9230
987.3235 1991.1445 64.0010
985.4755 1990.5145 60.5150
1015.6045 1981.4395 60.5150
1032.4960 1940.6320 -40.3040
980.2960 1949.2880 -61.1760
981.3520 1989.8240 55.3920
980.2960 1989.4640 53.4000
1021.4640 1977.0640 53.4000
1027.1875 1938.5625 -51.1250
975.3125 1954.1875 -51.1250
975.3125 1987.9375 45.1250
975.3125 1987.9375 45.1250
1027.1875 1972.3125 45.1250
1021.4640 1936.8880 -61.1760
970.7440 1959.2320 -40.3040
969.6880 1985.6560 34.0880
970.7440 1986.0160 36.0800
1032.4960 1967.4160 36.0800
1015.6045 1935.7015 -69.9230
966.8095 1964.1785 -29.2470
964.9615 1983.1505 23.1690
966.8095 1983.7805 26.6550
1037.1105 1962.6055 26.6550
1009.8880 1935.0960 -76.8320
963.7280 1968.7840 -18.4880
961.6160 1980.5920 13.2560
963.7280 1981.3120 17.2400
1040.7520 1958.1120 17.2400
1004.5935 1935.1645 -81.3690
961.7185 1972.8055 -8.5610
960.1345 1978.1515 5.2370
961.7185 1978.6915 8.2250
1043.1415 1954.1665 8.2250
1044.0000 1952.0000 0.0000
1000.0000 1937.0000 -83.0000
1000.0000 1991.0000 71.0000
1000.0000 1991.0000 71.0000
1000.0000 1991.0000 71.0000
1043.1415 1949.2850 -8.5610
995.5465 1938.8210 -81.3690
997.1305 1992.3350 72.6930
995.5465 1991.7950 69.7050
1004.5935 1989.1790 69.7050
1040.7520 1946.6000 -18.4880
990.6320 1941.7280 -76.8320
992.7440 1992.5600 70.0640
990.6320 1991.8400 66.0800
1009.8880 1986.2720 66.0800
1037.1105 1944.0350 -29.2470
985.4755 1945.4870 -69.9230
987.3235 1991.8550 64.0010
985.4755 1991.2250 60.5150
1015.6045 1982.5130 60.5150
1032.4960 1941.6800 -40.3040
980.2960 1949.8640 -61.1760
981.3520 1990.4000 55.3920
980.2960 1990.0400 53.4000
1021.4640 1978.1360 53.4000
1027.1875 1939.6250 -51.1250
975.3125 1954.6250 -51.1250
975.3125 1988.3750 45.1250
975.3125 1988.3750 45.1250
1027.1875 1973.3750 45.1250
1021.4640 1937.9600 -61.1760
970.7440 1959.5360 -40.3040
969.6880 1985.9600 34.0880
970.7440 1986.3200 36.0800
1032.4960 1968.4640 36.0800
1015.6045 1936.7750 -69.9230
966.8095 1964.3630 -29.2470
964.9615 1983.3350 23.1690
966.8095 1983.9650 26.6550
1037.1105 1963.6370 26.6550
1009.8880 1936.1600 -76.8320
963.7280 1968.8720 -18.4880
961.6160 1980.6800 13.2560
963.7280 1981.4000 17.2400
1040.7520 1959.1280 17.2400
1004.5935 1936.2050 -81.3690
961.7185 1972.8290 -8.5610
960.1345 1978.1750 5.2370
961.7185 1978.7150 8.2250
1043.1415 1955.1710 8.2250
1044.0000 1952.0000 0.0000
1000.0000 1937.0000 -83.0000
1000.0000 1958.0000 72.0000
1000.0000 1958.0000 72.0000
1000.0000 1958.0000 72.0000
1043.1415 1950.5900 -8.6015
995.5465 1939.4490 -81.3735
997.1305 1960.5900 73.6695
995.5465 1960.0500 70.6815
1004.5935 1956.6710 70.6815
1040.7520 1948.6000 -18.5520
990.6320 1943.4320 -76.8480
992.7440 1963.6400 70.9760
990.6320 1962.9200 66.9920
1009.8880 1955.7280 66.9920
1037.1105 1946.2400 -29.3205
985.4755 1948.5530 -69.9545
987.3235 1966.9700 64.8165
985.4755 1966.3400 61.3305
1015.6045 1955.0870 61.3305
1032.4960 1943.7200 -40.3760
980.2960 1954.4160 -61.2240
981.3520 1970.4000 56.0880
980.2960 1970.0400 54.0960
1021.4640 1954.6640 54.0960
1027.1875 1941.2500 -51.1875
975.3125 1960.6250 -51.1875
975.3125 1973.7500 45.6875
975.3125 1973.7500 45.6875
1027.1875 1954.3750 45.6875
1021.4640 1939.0400 -61.2240
970.7440 1966.7840 -40.3760
969.6880 1976.8400 34.5120
970.7440 1977.2000 36.5040
1032.4960 1954.1360 36.5040
1015.6045 1937.3000 -69.9545
966.8095 1972.4970 -29.3205
964.9615 1979.4900 23.4585
966.8095 1980.1200 26.9445
1037.1105 1953.8630 26.9445
1009.8880 1936.2400 -76.8480
963.7280 1977.3680 -18.5520
961.6160 1981.5200 13.4240
963.7280 1982.2400 17.4080
1040.7520 1953.4720 17.4080
1004.5935 1936.0700 -81.3735
961.7185 1981.0010 -8.6015
960.1345 1982.7500 5.3055
961.7185 1983.2900 8.2935
1043.1415 1952.8790 8.2935
1044.0000 1952.0000 0.0000
1000.0000 1937.0000 -83.0000
1000.0000 1959.0000 72.0000
1000.0000 1959.0000 72.0000
1000.0000 1959.0000 72.0000
1043.1415 1950.5495 -8.6015
995.5465 1939.4445 -81.3735
997.1305 1961.5665 73.6695
995.5465 1961.0265 70.6815
1004.5935 1957.6475 70.6815
1040.7520 1948.5360 -18.5520
990.6320 1943.4160 -76.8480
992.7440 1964.5520 70.9760
990.6320 1963.8320 66.9920
1009.8880 1956.6400 66.9920
1037.1105 1946.1665 -29.3205
985.4755 1948.5215 -69.9545
987.3235 1967.7855 64.8165
985.4755 1967.1555 61.3305
1015.6045 1955.9025 61.3305
1032.4960 1943.6480 -40.3760
980.2960 1954.3680 -61.2240
981.3520 1971.0960 56.0880
980.2960 1970.7360 54.0960
1021.4640 1955.3600 54.0960
1027.1875 1941.1875 -51.1875
975.3125 1960.5625 -51.1875
975.3125 1974.3125 45.6875
975.3125 1974.3125 45.6875
1027.1875 1954.9375 45.6875
1021.4640 1938.9920 -61.2240
970.7440 1966.7120 -40.3760
969.6880 1977.2640 34.5120
970.7440 1977.6240 36.5040
1032.4960 1954.5600 36.5040
1015.6045 1937.2685 -69.9545
966.8095 1972.4235 -29.3205
964.9615 1979.7795 23.4585
966.8095 1980.4095 26.9445
1037.1105 1954.1525 26.9445
1009.8880 1936.2240 -76.8480
963.7280 1977.3040 -18.5520
961.6160 1981.6880 13.4240
963.7280 1982.4080 17.4080
1040.7520 1953.6400 17.4080
1004.5935 1936.0655 -81.3735
961.7185 1980.9605 -8.6015
960.1345 1982.8185 5.3055
961.7185 1983.3585 8.2935
1043.1415 1952.9475 8.2935
1044.0000 1952.0000 0.0000
1000.0000 1987.0000 -83.0000
1000.0000 1990.0000 72.0000
1000.0000 1990.0000 72.0000
1000.0000 1990.0000 72.0000
1043.1415 1952.7145 -8.6015
995.5465 1988.1985 -81.3735
997.1305 1989.8815 73.6695
995.5465 1991.1415 70.6815
1004.5935 1987.6535 70.6815
1040.7520 1954.9360 -18.5520
990.6320 1988.6880 -76.8480
992.7440 1989.7920 70.9760
990.6320 1991.4720 66.9920
1009.8880 1984.0480 66.9920
1037.1105 1958.3315 -29.3205
985.4755 1988.6095 -69.9545
987.3235 1989.6805 64.8165
985.4755 1991.1505 61.3305
1015.6045 1979.5345 61.3305
1032.4960 1962.5680 -40.3760
980.2960 1988.1040 -61.2240
981.3520 1989.4960 56.0880
980.2960 1990.3360 54.0960
1021.4640 1974.4640 54.0960
1027.1875 1967.3125 -51.1875
975.3125 1987.3125 -51.1875
975.3125 1989.1875 45.6875
975.3125 1989.1875 45.6875
1027.1875 1969.1875 45.6875
1021.4640 1972.2320 -61.2240
970.7440 1986.3760 -40.3760
969.6880 1988.7040 34.5120
970.7440 1987.8640 36.5040
1032.4960 1964.0560 36.5040
1015.6045 1976.9935 -69.9545
966.8095 1985.4355 -29.3205
964.9615 1987.9945 23.4585
966.8095 1986.5245 26.9445
1037.1105 1959.4205 26.9445
1009.8880 1981.2640 -76.8480
963.7280 1984.6320 -18.5520
961.6160 1987.0080 13.4240
963.7280 1985.3280 17.4080
1040.7520 1955.6320 17.4080
1004.5935 1984.7105 -81.3735
961.7185 1984.1065 -8.6015
960.1345 1985.6935 5.3055
961.7185 1984.4335 8.2935
1043.1415 1953.0415 8.2935
1044.0000 1953.0000 0.0000
1000.0000 1987.0000 -83.0000
1000.0000 1991.0000 72.0000
1000.0000 1991.0000 72.0000
1000.0000 1991.0000 72.0000
1043.1415 1953.6460 -8.6015
995.5465 1988.2220 -81.3735
997.1305 1990.9220 73.6695
995.5465 1992.1460 70.6815
1004.5935 1988.6580 70.6815
1040.7520 1955.7680 -18.5520
990.6320 1988.7760 -76.8480
992.7440 1990.8560 70.9760
990.6320 1992.4880 66.9920
1009.8880 1985.0640 66.9920
1037.1105 1959.0420 -29.3205
985.4755 1988.7940 -69.9545
987.3235 1990.7540 64.8165
985.4755 1992.1820 61.3305
1015.6045 1980.5660 61.3305
1032.4960 1963.1440 -40.3760
980.2960 1988.4080 -61.2240
981.3520 1990.5680 56.0880
980.2960 1991.3840 54.0960
1021.4640 1975.5120 54.0960
1027.1875 1967.7500 -51.1875
975.3125 1987.7500 -51.1875
975.3125 1990.2500 45.6875
975.3125 1990.2500 45.6875
1027.1875 1970.2500 45.6875
1021.4640 1972.5360 -61.2240
970.7440 1986.9520 -40.3760
969.6880 1989.7520 34.5120
970.7440 1988.9360 36.5040
1032.4960 1965.1280 36.5040
1015.6045 1977.1780 -69.9545
966.8095 1986.1460 -29.3205
964.9615 1989.0260 23.4585
966.8095 1987.5980 26.9445
1037.1105 1960.4940 26.9445
1009.8880 1981.3520 -76.8480
963.7280 1985.4640 -18.5520
961.6160 1988.0240 13.4240
963.7280 1986.3920 17.4080
1040.7520 1956.6960 17.4080
1004.5935 1984.7340 -81.3735
961.7185 1985.0380 -8.6015
960.1345 1986.6980 5.3055
961.7185 1985.4740 8.2935
1043.1415 1954.0820 8.2935
1044.0000 1953.0000 0.0000
1000.0000 1988.0000 -83.0000
1000.0000 1958.0000 73.0000
1000.0000 1958.0000 73.0000
1000.0000 1958.0000 73.0000
1043.1415 1955.0510 -8.6420
995.5465 1989.3470 -81.3780
997.1305 1958.6570 74.6460
995.5465 1959.9170 71.6580
1004.5935 1956.4290 71.6580
1040.7520 1958.0480 -18.6160
990.6320 1990.2160 -76.8640
992.7440 1960.6960 71.8880
990.6320 1962.3760 67.9040
1009.8880 1954.9520 67.9040
1037.1105 1961.7570 -29.3940
985.4755 1990.6490 -69.9860
987.3235 1963.7690 65.6320
985.4755 1965.2390 62.1460
1015.6045 1953.6230 62.1460
1032.4960 1965.9440 -40.4480
980.2960 1990.6880 -61.2720
981.3520 1967.5280 56.7840
980.2960 1968.3680 54.7920
1021.4640 1952.4960 54.7920
1027.1875 1970.3750 -51.2500
975.3125 1990.3750 -51.2500
975.3125 1971.6250 46.2500
975.3125 1971.6250 46.2500
1027.1875 1951.6250 46.2500
1021.4640 1974.8160 -61.2720
970.7440 1989.7520 -40.4480
969.6880 1975.7120 34.9360
970.7440 1974.8720 36.9280
1032.4960 1951.0640 36.9280
1015.6045 1979.0330 -69.9860
966.8095 1988.8610 -29.3940
964.9615 1979.4410 23.7480
966.8095 1977.9710 27.2340
1037.1105 1950.8670 27.2340
1009.8880 1982.7920 -76.8640
963.7280 1987.7440 -18.6160
961.6160 1982.4640 13.5920
963.7280 1980.7840 17.5760
1040.7520 1951.0880 17.5760
1004.5935 1985.8590 -81.3780
961.7185 1986.4430 -8.6420
960.1345 1984.4330 5.3740
961.7185 1983.1730 8.3620
1043.1415 1951.7810 8.3620
1044.0000 1953.0000 0.0000
1000.0000 1988.0000 -83.0000
1000.0000 1959.0000 73.0000
1000.0000 1959.0000 73.0000
1000.0000 1959.0000 73.0000
1043.1415 1954.9745 -8.6420
995.5465 1989.8905 -81.3780
997.1305 1960.1815 74.6460
995.5465 1961.4415 71.6580
1004.5935 1957.0815 71.6580
1040.7520 1957.8560 -18.6160
990.6320 1991.5440 -76.8640
992.7440 1962.9520 71.8880
990.6320 1964.6320 67.9040
1009.8880 1955.3520 67.9040
1037.1105 1961.4315 -29.3940
985.4755 1992.9335 -69.9860
987.3235 1966.9005 65.6320
985.4755 1968.3705 62.1460
1015.6045 1953.8505 62.1460
1032.4960 1965.4880 -40.4480
980.2960 1994.0320 -61.2720
981.3520 1971.6160 56.7840
980.2960 1972.4560 54.7920
1021.4640 1952.6160 54.7920
1027.1875 1969.8125 -51.2500
975.3125 1994.8125 -51.2500
975.3125 1976.6875 46.2500
975.3125 1976.6875 46.2500
1027.1875 1951.6875 46.2500
1021.4640 1974.1920 -61.2720
970.7440 1995.2480 -40.4480
969.6880 1981.7040 34.9360
970.7440 1980.8640 36.9280
1032.4960 1951.1040 36.9280
1015.6045 1978.4135 -69.9860
966.8095 1995.3115 -29.3940
964.9615 1986.2545 23.7480
966.8095 1984.7845 27.2340
1037.1105 1950.9045 27.2340
1009.8880 1982.2640 -76.8640
963.7280 1994.9760 -18.6160
961.6160 1989.9280 13.5920
963.7280 1988.2480 17.5760
1040.7520 1951.1280 17.5760
1004.5935 1985.5305 -81.3780
961.7185 1994.2145 -8.6420
960.1345 1992.3135 5.3740
961.7185 1991.0535 8.3620
1043.1415 1951.8135 8.3620
1044.0000 1953.0000 0.0000
1000.0000 1988.0000 -83.0000
1000.0000 1960.0000 73.0000
1000.0000 1960.0000 73.0000
1000.0000 1960.0000 73.0000
1043.1415 1954.9340 -8.6420
995.5465 1989.8860 -81.3780
997.1305 1961.1580 74.6460
995.5465 1962.4180 71.6580
1004.5935 1958.0580 71.6580
1040.7520 1957.7920 -18.6160
990.6320 1991.5280 -76.8640
992.7440 1963.8640 71.8880
990.6320 1965.5440 67.9040
1009.8880 1956.2640 67.9040
1037.1105 1961.3580 -29.3940
985.4755 1992.9020 -69.9860
987.3235 1967.7160 65.6320
985.4755 1969.1860 62.1460
1015.6045 1954.6660 62.1460
1032.4960 1965.4160 -40.4480
980.2960 1993.9840 -61.2720
981.3520 1972.3120 56.7840
980.2960 1973.1520 54.7920
1021.4640 1953.3120 54.7920
1027.1875 1969.7500 -51.2500
975.3125 1994.7500 -51.2500
975.3125 1977.2500 46.2500
975.3125 1977.2500 46.2500
1027.1875 1952.2500 46.2500
1021.4640 1974.1440 -61.2720
970.7440 1995.1760 -40.4480
969.6880 1982.1280 34.9360
970.7440 1981.2880 36.9280
1032.4960 1951.5280 36.9280
1015.6045 1978.3820 -69.9860
966.8095 1995.2380 -29.3940
964.9615 1986.5440 23.7480
966.8095 1985.0740 27.2340
1037.1105 1951.1940 27.2340
1009.8880 1982.2480 -76.8640
963.7280 1994.9120 -18.6160
961.6160 1990.0960 13.5920
963.7280 1988.4160 17.5760
1040.7520 1951.2960 17.5760
1004.5935 1985.5260 -81.3780
961.7185 1994.1740 -8.6420
960.1345 1992.3820 5.3740
961.7185 1991.1220 8.3620
1043.1415 1951.8820 8.3620
1044.0000 1954.0000 0.0000
1000.0000 1892.0000 -82.0000
1000.0000 1990.0000 73.0000
1000.0000 1990.0000 73.0000
1000.0000 1990.0000 73.0000
1043.1415 1948.1150 -8.5735
995.5465 1896.0350 -80.4015
997.1305 1994.4050 74.6055
995.5465 1992.1730 71.6535
1004.5935 1987.8130 71.6535
1040.7520 1940.6400 -18.4480
990.6320 1903.6000 -75.9520
992.7440 1997.5200 71.8240
990.6320 1994.5440 67.8880
1009.8880 1985.2640 67.8880
1037.1105 1932.1450 -29.1045
985.4755 1913.8850 -69.1705
987.3235 1999.4950 65.5585
985.4755 1996.8910 62.1145
1015.6045 1982.3710 62.1145
1032.4960 1923.2000 -40.0240
980.2960 1926.0800 -60.5760
981.3520 2000.4800 56.7120
980.2960 1998.9920 54.7440
1021.4640 1979.1520 54.7440
1027.1875 1914.3750 -50.6875
975.3125 1939.3750 -50.6875
975.3125 2000.6250 46.1875
975.3125 2000.6250 46.1875
1027.1875 1975.6250 46.1875
1021.4640 1906.2400 -60.5760
970.7440 1952.9600 -40.0240
969.6880 2000.0800 34.8880
970.7440 2001.5680 36.8560
1032.4960 1971.8080 36.8560
1015.6045 1899.3650 -69.1705
966.8095 1966.0250 -29.1045
964.9615 1998.9950 23.7165
966.8095 2001.5990 27.1605
1037.1105 1967.7190 27.1605
1009.8880 1894.3200 -75.9520
963.7280 1977.7600 -18.4480
961.6160 1997.5200 13.5760
963.7280 2000.4960 17.5120
1040.7520 1963.3760 17.5120
1004.5935 1891.6750 -80.4015
961.7185 1987.3550 -8.5735
960.1345 1995.8050 5.3695
961.7185 1998.0370 8.3215
1043.1415 1958.7970 8.3215
1044.0000 1954.0000 0.0000
1000.0000 1892.0000 -82.0000
1000.0000 1991.0000 73.0000
1000.0000 1991.0000 73.0000
1000.0000 1991.0000 73.0000
1043.1415 1948.0700 -8.5735
995.5465 1896.0990 -80.4015
997.1305 1995.4500 74.6055
995.5465 1993.2180 71.6535
1004.5935 1988.7490 71.6535
1040.7520 1940.5600 -18.4480
990.6320 1903.7520 -75.9520
992.7440 1998.6000 71.8240
990.6320 1995.6240 67.8880
1009.8880 1986.1120 67.8880
1037.1105 1932.0400 -29.1045
985.4755 1914.1430 -69.1705
987.3235 2000.6000 65.5585
985.4755 1997.9960 62.1145
1015.6045 1983.1130 62.1145
1032.4960 1923.0800 -40.0240
980.2960 1926.4560 -60.5760
981.3520 2001.6000 56.7120
980.2960 2000.1120 54.7440
1021.4640 1979.7760 54.7440
1027.1875 1914.2500 -50.6875
975.3125 1939.8750 -50.6875
975.3125 2001.7500 46.1875
975.3125 2001.7500 46.1875
1027.1875 1976.1250 46.1875
1021.4640 1906.1200 -60.5760
970.7440 1953.5840 -40.0240
969.6880 2001.2000 34.8880
970.7440 2002.6880 36.8560
1032.4960 1972.1840 36.8560
1015.6045 1899.2600 -69.1705
966.8095 1966.7670 -29.1045
964.9615 2000.1000 23.7165
966.8095 2002.7040 27.1605
1037.1105 1967.9770 27.1605
1009.8880 1894.2400 -75.9520
963.7280 1978.6080 -18.4480
961.6160 1998.6000 13.5760
963.7280 2001.5760 17.5120
1040.7520 1963.5280 17.5120
1004.5935 1891.6300 -80.4015
961.7185 1988.2910 -8.5735
960.1345 1996.8500 5.3695
961.7185 1999.0820 8.3215
1043.1415 1958.8610 8.3215
1044.0000 1954.0000 0.0000
1000.0000 1892.0000 -82.0000
1000.0000 1958.0000 74.0000
1000.0000 1958.0000 74.0000
1000.0000 1958.0000 74.0000
1043.1415 1949.4065 -8.6140
995.5465 1896.2475 -80.4060
997.1305 1963.2255 75.5820
995.5465 1960.9935 72.6300
1004.5935 1956.5245 72.6300
1040.7520 1942.6720 -18.5120
990.6320 1904.2800 -75.9680
992.7440 1968.5040 72.7360
990.6320 1965.5280 68.8000
1009.8880 1956.0160 68.8000
1037.1105 1934.4655 -29.1780
985.4755 1915.1825 -69.2020
987.3235 1973.6885 66.3740
985.4755 1971.0845 62.9300
1015.6045 1956.2015 62.9300
1032.4960 1925.4560 -40.0960
980.2960 1928.0400 -60.6240
981.3520 1978.6320 57.4080
980.2960 1977.1440 55.4400
1021.4640 1956.8080 55.4400
1027.1875 1916.3125 -50.7500
975.3125 1941.9375 -50.7500
975.3125 1983.1875 46.7500
975.3125 1983.1875 46.7500
1027.1875 1957.5625 46.7500
1021.4640 1907.7040 -60.6240
970.7440 1955.9600 -40.0960
969.6880 1987.2080 35.3120
970.7440 1988.6960 37.2800
1032.4960 1958.1920 37.2800
1015.6045 1900.2995 -69.2020
966.8095 1969.1925 -29.1780
964.9615 1990.5465 24.0060
966.8095 1993.1505 27.4500
1037.1105 1958.4235 27.4500
1009.8880 1894.7680 -75.9680
963.7280 1980.7200 -18.5120
961.6160 1993.0560 13.7440
963.7280 1996.0320 17.6800
1040.7520 1957.9840 17.6800
1004.5935 1891.7785 -80.4060
961.7185 1989.6275 -8.6140
960.1345 1994.5895 5.4380
961.7185 1996.8215 8.3900
1043.1415 1956.6005 8.3900
1044.0000 1955.0000 0.0000
1000.0000 1893.0000 -82.0000
1000.0000 1959.0000 74.0000
1000.0000 1959.0000 74.0000
1000.0000 1959.0000 74.0000
1043.1415 1950.4065 -8.6140
995.5465 1897.2475 -80.4060
997.1305 1964.2255 75.5820
995.5465 1961.9935 72.6300
1004.5935 1957.5245 72.6300
1040.7520 1943.6720 -18.5120
990.6320 1905.2800 -75.9680
992.7440 1969.5040 72.7360
990.6320 1966.5280 68.8000
1009.8880 1957.0160 68.8000
1037.1105 1935.4655 -29.1780
985.4755 1916.1825 -69.2020
987.3235 1974.6885 66.3740
985.4755 1972.0845 62.9300
1015.6045 1957.2015 62.9300
1032.4960 1926.4560 -40.0960
980.2960 1929.0400 -60.6240
981.3520 1979.6320 57.4080
980.2960 1978.1440 55.4400
1021.4640 1957.8080 55.4400
1027.1875 1917.3125 -50.7500
975.3125 1942.9375 -50.7500
975.3125 1984.1875 46.7500
975.3125 1984.1875 46.7500
1027.1875 1958.5625 46.7500
1021.4640 1908.7040 -60.6240
970.7440 1956.9600 -40.0960
969.6880 1988.2080 35.3120
970.7440 1989.6960 37.2800
1032.4960 1959.1920 37.2800
1015.6045 1901.2995 -69.2020
966.8095 1970.1925 -29.1780
964.9615 1991.5465 24.0060
966.8095 1994.1505 27.4500
1037.1105 1959.4235 27.4500
1009.8880 1895.7680 -75.9680
963.7280 1981.7200 -18.5120
961.6160 1994.0560 13.7440
963.7280 1997.0320 17.6800
1040.7520 1958.9840 17.6800
1004.5935 1892.7785 -80.4060
961.7185 1990.6275 -8.6140
960.1345 1995.5895 5.4380
961.7185 1997.8215 8.3900
1043.1415 1957.6005 8.3900
1044.0000 1955.0000 0.0000
1000.0000 1893.0000 -82.0000
1000.0000 1960.0000 74.0000
1000.0000 1960.0000 74.0000
1000.0000 1960.0000 74.0000
1043.1415 1950.3660 -8.6140
995.5465 1897.2430 -80.4060
997.1305 1965.2020 75.5820
995.5465 1962.9700 72.6300
1004.5935 1958.5010 72.6300
1040.7520 1943.6080 -18.5120
990.6320 1905.2640 -75.9680
992.7440 1970.4160 72.7360
990.6320 1967.4400 68.8000
1009.8880 1957.9280 68.8000
1037.1105 1935.3920 -29.1780
985.4755 1916.1510 -69.2020
987.3235 1975.5040 66.3740
985.4755 1972.9000 62.9300
1015.6045 1958.0170 62.9300
1032.4960 1926.3840 -40.0960
980.2960 1928.9920 -60.6240
981.3520 1980.3280 57.4080
980.2960 1978.8400 55.4400
1021.4640 1958.5040 55.4400
1027.1875 1917.2500 -50.7500
975.3125 1942.8750 -50.7500
975.3125 1984.7500 46.7500
975.3125 1984.7500 46.7500
1027.1875 1959.1250 46.7500
1021.4640 1908.6560 -60.6240
970.7440 1956.8880 -40.0960
969.6880 1988.6320 35.3120
970.7440 1990.1200 37.2800
1032.4960 1959.6160 37.2800
1015.6045 1901.2680 -69.2020
966.8095 1970.1190 -29.1780
964.9615 1991.8360 24.0060
966.8095 1994.4400 27.4500
1037.1105 1959.7130 27.4500
1009.8880 1895.7520 -75.9680
963.7280 1981.6560 -18.5120
961.6160 1994.2240 13.7440
963.7280 1997.2000 17.6800
1040.7520 1959.1520 17.6800
1004.5935 1892.7740 -80.4060
961.7185 1990.5870 -8.6140
960.1345 1995.6580 5.4380
961.7185 1997.8900 8.3900
1043.1415 1957.6690 8.3900
1044.0000 1955.0000 0.0000
1000.0000 1894.0000 -82.0000
1000.0000 1967.0000 74.0000
1000.0000 1967.0000 74.0000
1000.0000 1967.0000 74.0000
1043.1370 1950.2590 -8.6140
995.6150 1896.5440 -80.4060
997.1990 1970.3530 75.5820
995.6150 1968.1570 72.6300
1004.5530 1966.3040 72.6300
1040.7360 1943.7120 -18.5120
990.8000 1902.0320 -75.9680
992.9120 1972.7040 72.7360
990.8000 1969.7760 68.8000
1009.8240 1965.8320 68.8000
1037.0790 1935.9230 -29.1780
985.7650 1909.7980 -69.2020
987.6130 1974.1910 66.3740
985.7650 1971.6290 62.9300
1015.5310 1965.4580 62.9300
1032.4480 1927.4560 -40.0960
980.7200 1919.1760 -60.6240
981.7760 1974.9520 57.4080
980.7200 1973.4880 55.4400
1021.3920 1965.0560 55.4400
1027.1250 1918.8750 -50.7500
975.8750 1929.5000 -50.7500
975.8750 1975.1250 46.7500
975.8750 1975.1250 46.7500
1027.1250 1964.5000 46.7500
1021.3920 1910.7440 -60.6240
971.4400 1940.1040 -40.0960
970.3840 1974.8480 35.3120
971.4400 1976.3120 37.2800
1032.4480 1963.6640 37.2800
1015.5310 1903.6270 -69.2020
967.6250 1950.3220 -29.1780
965.7770 1974.2590 24.0060
967.6250 1976.8210 27.4500
1037.0790 1962.4220 27.4500
1009.8240 1898.0880 -75.9680
964.6400 1959.4880 -18.5120
962.5280 1973.4960 13.7440
964.6400 1976.4240 17.6800
1040.7360 1960.6480 17.6800
1004.5530 1894.6910 -80.4060
962.6950 1966.9360 -8.6140
961.1110 1972.6970 5.4380
962.6950 1974.8930 8.3900
1043.1370 1958.2160 8.3900
1044.0000 1955.0000 0.0000
1000.0000 1894.0000 -82.0000
1000.0000 1990.0000 74.0000
1000.0000 1990.0000 74.0000
1000.0000 1990.0000 74.0000
1043.1370 1949.3230 -8.6140
995.6150 1896.5090 -80.4060
997.1990 1992.8810 75.5820
995.6150 1990.6850 72.6300
1004.5530 1988.7230 72.6300
1040.7360 1942.2240 -18.5120
990.8000 1901.8320 -75.9680
992.9120 1993.8480 72.7360
990.8000 1990.9200 68.8000
1009.8240 1986.7440 68.8000
1037.0790 1934.2010 -29.1780
985.7650 1909.3630 -69.2020
987.6130 1993.2370 66.3740
985.7650 1990.6750 62.9300
1015.5310 1984.1410 62.9300
1032.4480 1925.7520 -40.0960
980.7200 1918.4960 -60.6240
981.7760 1991.3840 57.4080
980.7200 1989.9200 55.4400
1021.3920 1980.9920 55.4400
1027.1250 1917.3750 -50.7500
975.8750 1928.6250 -50.7500
975.8750 1988.6250 46.7500
975.8750 1988.6250 46.7500
1027.1250 1977.3750 46.7500
1021.3920 1909.5680 -60.6240
971.4400 1939.1440 -40.0960
970.3840 1985.2960 35.3120
971.4400 1986.7600 37.2800
1032.4480 1973.3680 37.2800
1015.5310 1902.8290 -69.2020
967.6250 1949.4470 -29.1780
965.7770 1981.7330 24.0060
967.6250 1984.2950 27.4500
1037.0790 1969.0490 27.4500
1009.8240 1897.6560 -75.9680
964.6400 1958.9280 -18.5120
962.5280 1978.2720 13.7440
964.6400 1981.2000 17.6800
1040.7360 1964.4960 17.6800
1004.5530 1894.5470 -80.4060
962.6950 1966.9810 -8.6140
961.1110 1975.2490 5.4380
962.6950 1977.4450 8.3900
1043.1370 1959.7870 8.3900
1044.0000 1956.0000 0.0000
1000.0000 1894.0000 -82.0000
1000.0000 1991.0000 74.0000
1000.0000 1991.0000 74.0000
1000.0000 1991.0000 74.0000
1043.1370 1950.2590 -8.6140
995.6150 1896.4640 -80.4060
997.1990 1993.8530 75.5820
995.6150 1991.6210 72.6300
1004.5530 1989.7680 72.6300
1040.7360 1943.0720 -18.5120
990.8000 1901.7520 -75.9680
992.9120 1994.7440 72.7360
990.8000 1991.7680 68.8000
1009.8240 1987.8240 68.8000
1037.0790 1934.9430 -29.1780
985.7650 1909.2580 -69.2020
987.6130 1994.0210 66.3740
985.7650 1991.4170 62.9300
1015.5310 1985.2460 62.9300
1032.4480 1926.3760 -40.0960
980.7200 1918.3760 -60.6240
981.7760 1992.0320 57.4080
980.7200 1990.5440 55.4400
1021.3920 1982.1120 55.4400
1027.1250 1917.8750 -50.7500
975.8750 1928.5000 -50.7500
975.8750 1989.1250 46.7500
975.8750 1989.1250 46.7500
1027.1250 1978.5000 46.7500
1021.3920 1909.9440 -60.6240
971.4400 1939.0240 -40.0960
970.3840 1985.6480 35.3120
971.4400 1987.1360 37.2800
1032.4480 1974.4880 37.2800
1015.5310 1903.0870 -69.2020
967.6250 1949.3420 -29.1780
965.7770 1981.9490 24.0060
967.6250 1984.5530 27.4500
1037.0790 1970.1540 27.4500
1009.8240 1897.8080 -75.9680
964.6400 1958.8480 -18.5120
962.5280 1978.3760 13.7440
964.6400 1981.3520 17.6800
1040.7360 1965.5760 17.6800
1004.5530 1894.6110 -80.4060
962.6950 1966.9360 -8.6140
961.1110 1975.2770 5.4380
962.6950 1977.5090 8.3900
1043.1370 1960.8320 8.3900
1044.0000 1956.0000 0.0000
1000.0000 1895.0000 -82.0000
1000.0000 1958.0000 75.0000
1000.0000 1958.0000 75.0000
1000.0000 1958.0000 75.0000
1043.1370 1951.6595 -8.6545
995.6150 1897.6575 -80.4105
997.1990 1961.6565 76.5585
995.6150 1959.4605 73.6065
1004.5530 1957.4985 73.6065
1040.7360 1945.3360 -18.5760
990.8000 1903.3600 -75.9840
992.9120 1964.7520 73.6480
990.8000 1961.8240 69.7120
1009.8240 1957.6480 69.7120
1037.0790 1937.6265 -29.2515
985.7650 1911.4025 -69.2335
987.6130 1967.3255 67.1895
985.7650 1964.7635 63.7455
1015.5310 1958.2295 63.7455
1032.4480 1929.1280 -40.1680
980.7200 1921.0800 -60.6720
981.7760 1969.4160 58.1040
980.7200 1967.9520 56.1360
1021.3920 1959.0240 56.1360
1027.1250 1920.4375 -50.8125
975.8750 1931.6875 -50.8125
975.8750 1971.0625 47.3125
975.8750 1971.0625 47.3125
1027.1250 1959.8125 47.3125
1021.3920 1912.1520 -60.6720
971.4400 1942.5200 -40.1680
970.3840 1972.3040 35.7360
971.4400 1973.7680 37.7040
1032.4480 1960.3760 37.7040
1015.5310 1904.8685 -69.2335
967.6250 1952.8725 -29.2515
965.7770 1973.1795 24.2955
967.6250 1975.7415 27.7395
1037.0790 1960.4955 27.7395
1009.8240 1899.1840 -75.9840
964.6400 1962.0400 -18.5760
962.5280 1973.7280 13.9120
964.6400 1976.6560 17.8480
1040.7360 1959.9520 17.8480
1004.5530 1895.6955 -80.4105
962.6950 1969.3175 -8.6545
961.1110 1973.9885 5.5065
962.6950 1976.1845 8.4585
1043.1370 1958.5265 8.4585
1044.0000 1956.0000 0.0000
1000.0000 1895.0000 -82.0000
1000.0000 1959.0000 75.0000
1000.0000 1959.0000 75.0000
1000.0000 1959.0000 75.0000
1043.1370 1951.6190 -8.6545
995.6150 1897.6530 -80.4105
997.1990 1962.6330 76.5585
995.6150 1960.4370 73.6065
1004.5530 1958.4750 73.6065
1040.7360 1945.2720 -18.5760
990.8000 1903.3440 -75.9840
992.9120 1965.6640 73.6480
990.8000 1962.7360 69.7120
1009.8240 1958.5600 69.7120
1037.0790 1937.5530 -29.2515
985.7650 1911.3710 -69.2335
987.6130 1968.1410 67.1895
985.7650 1965.5790 63.7455
1015.5310 1959.0450 63.7455
1032.4480 1929.0560 -40.1680
980.7200 1921.0320 -60.6720
981.7760 1970.1120 58.1040
980.7200 1968.6480 56.1360
1021.3920 1959.7200 56.1360
1027.1250 1920.3750 -50.8125
975.8750 1931.6250 -50.8125
975.8750 1971.6250 47.3125
975.8750 1971.6250 47.3125
1027.1250 1960.3750 47.3125
1021.3920 1912.1040 -60.6720
971.4400 1942.4480 -40.1680
970.3840 1972.7280 35.7360
971.4400 1974.1920 37.7040
1032.4480 1960.8000 37.7040
1015.5310 1904.8370 -69.2335
967.6250 1952.7990 -29.2515
965.7770 1973.4690 24.2955
967.6250 1976.0310 27.7395
1037.0790 1960.7850 27.7395
1009.8240 1899.1680 -75.9840
964.6400 1961.9760 -18.5760
962.5280 1973.8960 13.9120
964.6400 1976.8240 17.8480
1040.7360 1960.1200 17.8480
1004.5530 1895.6910 -80.4105
962.6950 1969.2770 -8.6545
961.1110 1974.0570 5.5065
962.6950 1976.2530 8.4585
1043.1370 1958.5950 8.4585
1044.0000 1956.0000 0.0000
1000.0000 1895.0000 -82.0000
1000.0000 1960.0000 75.0000
1000.0000 1960.0000 75.0000
1000.0000 1960.0000 75.0000
1043.1370 1951.5740 -8.6545
995.6150 1897.7170 -80.4105
997.1990 1963.6780 76.5585
995.6150 1961.4820 73.6065
1004.5530 1959.4110 73.6065
1040.7360 1945.1920 -18.5760
990.8000 1903.4960 -75.9840
992.9120 1966.7440 73.6480
990.8000 1963.8160 69.7120
1009.8240 1959.4080 69.7120
1037.0790 1937.4480 -29.2515
985.7650 1911.6290 -69.2335
987.6130 1969.2460 67.1895
985.7650 1966.6840 63.7455
1015.5310 1959.7870 63.7455
1032.4480 1928.9360 -40.1680
980.7200 1921.4080 -60.6720
981.7760 1971.2320 58.1040
980.7200 1969.7680 56.1360
1021.3920 1960.3440 56.1360
1027.1250 1920.2500 -50.8125
975.8750 1932.1250 -50.8125
975.8750 1972.7500 47.3125
975.8750 1972.7500 47.3125
1027.1250 1960.8750 47.3125
1021.3920 1911.9840 -60.6720
971.4400 1943.0720 -40.1680
970.3840 1973.8480 35.7360
971.4400 1975.3120 37.7040
1032.4480 1961.1760 37.7040
1015.5310 1904.7320 -69.2335
967.6250 1953.5410 -29.2515
965.7770 1974.5740 24.2955
967.6250 1977.1360 27.7395
1037.0790 1961.0430 27.7395
1009.8240 1899.0880 -75.9840
964.6400 1962.8240 -18.5760
962.5280 1974.9760 13.9120
964.6400 1977.9040 17.8480
1040.7360 1960.2720 17.8480
1004.5530 1895.6460 -80.4105
962.6950 1970.2130 -8.6545
961.1110 1975.1020 5.5065
962.6950 1977.2980 8.4585
1043.1370 1958.6590 8.4585
1044.0000 1957.0000 0.0000
1000.0000 1896.0000 -82.0000
1000.0000 1967.0000 75.0000
1000.0000 1967.0000 75.0000
1000.0000 1967.0000 75.0000
1043.1370 1952.3310 -8.6545
995.6150 1898.6900 -80.4105
997.1990 1970.5370 76.5585
995.6150 1968.3410 73.6065
1004.5530 1966.2700 73.6065
1040.7360 1945.8080 -18.5760
990.8000 1904.4000 -75.9840
992.9120 1973.2160 73.6480
990.8000 1970.2880 69.7120
1009.8240 1965.8800 69.7120
1037.0790 1938.0070 -29.2515
985.7650 1912.4400 -69.2335
987.6130 1975.1390 67.1895
985.7650 1972.5770 63.7455
1015.5310 1965.6800 63.7455
1032.4480 1929.5040 -40.1680
980.7200 1922.1200 -60.6720
981.7760 1976.4080 58.1040
980.7200 1974.9440 56.1360
1021.3920 1965.5200 56.1360
1027.1250 1920.8750 -50.8125
975.8750 1932.7500 -50.8125
975.8750 1977.1250 47.3125
975.8750 1977.1250 47.3125
1027.1250 1965.2500 47.3125
1021.3920 1912.6960 -60.6720
971.4400 1943.6400 -40.1680
970.3840 1977.3920 35.7360
971.4400 1978.8560 37.7040
1032.4480 1964.7200 37.7040
1015.5310 1905.5430 -69.2335
967.6250 1954.1000 -29.2515
965.7770 1977.3110 24.2955
967.6250 1979.8730 27.7395
1037.0790 1963.7800 27.7395
1009.8240 1899.9920 -75.9840
964.6400 1963.4400 -18.5760
962.5280 1976.9840 13.9120
964.6400 1979.9120 17.8480
1040.7360 1962.2800 17.8480
1004.5530 1896.6190 -80.4105
962.6950 1970.9700 -8.6545
961.1110 1976.5130 5.5065
962.6950 1978.7090 8.4585
1043.1370 1960.0700 8.4585
1044.0000 1957.0000 0.0000
1000.0000 1896.0000 -82.0000
1000.0000 1990.0000 75.0000
1000.0000 1990.0000 75.0000
1000.0000 1990.0000 75.0000
1043.1370 1951.3995 -8.6545
995.6150 1898.5865 -80.4105
997.1990 1992.9965 76.5585
995.6150 1990.8005 73.6065
1004.5530 1988.7295 73.6065
1040.7360 1944.3360 -18.5760
990.8000 1904.0320 -75.9840
992.9120 1994.1920 73.6480
990.8000 1991.2640 69.7120
1009.8240 1986.8560 69.7120
1037.0790 1936.3165 -29.2515
985.7650 1911.7155 -69.2335
987.6130 1993.8955 67.1895
985.7650 1991.3335 63.7455
1015.5310 1984.4365 63.7455
1032.4480 1927.8480 -40.1680
980.7200 1921.0160 -60.6720
981.7760 1992.4160 58.1040
980.7200 1990.9520 56.1360
1021.3920 1981.5280 56.1360
1027.1250 1919.4375 -50.8125
975.8750 1931.3125 -50.8125
975.8750 1990.0625 47.3125
975.8750 1990.0625 47.3125
1027.1250 1978.1875 47.3125
1021.3920 1911.5920 -60.6720
971.4400 1941.9840 -40.1680
970.3840 1987.1440 35.7360
971.4400 1988.6080 37.7040
1032.4480 1974.4720 37.7040
1015.5310 1904.8185 -69.2335
967.6250 1952.4095 -29.2515
965.7770 1983.9695 24.2955
967.6250 1986.5315 27.7395
1037.0790 1970.4385 27.7395
1009.8240 1899.6240 -75.9840
964.6400 1961.9680 -18.5760
962.5280 1980.8480 13.9120
964.6400 1983.7760 17.8480
1040.7360 1966.1440 17.8480
1004.5530 1896.5155 -80.4105
962.6950 1970.0385 -8.6545
961.1110 1978.0885 5.5065
962.6950 1980.2845 8.4585
1043.1370 1961.6455 8.4585
1044.0000 1957.0000 0.0000
1000.0000 1897.0000 -82.0000
1000.0000 1991.0000 75.0000
1000.0000 1991.0000 75.0000
1000.0000 1991.0000 75.0000
1043.1370 1951.3915 -8.6545
995.6150 1900.1065 -80.4105
997.1990 1994.4805 76.5585
995.6150 1992.3205 73.6065
1004.5530 1989.3775 73.6065
1040.7360 1944.3120 -18.5760
990.8000 1906.2720 -75.9840
992.9120 1996.3840 73.6480
990.8000 1993.5040 69.7120
1009.8240 1987.2400 69.7120
1037.0790 1936.2805 -29.2515
985.7650 1914.8155 -69.2335
987.6130 1996.9535 67.1895
985.7650 1994.4335 63.7455
1015.5310 1984.6325 63.7455
1032.4480 1927.8160 -40.1680
980.7200 1925.0560 -60.6720
981.7760 1996.4320 58.1040
980.7200 1994.9920 56.1360
1021.3920 1981.6000 56.1360
1027.1250 1919.4375 -50.8125
975.8750 1936.3125 -50.8125
975.8750 1995.0625 47.3125
975.8750 1995.0625 47.3125
1027.1250 1978.1875 47.3125
1021.3920 1911.6640 -60.6720
971.4400 1947.9040 -40.1680
970.3840 1993.0880 35.7360
971.4400 1994.5280 37.7040
1032.4480 1974.4400 37.7040
1015.5310 1905.0145 -69.2335
967.6250 1959.1495 -29.2515
965.7770 1990.7515 24.2955
967.6250 1993.2715 27.7395
1037.0790 1970.4025 27.7395
1009.8240 1900.0080 -75.9840
964.6400 1969.3680 -18.5760
962.5280 1988.2960 13.9120
964.6400 1991.1760 17.8480
1040.7360 1966.1200 17.8480
1004.5530 1897.1635 -80.4105
962.6950 1977.8785 -8.6545
961.1110 1985.9645 5.5065
962.6950 1988.1245 8.4585
1043.1370 1961.6375 8.4585
1044.0000 1957.0000 0.0000
1000.0000 1897.0000 -82.0000
1000.0000 1958.0000 76.0000
1000.0000 1958.0000 76.0000
1000.0000 1958.0000 76.0000
1043.1370 1952.7280 -8.6950
995.6150 1900.2550 -80.4150
997.1990 1962.2560 77.5350
995.6150 1960.0960 74.5830
1004.5530 1957.1530 74.5830
1040.7360 1946.4240 -18.6400
990.8000 1906.8000 -76.0000
992.9120 1966.2880 74.5600
990.8000 1963.4080 70.6240
1009.8240 1957.1440 70.6240
1037.0790 1938.7060 -29.3250
985.7650 1915.8550 -69.2650
987.6130 1970.0420 68.0050
985.7650 1967.5220 64.5610
1015.5310 1957.7210 64.5610
1032.4480 1930.1920 -40.2400
980.7200 1926.6400 -60.7200
981.7760 1973.4640 58.8000
980.7200 1972.0240 56.8320
1021.3920 1958.6320 56.8320
1027.1250 1921.5000 -50.8750
975.8750 1938.3750 -50.8750
975.8750 1976.5000 47.8750
975.8750 1976.5000 47.8750
1027.1250 1959.6250 47.8750
1021.3920 1913.2480 -60.7200
971.4400 1950.2800 -40.2400
970.3840 1979.0960 36.1600
971.4400 1980.5360 38.1280
1032.4480 1960.4480 38.1280
1015.5310 1906.0540 -69.2650
967.6250 1961.5750 -29.3250
965.7770 1981.1980 24.5850
967.6250 1983.7180 28.0290
1037.0790 1960.8490 28.0290
1009.8240 1900.5360 -76.0000
964.6400 1971.4800 -18.6400
962.5280 1982.7520 14.0800
964.6400 1985.6320 18.0160
1040.7360 1960.5760 18.0160
1004.5530 1897.3120 -80.4150
962.6950 1979.2150 -8.6950
961.1110 1983.7040 5.5750
962.6950 1985.8640 8.5270
1043.1370 1959.3770 8.5270
1044.0000 1958.0000 0.0000
1000.0000 1897.0000 -82.0000
1000.0000 1959.0000 76.0000
1000.0000 1959.0000 76.0000
1000.0000 1959.0000 76.0000
1043.1370 1953.6595 -8.6950
995.6150 1900.2785 -80.4150
997.1990 1963.2965 77.5350
995.6150 1961.1005 74.5830
1004.5530 1958.1575 74.5830
1040.7360 1947.2560 -18.6400
990.8000 1906.8880 -76.0000
992.9120 1967.3520 74.5600
990.8000 1964.4240 70.6240
1009.8240 1958.1600 70.6240
1037.0790 1939.4165 -29.3250
985.7650 1916.0395 -69.2650
987.6130 1971.1155 68.0050
985.7650 1968.5535 64.5610
1015.5310 1958.7525 64.5610
1032.4480 1930.7680 -40.2400
980.7200 1926.9440 -60.7200
981.7760 1974.5360 58.8000
980.7200 1973.0720 56.8320
1021.3920 1959.6800 56.8320
1027.1250 1921.9375 -50.8750
975.8750 1938.8125 -50.8750
975.8750 1977.5625 47.8750
975.8750 1977.5625 47.8750
1027.1250 1960.6875 47.8750
1021.3920 1913.5520 -60.7200
971.4400 1950.8560 -40.2400
970.3840 1980.1440 36.1600
971.4400 1981.6080 38.1280
1032.4480 1961.5200 38.1280
1015.5310 1906.2385 -69.2650
967.6250 1962.2855 -29.3250
965.7770 1982.2295 24.5850
967.6250 1984.7915 28.0290
1037.0790 1961.9225 28.0290
1009.8240 1900.6240 -76.0000
964.6400 1972.3120 -18.6400
962.5280 1983.7680 14.0800
964.6400 1986.6960 18.0160
1040.7360 1961.6400 18.0160
1004.5530 1897.3355 -80.4150
962.6950 1980.1465 -8.6950
961.1110 1984.7085 5.5750
962.6950 1986.9045 8.5270
1043.1370 1960.4175 8.5270
1044.0000 1958.0000 0.0000
1000.0000 1898.0000 -82.0000
1000.0000 1960.0000 76.0000
1000.0000 1960.0000 76.0000
1000.0000 1960.0000 76.0000
1043.1370 1953.6470 -8.6950
995.6150 1901.8670 -80.4150
997.1990 1964.8490 77.5350
995.6150 1962.6890 74.5830
1004.5530 1958.7650 74.5830
1040.7360 1947.2160 -18.6400
990.8000 1909.2960 -76.0000
992.9120 1969.7120 74.5600
990.8000 1966.8320 70.6240
1009.8240 1958.4800 70.6240
1037.0790 1939.3490 -29.3250
985.7650 1919.4290 -69.2650
987.6130 1974.4630 68.0050
985.7650 1971.9430 64.5610
1015.5310 1958.8750 64.5610
1032.4480 1930.6880 -40.2400
980.7200 1931.4080 -60.7200
981.7760 1978.9760 58.8000
980.7200 1977.5360 56.8320
1021.3920 1959.6800 56.8320
1027.1250 1921.8750 -50.8750
975.8750 1944.3750 -50.8750
975.8750 1983.1250 47.8750
975.8750 1983.1250 47.8750
1027.1250 1960.6250 47.8750
1021.3920 1913.5520 -60.7200
971.4400 1957.4720 -40.2400
970.3840 1986.7840 36.1600
971.4400 1988.2240 38.1280
1032.4480 1961.4400 38.1280
1015.5310 1906.3610 -69.2650
967.6250 1969.8410 -29.3250
965.7770 1989.8270 24.5850
967.6250 1992.3470 28.0290
1037.0790 1961.8550 28.0290
1009.8240 1900.9440 -76.0000
964.6400 1980.6240 -18.6400
962.5280 1992.1280 14.0800
964.6400 1995.0080 18.0160
1040.7360 1961.6000 18.0160
1004.5530 1897.9430 -80.4150
962.6950 1988.9630 -8.6950
961.1110 1993.5610 5.5750
962.6950 1995.7210 8.5270
1043.1370 1960.4050 8.5270
1044.0000 1958.0000 0.0000
1000.0000 1898.0000 -82.0000
1000.0000 1967.0000 76.0000
1000.0000 1967.0000 76.0000
1000.0000 1967.0000 76.0000
1043.1370 1953.3635 -8.6950
995.6150 1901.8355 -80.4150
997.1990 1971.6845 77.5350
995.6150 1969.5245 74.5830
1004.5530 1965.6005 74.5830
1040.7360 1946.7680 -18.6400
990.8000 1909.1840 -76.0000
992.9120 1976.0960 74.5600
990.8000 1973.2160 70.6240
1009.8240 1964.8640 70.6240
1037.0790 1938.8345 -29.3250
985.7650 1919.2085 -69.2650
987.6130 1980.1715 68.0050
985.7650 1977.6515 64.5610
1015.5310 1964.5835 64.5610
1032.4480 1930.1840 -40.2400
980.7200 1931.0720 -60.7200
981.7760 1983.8480 58.8000
980.7200 1982.4080 56.8320
1021.3920 1964.5520 56.8320
1027.1250 1921.4375 -50.8750
975.8750 1943.9375 -50.8750
975.8750 1987.0625 47.8750
975.8750 1987.0625 47.8750
1027.1250 1964.5625 47.8750
1021.3920 1913.2160 -60.7200
971.4400 1956.9680 -40.2400
970.3840 1989.7520 36.1600
971.4400 1991.1920 38.1280
1032.4480 1964.4080 38.1280
1015.5310 1906.1405 -69.2650
967.6250 1969.3265 -29.3250
965.7770 1991.8535 24.5850
967.6250 1994.3735 28.0290
1037.0790 1963.8815 28.0290
1009.8240 1900.8320 -76.0000
964.6400 1980.1760 -18.6400
962.5280 1993.3040 14.0800
964.6400 1996.1840 18.0160
1040.7360 1962.7760 18.0160
1004.5530 1897.9115 -80.4150
962.6950 1988.6795 -8.6950
961.1110 1994.0405 5.5750
962.6950 1996.2005 8.5270
1043.1370 1960.8845 8.5270
1044.0000 1958.0000 0.0000
1000.0000 1898.0000 -82.0000
1000.0000 1968.0000 76.0000
1000.0000 1968.0000 76.0000
1000.0000 1968.0000 76.0000
1043.1370 1953.3185 -8.6950
995.6150 1901.8995 -80.4150
997.1990 1972.7295 77.5350
995.6150 1970.5695 74.5830
1004.5530 1966.5365 74.5830
1040.7360 1946.6880 -18.6400
990.8000 1909.3360 -76.0000
992.9120 1977.1760 74.5600
990.8000 1974.2960 70.6240
1009.8240 1965.7120 70.6240
1037.0790 1938.7295 -29.3250
985.7650 1919.4665 -69.2650
987.6130 1981.2765 68.0050
985.7650 1978.7565 64.5610
1015.5310 1965.3255 64.5610
1032.4480 1930.0640 -40.2400
980.7200 1931.4480 -60.7200
981.7760 1984.9680 58.8000
980.7200 1983.5280 56.8320
1021.3920 1965.1760 56.8320
1027.1250 1921.3125 -50.8750
975.8750 1944.4375 -50.8750
975.8750 1988.1875 47.8750
975.8750 1988.1875 47.8750
1027.1250 1965.0625 47.8750
1021.3920 1913.0960 -60.7200
971.4400 1957.5920 -40.2400
970.3840 1990.8720 36.1600
971.4400 1992.3120 38.1280
1032.4480 1964.7840 38.1280
1015.5310 1906.0355 -69.2650
967.6250 1970.0685 -29.3250
965.7770 1992.9585 24.5850
967.6250 1995.4785 28.0290
1037.0790 1964.1395 28.0290
1009.8240 1900.7520 -76.0000
964.6400 1981.0240 -18.6400
962.5280 1994.3840 14.0800
964.6400 1997.2640 18.0160
1040.7360 1962.9280 18.0160
1004.5530 1897.8665 -80.4150
962.6950 1989.6155 -8.6950
961.1110 1995.0855 5.5750
962.6950 1997.2455 8.5270
1043.1370 1960.9485 8.5270
1044.0000 1959.0000 0.0000
1000.0000 1899.0000 -82.0000
1000.0000 1990.0000 76.0000
1000.0000 1990.0000 76.0000
1000.0000 1990.0000 76.0000
1043.1370 1953.4725 -8.6950
995.6150 1902.7365 -80.4150
997.1990 1994.1675 77.5350
995.6150 1992.0075 74.5830
1004.5530 1988.0835 74.5830
1040.7360 1946.3600 -18.6400
990.8000 1909.8320 -76.0000
992.9120 1997.1600 74.5600
990.8000 1994.2800 70.6240
1009.8240 1985.9280 70.6240
1037.0790 1938.2175 -29.3250
985.7650 1919.5155 -69.2650
987.6130 1999.1125 68.0050
985.7650 1996.5925 64.5610
1015.5310 1983.5245 64.5610
1032.4480 1929.6000 -40.2400
980.7200 1931.0160 -60.7200
981.7760 2000.1600 58.8000
980.7200 1998.7200 56.8320
1021.3920 1980.8640 56.8320
1027.1250 1921.0625 -50.8750
975.8750 1943.5625 -50.8750
975.8750 2000.4375 47.8750
975.8750 2000.4375 47.8750
1027.1250 1977.9375 47.8750
1021.3920 1913.1600 -60.7200
971.4400 1956.3840 -40.2400
970.3840 2000.0800 36.1600
971.4400 2001.5200 38.1280
1032.4480 1974.7360 38.1280
1015.5310 1906.4475 -69.2650
967.6250 1968.7095 -29.3250
965.7770 1999.2225 24.5850
967.6250 2001.7425 28.0290
1037.0790 1971.2505 28.0290
1009.8240 1901.4800 -76.0000
964.6400 1979.7680 -18.6400
962.5280 1998.0000 14.0800
964.6400 2000.8800 18.0160
1040.7360 1967.4720 18.0160
1004.5530 1898.8125 -80.4150
962.6950 1988.7885 -8.6950
961.1110 1996.5475 5.5750
962.6950 1998.7075 8.5270
1043.1370 1963.3915 8.5270
1044.0000 1959.0000 0.0000
1000.0000 1899.0000 -82.0000
1000.0000 1991.0000 76.0000
1000.0000 1991.0000 76.0000
1000.0000 1991.0000 76.0000
1043.1370 1953.4275 -8.6950
995.6150 1902.8005 -80.4150
997.1990 1995.2125 77.5350
995.6150 1993.0525 74.5830
1004.5530 1989.0195 74.5830
1040.7360 1946.2800 -18.6400
990.8000 1909.9840 -76.0000
992.9120 1998.2400 74.5600
990.8000 1995.3600 70.6240
1009.8240 1986.7760 70.6240
1037.0790 1938.1125 -29.3250
985.7650 1919.7735 -69.2650
987.6130 2000.2175 68.0050
985.7650 1997.6975 64.5610
1015.5310 1984.2665 64.5610
1032.4480 1929.4800 -40.2400
980.7200 1931.3920 -60.7200
981.7760 2001.2800 58.8000
980.7200 1999.8400 56.8320
1021.3920 1981.4880 56.8320
1027.1250 1920.9375 -50.8750
975.8750 1944.0625 -50.8750
975.8750 2001.5625 47.8750
975.8750 2001.5625 47.8750
1027.1250 1978.4375 47.8750
1021.3920 1913.0400 -60.7200
971.4400 1957.0080 -40.2400
970.3840 2001.2000 36.1600
971.4400 2002.6400 38.1280
1032.4480 1975.1120 38.1280
1015.5310 1906.3425 -69.2650
967.6250 1969.4515 -29.3250
965.7770 2000.3275 24.5850
967.6250 2002.8475 28.0290
1037.0790 1971.5085 28.0290
1009.8240 1901.4000 -76.0000
964.6400 1980.6160 -18.6400
962.5280 1999.0800 14.0800
964.6400 2001.9600 18.0160
1040.7360 1967.6240 18.0160
1004.5530 1898.7675 -80.4150
962.6950 1989.7245 -8.6950
961.1110 1997.5925 5.5750
962.6950 1999.7525 8.5270
1043.1370 1963.4555 8.5270
1044.0000 1959.0000 0.0000
1000.0000 1900.0000 -82.0000
1000.0000 1958.0000 77.0000
1000.0000 1958.0000 77.0000
1000.0000 1958.0000 77.0000
1043.1325 1954.9450 -8.7355
995.6835 1902.2130 -80.4195
997.2675 1961.2350 78.5115
995.6835 1959.1110 75.5595
1004.5125 1957.8030 75.5595
1040.7200 1948.9600 -18.7040
990.9680 1907.2240 -76.0160
993.0800 1963.8800 75.4720
990.9680 1961.0480 71.5360
1009.7600 1958.2640 71.5360
1037.0475 1941.6150 -29.3985
986.0545 1914.3910 -69.2965
987.9025 1965.9950 68.8205
986.0545 1963.5170 65.3765
1015.4575 1959.1610 65.3765
1032.4000 1933.4800 -40.3120
981.1440 1923.0720 -60.7680
982.2000 1967.6400 59.4960
981.1440 1966.2240 57.5280
1021.3200 1960.2720 57.5280
1027.0625 1925.1250 -50.9375
976.4375 1932.6250 -50.9375
976.4375 1968.8750 48.4375
976.4375 1968.8750 48.4375
1027.0625 1961.3750 48.4375
1021.3200 1917.1200 -60.7680
972.1360 1942.4080 -40.3120
971.0800 1969.7600 36.5840
972.1360 1971.1760 38.5520
1032.4000 1962.2480 38.5520
1015.4575 1910.0350 -69.2965
968.4405 1951.7790 -29.3985
966.5925 1970.3550 24.8745
968.4405 1972.8330 28.3185
1037.0475 1962.6690 28.3185
1009.7600 1904.4400 -76.0160
965.5520 1960.0960 -18.7040
963.4400 1970.7200 14.2480
965.5520 1973.5520 18.1840
1040.7200 1962.4160 18.1840
1004.5125 1900.9050 -80.4195
963.6715 1966.7170 -8.7355
962.0875 1970.9150 5.6435
963.6715 1973.0390 8.5955
1043.1325 1961.2670 8.5955
1044.0000 1959.0000 0.0000
1000.0000 1900.0000 -82.0000
1000.0000 1959.0000 77.0000
1000.0000 1959.0000 77.0000
1000.0000 1959.0000 77.0000
1043.1325 1954.9045 -8.7355
995.6835 1902.2085 -80.4195
997.2675 1962.2115 78.5115
995.6835 1960.0875 75.5595
1004.5125 1958.7795 75.5595
1040.7200 1948.8960 -18.7040
990.9680 1907.2080 -76.0160
993.0800 1964.7920 75.4720
990.9680 1961.9600 71.5360
1009.7600 1959.1760 71.5360
1037.0475 1941.5415 -29.3985
986.0545 1914.3595 -69.2965
987.9025 1966.8105 68.8205
986.0545 1964.3325 65.3765
1015.4575 1959.9765 65.3765
1032.4000 1933.4080 -40.3120
981.1440 1923.0240 -60.7680
982.2000 1968.3360 59.4960
981.1440 1966.9200 57.5280
1021.3200 1960.9680 57.5280
1027.0625 1925.0625 -50.9375
976.4375 1932.5625 -50.9375
