ply
format ascii 1.0
element vertex 1794
property float x
property float y
property float z
element face 0
property list uchar int vertex_index
end_header
913.5888 849.6831 -13.6560
805.7107 1127.8282 67.6260
850.9528 797.3637 6.9540
858.6644 763.1168 -4.0780
862.4347 754.5123 -6.5620
910.5037 869.2893 -6.5620
906.0000 889.0000 0.0000
801.0089 1128.9790 69.0000
906.3482 735.8467 -55.0000
906.3482 735.8467 -55.0000
906.3482 735.8467 -55.0000
899.0145 912.1678 6.9540
800.1181 1116.0142 67.6260
907.2357 721.7122 -56.5020
903.4560 730.3514 -54.0180
908.7970 743.1044 -54.0180
889.1232 940.9903 15.1120
802.0105 1090.6553 63.8080
904.8050 714.3095 -54.5760
899.7654 725.8285 -51.2640
911.1334 752.9725 -51.2640
877.1230 973.4162 24.0180
806.1833 1055.6557 58.0020
899.8153 712.5935 -49.9240
895.4057 722.6726 -47.0260
913.1927 765.1436 -47.0260
863.8107 1007.3941 33.2160
812.1335 1013.7687 50.6640
893.0257 715.5188 -43.2480
890.5059 721.2783 -41.5920
914.8099 779.3103 -41.5920
849.9832 1040.8728 42.2500
819.3582 967.7478 42.2500
885.1953 722.0401 -35.2500
885.1953 722.0401 -35.2500
915.8203 795.1651 -35.2500
836.4375 1071.8007 50.6640
827.3547 920.3461 33.2160
877.0832 731.1120 -26.6320
879.6030 725.3525 -28.2880
916.0590 812.4005 -28.2880
823.9703 1098.1267 58.0020
835.6200 874.3172 24.0180
869.4485 741.6893 -18.0960
873.8581 731.6102 -20.9940
915.3611 830.7092 -20.9940
813.3785 1117.7993 63.8080
843.6512 832.4143 15.1120
863.0504 752.7266 -10.3440
868.0899 741.2076 -13.6560
913.5619 849.7836 -13.6560
805.4591 1128.7672 67.6260
850.9455 797.3908 6.9540
858.6478 763.1786 -4.0780
862.4275 754.5393 -6.5620
910.4965 869.3163 -6.5620
907.0000 876.0000 0.0000
800.7500 1129.9440 69.0000
906.0894 736.8126 -55.0000
906.0894 736.8126 -55.0000
906.0894 736.8126 -55.0000
899.9838 899.4958 6.9540
799.8260 1117.5472 67.6260
906.9889 722.7433 -56.5020
903.1639 731.8853 -54.0180
908.6139 743.1123 -54.0180
890.0083 929.2186 15.1120
801.7146 1092.5199 63.8080
904.5695 715.5047 -54.5760
899.4695 727.6940 -51.2640
911.0695 751.5900 -51.2640
877.8826 962.9916 24.0180
805.9068 1057.6572 58.0020
899.5918 714.0093 -49.9240
895.1293 724.6749 -47.0260
913.2793 762.0639 -47.0260
864.4156 998.6377 33.2160
811.8937 1015.7540 50.6640
892.8162 717.1696 -43.2480
890.2662 723.2643 -41.5920
915.0662 774.3523 -41.5920
850.4163 1033.9802 42.2500
819.1663 969.6052 42.2500
885.0034 723.8981 -35.2500
885.0034 723.8981 -35.2500
916.2534 788.2731 -35.2500
836.6937 1066.8420 50.6640
827.2156 922.0057 33.2160
876.9139 733.1072 -26.6320
879.4639 727.0126 -28.2880
916.6639 803.6446 -28.2880
824.0568 1095.0462 58.0020
835.5326 875.7506 24.0180
869.3083 743.7095 -18.0960
873.7708 733.0439 -20.9940
916.1208 820.2849 -20.9940
813.3146 1116.4159 63.8080
843.6083 833.6346 15.1120
862.9470 754.6174 -10.3440
868.0470 742.4281 -13.6560
914.4470 838.0121 -13.6560
805.2760 1128.7742 67.6260
850.9338 798.4528 6.9540
858.5907 764.7434 -4.0780
862.4157 755.6014 -6.5620
911.4657 856.6444 -6.5620
907.0000 876.0000 0.0000
800.4912 1130.9100 69.0000
905.8306 737.7786 -55.0000
905.8306 737.7786 -55.0000
905.8306 737.7786 -55.0000
899.9765 899.5183 6.9540
799.5744 1118.5546 67.6260
906.7467 723.7159 -56.5020
902.9124 732.8927 -54.0180
908.3624 744.0107 -54.0180
889.9814 929.3030 15.1120
801.4827 1093.5535 63.8080
904.3501 716.4918 -54.5760
899.2376 728.7275 -51.2640
910.8376 752.3915 -51.2640
877.8267 963.1687 24.0180
805.7039 1058.7041 58.0020
899.3998 715.0156 -49.9240
894.9264 725.7218 -47.0260
913.0764 762.7478 -47.0260
864.3245 998.9298 33.2160
811.7260 1016.8040 50.6640
892.6547 718.1964 -43.2480
890.0985 724.3142 -41.5920
914.8985 774.9062 -41.5920
850.2869 1034.4007 42.2500
819.0369 970.6507 42.2500
884.8740 724.9436 -35.2500
884.8740 724.9436 -35.2500
916.1240 788.6936 -35.2500
836.5260 1067.3960 50.6640
827.1245 923.0418 33.2160
876.8166 734.1664 -26.6320
879.3728 728.0486 -28.2880
916.5728 803.9366 -28.2880
823.8539 1095.7301 58.0020
835.4767 876.7747 24.0180
869.2415 744.7742 -18.0960
873.7149 734.0680 -20.9940
916.0649 820.4620 -20.9940
813.0827 1117.2175 63.8080
843.5814 834.6470 15.1120
862.9077 755.6762 -10.3440
868.0201 743.4406 -13.6560
914.4201 838.0966 -13.6560
805.0244 1129.6726 67.6260
850.9265 799.4563 6.9540
858.5742 765.7817 -4.0780
862.4085 756.6050 -6.5620
911.4585 856.6670 -6.5620
907.0000 877.0000 0.0000
800.2324 1131.8760 69.0000
905.5717 738.7444 -55.0000
905.5717 738.7444 -55.0000
905.5717 738.7444 -55.0000
899.9693 900.5219 6.9540
799.3229 1119.4531 67.6260
906.5044 724.6154 -56.5020
902.6607 733.7910 -54.0180
908.1107 745.0180 -54.0180
889.9545 930.3155 15.1120
801.2508 1094.3550 63.8080
904.1305 717.2948 -54.5760
899.0057 729.5289 -51.2640
910.6057 753.4249 -51.2640
877.7708 964.1929 24.0180
805.5010 1059.3879 58.0020
899.2076 715.7007 -49.9240
894.7234 726.4055 -47.0260
912.8734 763.7945 -47.0260
864.2334 999.9658 33.2160
811.5583 1017.3580 50.6640
892.4932 718.7510 -43.2480
889.9307 724.8681 -41.5920
914.7307 775.9561 -41.5920
850.1575 1035.4462 42.2500
818.9075 971.0712 42.2500
884.7446 725.3640 -35.2500
884.7446 725.3640 -35.2500
915.9946 789.7390 -35.2500
836.3583 1068.4460 50.6640
827.0334 923.3338 33.2160
876.7192 734.4576 -26.6320
879.2817 728.3406 -28.2880
916.4817 804.9726 -28.2880
823.6510 1096.7769 58.0020
835.4208 876.9519 24.0180
869.1747 744.9499 -18.0960
873.6589 734.2451 -20.9940
916.0089 821.4861 -20.9940
812.8508 1118.2510 63.8080
843.5545 834.7315 15.1120
862.8683 755.7590 -10.3440
867.9932 743.5250 -13.6560
914.3932 839.1090 -13.6560
804.7729 1130.6801 67.6260
850.9193 799.4789 6.9540
858.5576 765.8030 -4.0780
862.4012 756.6275 -6.5620
911.4512 857.6705 -6.5620
907.0000 877.0000 0.0000
799.9736 1132.8420 69.0000
905.5717 738.7444 -55.0000
905.5717 738.7444 -55.0000
905.5717 738.7444 -55.0000
899.9515 900.5835 6.9540
799.0701 1120.4649 67.6260
906.5148 724.6448 -56.5020
902.6619 733.8551 -54.0180
908.1119 744.9731 -54.0180
889.9110 930.4618 15.1120
801.0148 1095.4040 63.8080
904.1471 717.4010 -54.5760
899.0098 729.6814 -51.2640
910.6098 753.3454 -51.2640
877.6958 964.4410 24.0180
805.2900 1060.4652 58.0020
899.2267 715.9192 -49.9240
894.7316 726.6645 -47.0260
912.8816 763.6905 -47.0260
864.1236 1000.3274 33.2160
811.3782 1018.4543 50.6640
892.5118 719.1055 -43.2480
889.9432 725.2457 -41.5920
914.7432 775.8377 -41.5920
850.0119 1035.9271 42.2500
818.7619 972.1771 42.2500
884.7607 725.8661 -35.2500
884.7607 725.8661 -35.2500
916.0107 789.6161 -35.2500
836.1782 1069.0463 50.6640
826.9236 924.4394 33.2160
876.7317 735.1072 -26.6320
879.3003 728.9670 -28.2880
916.5003 804.8550 -28.2880
823.4400 1097.4912 58.0020
835.3458 878.0470 24.0180
869.1828 745.7350 -18.0960
873.6779 734.9896 -20.9940
916.0279 821.3836 -20.9940
812.6148 1119.0680 63.8080
843.5110 835.8058 15.1120
862.8725 756.6556 -10.3440
868.0097 744.3752 -13.6560
914.4097 839.0312 -13.6560
804.5201 1131.5829 67.6260
850.9015 800.5215 6.9540
858.5588 766.7752 -4.0780
862.4117 757.5649 -6.5620
911.4617 857.6269 -6.5620
907.0000 878.0000 0.0000
799.7147 1133.8080 69.0000
905.3129 739.7104 -55.0000
905.3129 739.7104 -55.0000
905.3129 739.7104 -55.0000
899.9443 901.5826 6.9540
798.8185 1121.4318 67.6260
906.2726 725.6130 -56.5020
902.4103 734.8221 -54.0180
907.8603 745.9401 -54.0180
889.8840 931.4583 15.1120
800.7828 1096.3735 63.8080
903.9276 718.3722 -54.5760
898.7779 730.6510 -51.2640
910.3779 754.3150 -51.2640
877.6399 965.4337 24.0180
805.0870 1061.4385 58.0020
899.0346 716.8939 -49.9240
894.5287 727.6379 -47.0260
912.6787 764.6639 -47.0260
864.0325 1001.3154 33.2160
811.2104 1019.4323 50.6640
892.3503 720.0843 -43.2480
889.7755 726.2237 -41.5920
914.5755 776.8157 -41.5920
849.8825 1036.9101 42.2500
818.6325 973.1601 42.2500
884.6313 726.8491 -35.2500
884.6313 726.8491 -35.2500
915.8813 790.5991 -35.2500
836.0104 1070.0243 50.6640
826.8325 925.4274 33.2160
876.6344 736.0944 -26.6320
879.2092 729.9550 -28.2880
916.4092 805.8430 -28.2880
823.2370 1098.4645 58.0020
835.2899 879.0397 24.0180
869.1161 746.7262 -18.0960
873.6221 735.9823 -20.9940
915.9721 822.3763 -20.9940
812.3828 1120.0375 63.8080
843.4840 836.8023 15.1120
862.8331 757.6504 -10.3440
867.9828 745.3716 -13.6560
914.3828 840.0276 -13.6560
804.2685 1132.5498 67.6260
850.8943 801.5206 6.9540
858.5422 767.7730 -4.0780
862.4045 758.5639 -6.5620
911.4545 858.6259 -6.5620
907.0000 878.0000 0.0000
799.4559 1134.7740 69.0000
825.5967 1037.2160 -55.0000
825.5967 1037.2160 -55.0000
825.5967 1037.2160 -55.0000
903.1551 889.5998 6.9540
798.9245 1121.0363 67.6260
828.4402 1016.0881 -56.5020
824.5686 1025.3319 -54.0180
830.0186 1036.4499 -54.0180
894.9424 912.5802 15.1120
801.8222 1092.4944 63.8080
831.2430 989.6355 -54.5760
826.0809 1001.9606 -51.2640
837.6809 1025.6246 -51.2640
883.4241 943.8467 24.0180
807.3870 1052.8549 58.0020
834.0451 959.4388 -49.9240
829.5282 970.2233 -47.0260
847.6782 1007.2493 -47.0260
869.6623 980.3046 33.2160
814.8567 1005.8243 50.6640
836.8865 927.0786 -43.2480
834.3054 933.2412 -41.5920
859.1054 983.8332 -41.5920
854.7192 1018.8594 42.2500
823.4692 955.1094 42.2500
839.8072 894.1356 -35.2500
839.8071 894.1356 -35.2500
871.0571 957.8856 -35.2500
839.6567 1056.4163 50.6640
832.4623 904.4166 33.2160
842.8471 862.1904 -26.6320
845.4282 856.0279 -28.2880
882.6282 931.9159 -28.2880
825.5370 1089.8809 58.0020
841.0741 857.4527 24.0180
846.0464 832.8237 -18.0960
850.5632 822.0391 -20.9940
892.9132 908.4331 -20.9940
813.4222 1116.1584 63.8080
848.5424 817.9242 15.1120
849.4450 807.6159 -10.3440
854.6071 795.2908 -13.6560
901.0071 889.9468 -13.6560
804.3745 1132.1543 67.6260
854.1051 789.5378 6.9540
853.0828 788.1478 -4.0780
856.9544 778.9039 -6.5620
906.0044 878.9659 -6.5620
907.0000 879.0000 0.0000
799.1971 1135.7400 69.0000
825.3378 1038.1810 -55.0000
825.3378 1038.1810 -55.0000
825.3378 1038.1810 -55.0000
903.1478 890.5989 6.9540
798.6729 1122.0033 67.6260
828.1979 1017.0553 -56.5020
824.3170 1026.2979 -54.0180
829.7670 1037.4159 -54.0180
894.9155 913.5767 15.1120
801.5904 1093.4640 63.8080
831.0235 990.6057 -54.5760
825.8489 1002.9292 -51.2640
837.4489 1026.5932 -51.2640
883.3682 944.8394 24.0180
807.1841 1053.8283 58.0020
833.8530 960.4127 -49.9240
829.3253 971.1958 -47.0260
847.4753 1008.2218 -47.0260
869.5712 981.2927 33.2160
814.6890 1006.8024 50.6640
836.7249 928.0567 -43.2480
834.1376 934.2185 -41.5920
858.9376 984.8105 -41.5920
854.5898 1019.8424 42.2500
823.3398 956.0924 42.2500
839.6777 895.1181 -35.2500
839.6777 895.1181 -35.2500
870.9277 958.8681 -35.2500
839.4890 1057.3944 50.6640
832.3712 905.4047 33.2160
842.7498 863.1772 -26.6320
845.3370 857.0155 -28.2880
882.5370 932.9035 -28.2880
825.3341 1090.8543 58.0020
841.0182 858.4454 24.0180
845.9796 833.8146 -18.0960
850.5073 823.0315 -20.9940
892.8573 909.4255 -20.9940
813.1904 1117.1280 63.8080
848.5155 818.9207 15.1120
849.4056 808.6106 -10.3440
854.5801 796.2870 -13.6560
900.9801 890.9430 -13.6560
804.1229 1133.1213 67.6260
854.0978 790.5369 6.9540
853.0663 789.1456 -4.0780
856.9472 779.9029 -6.5620
905.9972 879.9649 -6.5620
907.0000 880.0000 0.0000
938.9594 614.1400 70.0000
825.0790 1039.1470 -55.0000
825.0790 1039.1470 -55.0000
825.0790 1039.1470 -55.0000
912.7320 855.8021 7.0225
935.1520 612.6845 68.6025
822.2848 1039.1874 -56.5425
823.4353 1029.6164 -54.0225
828.8853 1040.7344 -54.0225
918.4121 826.7821 15.2800
929.0577 617.8533 64.7200
821.8426 1025.0211 -54.6400
823.3767 1012.2598 -51.2800
834.9767 1035.9238 -51.2800
923.8484 794.5492 24.3075
921.1684 628.6490 58.8175
823.3694 999.7961 -49.9975
824.7117 988.6300 -47.0575
842.8617 1025.6560 -47.0575
928.8491 760.7128 33.6400
911.9760 644.0744 51.3600
826.4819 966.6602 -43.3200
827.2489 960.2796 -41.6400
852.0489 1010.8716 -41.6400
933.2222 726.8821 42.8125
901.9722 663.1321 42.8125
830.7970 928.7614 -35.3125
830.7970 928.7614 -35.3125
862.0470 992.5114 -35.3125
936.7760 694.6664 51.3600
891.6491 684.8248 33.6400
835.9314 889.2476 -26.6800
835.1644 895.6282 -28.3600
872.3644 971.5162 -28.3600
939.3184 665.6750 58.8175
881.4984 708.1552 24.3075
841.5021 851.2666 -18.1275
840.1599 862.4328 -21.0675
882.5099 948.8268 -21.0675
940.6577 641.5173 64.7200
872.0121 732.1261 15.2800
847.1259 817.9665 -10.3600
845.5919 830.7277 -13.7200
891.9919 925.3837 -13.7200
940.6020 623.8025 68.6025
863.6820 755.7401 7.0225
852.4196 792.4949 -4.0825
851.2691 802.0659 -6.6025
900.3191 902.1279 -6.6025
907.0000 880.0000 0.0000
938.7006 615.1060 70.0000
824.8202 1040.1130 -55.0000
824.8202 1040.1130 -55.0000
824.8202 1040.1130 -55.0000
912.7248 855.8292 7.0225
934.9004 613.6235 68.6025
822.0426 1040.0916 -56.5425
823.1838 1030.5554 -54.0225
828.6338 1041.6734 -54.0225
918.3852 826.8826 15.2800
928.8258 618.7189 64.7200
821.6232 1025.8403 -54.6400
823.1448 1013.1254 -51.2800
834.7448 1036.7894 -51.2800
923.7925 794.7579 24.3075
920.9655 629.4064 58.8175
823.1774 1000.5129 -49.9975
824.5088 989.3873 -47.0575
842.6588 1026.4133 -47.0575
928.7580 761.0528 33.6400
911.8082 644.7004 51.3600
826.3204 967.2630 -43.3200
827.0812 960.9056 -41.6400
851.8812 1011.4976 -41.6400
933.0928 727.3651 42.8125
901.8428 663.6151 42.8125
830.6676 929.2444 -35.3125
830.6676 929.2444 -35.3125
861.9176 992.9944 -35.3125
936.6082 695.2924 51.3600
891.5580 685.1648 33.6400
835.8341 889.6108 -26.6800
835.0733 895.9683 -28.3600
872.2733 971.8563 -28.3600
939.1155 666.4324 58.8175
881.4425 708.3639 24.3075
841.4354 851.5159 -18.1275
840.1040 862.6414 -21.0675
882.4540 949.0354 -21.0675
940.4258 642.3829 64.7200
871.9852 732.2266 15.2800
847.0866 818.1133 -10.3600
845.5650 830.8282 -13.7200
891.9650 925.4842 -13.7200
940.3504 624.7415 68.6025
863.6748 755.7672 7.0225
852.4030 792.5568 -4.0825
851.2618 802.0929 -6.6025
900.3118 902.1549 -6.6025
907.0000 881.0000 0.0000
938.4418 616.0719 70.0000
824.5614 1041.0790 -55.0000
824.5614 1041.0790 -55.0000
824.5614 1041.0790 -55.0000
912.7175 856.8282 7.0225
934.6489 614.5904 68.6025
821.8003 1041.0597 -56.5425
822.9322 1031.5223 -54.0225
828.3822 1042.6403 -54.0225
918.3583 827.8790 15.2800
928.5939 619.6883 64.7200
821.4037 1026.8114 -54.6400
822.9129 1014.0949 -51.2800
834.5129 1037.7589 -51.2800
923.7366 795.7505 24.3075
920.7626 630.3796 58.8175
822.9853 1001.4876 -49.9975
824.3059 990.3607 -47.0575
842.4559 1027.3867 -47.0575
928.6669 762.0408 33.6400
911.6405 645.6783 51.3600
826.1589 968.2418 -43.3200
826.9135 961.8835 -41.6400
851.7135 1012.4755 -41.6400
932.9634 728.3480 42.8125
901.7134 664.5980 42.8125
830.5382 930.2274 -35.3125
830.5382 930.2274 -35.3125
861.7882 993.9774 -35.3125
936.4405 696.2703 51.3600
891.4669 686.1528 33.6400
835.7368 890.5980 -26.6800
834.9822 896.9563 -28.3600
872.1822 972.8443 -28.3600
938.9126 667.4056 58.8175
881.3866 709.3565 24.3075
841.3686 852.5071 -18.1275
840.0481 863.6341 -21.0675
882.3981 950.0281 -21.0675
940.1939 643.3523 64.7200
871.9583 733.2230 15.2800
847.0472 819.1081 -10.3600
845.5380 831.8247 -13.7200
891.9380 926.4807 -13.7200
940.0989 625.7084 68.6025
863.6675 756.7662 7.0225
852.3865 793.5546 -4.0825
851.2546 803.0920 -6.6025
900.3046 903.1540 -6.6025
907.0000 881.0000 0.0000
892.8896 786.0748 70.0000
824.3026 1042.0450 -55.0000
824.3026 1042.0450 -55.0000
824.3026 1042.0450 -55.0000
909.6077 868.4298 7.0225
890.1683 780.6623 68.6025
823.3925 1035.1864 -56.5425
822.8845 1031.7691 -54.0225
828.3345 1042.7781 -54.0225
910.7221 856.3617 15.2800
887.0545 774.8835 64.7200
824.0830 1016.9803 -54.6400
823.4057 1012.4238 -51.2800
835.0057 1035.8558 -51.2800
910.5683 844.8638 24.3075
883.6229 769.2761 58.8175
826.1224 990.0697 -49.9975
825.5297 986.0828 -47.0575
843.6797 1022.7458 -47.0575
909.3714 834.0045 33.6400
879.9486 764.3779 51.3600
829.2586 957.0979 -43.3200
828.9199 954.8197 -41.6400
853.7199 1004.9157 -41.6400
907.3565 823.8518 42.8125
876.1065 760.7268 42.8125
833.2396 920.7081 -35.3125
833.2396 920.7081 -35.3125
864.4896 983.8331 -35.3125
904.7486 814.4739 51.3600
872.1714 758.8605 33.6400
837.8136 883.5435 -26.6800
838.1523 885.8217 -28.3600
875.3523 960.9657 -28.3600
901.7729 805.9391 58.8175
868.2183 759.3168 24.3075
842.7286 848.2472 -18.1275
843.3212 852.2340 -21.0675
885.6712 937.7810 -21.0675
898.6545 798.3155 64.7200
864.3221 762.6337 15.2800
847.7326 817.4624 -10.3600
848.4099 822.0188 -13.7200
894.8099 915.7468 -13.7200
895.6183 791.6713 68.6025
860.5577 769.3488 7.0225
852.5737 793.8322 -4.0825
853.0817 797.2496 -6.6025
902.1317 896.3306 -6.6025
907.0000 882.0000 0.0000
892.6308 787.0408 70.0000
824.0437 1043.0110 -55.0000
824.0437 1043.0110 -55.0000
824.0437 1043.0110 -55.0000
909.6004 869.4333 7.0225
889.9168 781.5608 68.6025
823.1501 1036.0861 -56.5425
822.6328 1032.6676 -54.0225
828.0828 1043.7856 -54.0225
910.6952 857.3742 15.2800
886.8226 775.6850 64.7200
823.8635 1017.7834 -54.6400
823.1738 1013.2254 -51.2800
834.7738 1036.8894 -51.2800
910.5124 845.8880 24.3075
883.4200 769.9599 58.8175
825.9303 990.7550 -49.9975
825.3268 986.7667 -47.0575
843.4768 1023.7927 -47.0575
909.2803 835.0405 33.6400
879.7809 764.9319 51.3600
829.0970 957.6527 -43.3200
828.7521 955.3737 -41.6400
853.5521 1005.9657 -41.6400
907.2271 824.8973 42.8125
875.9771 761.1473 42.8125
833.1102 921.1286 -35.3125
833.1102 921.1286 -35.3125
864.3602 984.8786 -35.3125
904.5809 815.5239 51.3600
872.0803 759.1525 33.6400
837.7163 883.8347 -26.6800
838.0611 886.1137 -28.3600
875.2611 962.0017 -28.3600
901.5700 806.9859 58.8175
868.1624 759.4940 24.3075
842.6618 848.4229 -18.1275
843.2653 852.4112 -21.0675
885.6153 938.8052 -21.0675
898.4226 799.3490 64.7200
864.2952 762.7182 15.2800
847.6932 817.5452 -10.3600
848.3830 822.1032 -13.7200
894.7830 916.7592 -13.7200
895.3668 792.6788 68.6025
860.5504 769.3713 7.0225
852.5572 793.8536 -4.0825
853.0744 797.2721 -6.6025
902.1244 897.3341 -6.6025
907.0000 882.0000 0.0000
892.3719 788.0067 70.0000
823.7849 1043.9770 -55.0000
823.7849 1043.9770 -55.0000
823.7849 1043.9770 -55.0000
909.5932 869.4559 7.0225
889.6651 782.5681 68.6025
822.9079 1037.0588 -56.5425
822.3813 1033.6750 -54.0225
827.8313 1044.6840 -54.0225
910.6682 857.4586 15.2800
886.5906 776.7185 64.7200
823.6440 1018.7706 -54.6400
822.9419 1014.2589 -51.2800
834.5419 1037.6909 -51.2800
910.4565 846.0651 24.3075
883.2171 771.0067 58.8175
825.7383 991.7613 -49.9975
825.1239 987.8135 -47.0575
843.2739 1024.4765 -47.0575
909.1892 835.3325 33.6400
879.6132 765.9818 51.3600
828.9355 958.6795 -43.3200
828.5844 956.4237 -41.6400
853.3844 1006.5197 -41.6400
907.0976 825.3177 42.8125
875.8476 762.1927 42.8125
832.9808 922.1741 -35.3125
832.9808 922.1741 -35.3125
864.2308 985.2991 -35.3125
904.4132 816.0778 51.3600
871.9892 760.1885 33.6400
837.6189 884.8939 -26.6800
837.9700 887.1498 -28.3600
875.1700 962.2938 -28.3600
901.3671 807.6697 58.8175
868.1065 760.5181 24.3075
842.5950 849.4876 -18.1275
843.2094 853.4353 -21.0675
885.5594 938.9823 -21.0675
898.1906 800.1505 64.7200
864.2682 763.7306 15.2800
847.6539 818.6040 -10.3600
848.3561 823.1157 -13.7200
894.7561 916.8437 -13.7200
895.1151 793.5771 68.6025
860.5432 770.3749 7.0225
852.5406 794.8919 -4.0825
853.0672 798.2757 -6.6025
902.1172 897.3567 -6.6025
907.0000 883.0000 0.0000
892.1132 788.9726 70.0000
823.7849 1043.9770 -55.0000
823.7849 1043.9770 -55.0000
823.7849 1043.9770 -55.0000
909.5755 870.4941 7.0225
889.4125 783.5393 68.6025
822.9184 1037.0837 -56.5425
822.3824 1033.6987 -54.0225
827.8324 1044.7077 -54.0225
910.6248 858.5169 15.2800
886.3547 777.7034 64.7200
823.6606 1018.8608 -54.6400
822.9460 1014.3475 -51.2800
834.5460 1037.7795 -51.2800
910.3816 847.1288 24.3075
883.0061 772.0104 58.8175
825.7573 991.9483 -49.9975
825.1320 987.9991 -47.0575
843.2820 1024.6621 -47.0575
909.0795 836.3900 33.6400
879.4331 767.0060 51.3600
828.9541 958.9860 -43.3200
828.5969 956.7293 -41.6400
853.3969 1006.8253 -41.6400
906.9521 826.3610 42.8125
875.7021 763.2360 42.8125
832.9969 922.6138 -35.3125
832.9969 922.6138 -35.3125
864.2469 985.7388 -35.3125
904.2331 817.1020 51.3600
871.8795 761.2460 33.6400
837.6314 885.4716 -26.6800
837.9886 887.7282 -28.3600
875.1886 962.8722 -28.3600
901.1561 808.6734 58.8175
868.0316 761.5818 24.3075
842.6032 850.1992 -18.1275
843.2284 854.1484 -21.0675
885.5784 939.6954 -21.0675
897.9547 801.1354 64.7200
864.2248 764.7889 15.2800
847.6581 819.4366 -10.3600
848.3726 823.9499 -13.7200
894.7726 917.6779 -13.7200
894.8625 794.5483 68.6025
860.5255 771.4131 7.0225
852.5418 795.8235 -4.0825
853.0777 799.2085 -6.6025
902.1277 898.2895 -6.6025
907.0000 884.0000 0.0000
891.8543 789.9385 70.0000
922.3950 675.9593 -54.0000
922.3950 675.9593 -54.0000
922.3950 675.9593 -54.0000
905.5640 886.4414 6.9820
888.7159 786.0981 68.5980
919.2216 677.6707 -55.5660
918.6764 674.2845 -53.0460
924.1264 685.4025 -53.0460
904.2702 883.1443 15.2160
884.5408 784.4086 64.7040
913.6096 683.1508 -53.7280
912.8826 678.6359 -50.3680
924.4826 702.2999 -50.3680
903.0588 875.2732 24.2340
879.6887 784.3171 58.7860
906.1928 691.7273 -49.1820
905.5567 687.7767 -46.2420
923.7067 724.8027 -46.2420
901.8698 863.9929 33.5680
874.5196 785.2711 51.3120
897.6054 702.7281 -42.6240
897.2419 700.4706 -40.9440
922.0419 751.0626 -40.9440
900.6434 850.4679 42.7500
869.3934 786.7179 42.7500
888.4813 715.4810 -34.7500
888.4813 715.4810 -34.7500
919.7313 779.2310 -34.7500
899.3196 835.8631 51.3120
864.6698 788.1049 33.5680
879.4545 729.3137 -26.2560
879.8180 731.5712 -27.9360
917.0180 807.4592 -27.9360
897.8387 821.3431 58.7860
860.7088 788.8792 24.2340
871.1589 743.5542 -17.8380
871.7951 747.5047 -20.7780
914.1451 833.8987 -20.7780
896.1408 808.0726 64.7040
857.8702 788.4883 15.2160
864.2287 757.5301 -10.1920
864.9557 762.0451 -13.5520
911.3557 856.7011 -13.5520
894.1659 797.2161 68.5980
856.5140 786.3794 6.9820
859.2977 770.5695 -4.0140
859.8430 773.9557 -6.5340
908.8930 874.0177 -6.5340
907.0000 884.0000 0.0000
891.5955 790.9045 70.0000
922.1362 676.9252 -54.0000
922.1362 676.9252 -54.0000
922.1362 676.9252 -54.0000
905.5568 886.4640 6.9820
888.4644 787.1056 68.5980
918.9794 678.6433 -55.5660
918.4248 675.2919 -53.0460
923.8748 686.3009 -53.0460
904.2433 883.2287 15.2160
884.3089 785.4421 64.7040
913.3901 684.1379 -53.7280
912.6507 679.6693 -50.3680
924.2507 703.1013 -50.3680
903.0029 875.4504 24.2340
879.4858 785.3640 58.7860
906.0008 692.7335 -49.1820
905.3538 688.8235 -46.2420
923.5038 725.4865 -46.2420
901.7787 864.2849 33.5680
874.3519 786.3211 51.3120
897.4439 703.7548 -42.6240
897.0742 701.5205 -40.9440
921.8742 751.6165 -40.9440
900.5140 850.8885 42.7500
869.2640 787.7635 42.7500
888.3519 716.5264 -34.7500
888.3519 716.5264 -34.7500
919.6019 779.6514 -34.7500
899.1519 836.4171 51.3120
864.5787 789.1409 33.5680
879.3572 730.3729 -26.2560
879.7269 732.6072 -27.9360
916.9269 807.7512 -27.9360
897.6358 822.0270 58.7860
860.6529 789.9034 24.2340
871.0922 744.6189 -17.8380
871.7392 748.5289 -20.7780
914.0892 834.0759 -20.7780
895.9089 808.8741 64.7040
857.8433 789.5007 15.2160
864.1894 758.5890 -10.1920
864.9288 763.0575 -13.5520
911.3288 856.7855 -13.5520
893.9144 798.1146 68.5980
856.5068 787.3830 6.9820
859.2811 771.6078 -4.0140
859.8357 774.9592 -6.5340
908.8857 874.0402 -6.5340
907.0000 885.0000 0.0000
891.3367 791.8704 70.0000
921.8773 677.8911 -54.0000
921.8773 677.8911 -54.0000
921.8773 677.8911 -54.0000
905.5495 887.4630 6.9820
888.2128 788.0724 68.5980
918.7370 679.6114 -55.5660
918.1732 676.2587 -53.0460
923.6232 687.2677 -53.0460
904.2164 884.2252 15.2160
884.0770 786.4115 64.7040
913.1705 685.1090 -53.7280
912.4187 680.6388 -50.3680
924.0187 704.0708 -50.3680
902.9470 876.4430 24.2340
879.2829 786.3372 58.7860
905.8087 693.7082 -49.1820
905.1508 689.7968 -46.2420
923.3008 726.4598 -46.2420
901.6876 865.2729 33.5680
874.1842 787.2990 51.3120
897.2824 704.7335 -42.6240
896.9064 702.4984 -40.9440
921.7064 752.5944 -40.9440
900.3846 851.8714 42.7500
869.1346 788.7464 42.7500
888.2224 717.5093 -34.7500
888.2224 717.5093 -34.7500
919.4724 780.6343 -34.7500
898.9842 837.3950 51.3120
864.4876 790.1289 33.5680
879.2598 731.3600 -26.2560
879.6357 733.5952 -27.9360
916.8357 808.7392 -27.9360
897.4329 823.0002 58.7860
860.5970 790.8960 24.2340
871.0254 745.6101 -17.8380
871.6832 749.5215 -20.7780
914.0332 835.0685 -20.7780
895.6770 809.8435 64.7040
857.8164 790.4972 15.2160
864.1500 759.5838 -10.1920
864.9018 764.0540 -13.5520
911.3018 857.7820 -13.5520
893.6628 799.0814 68.5980
856.4995 788.3820 6.9820
859.2646 772.6056 -4.0140
859.8285 775.9583 -6.5340
908.8785 875.0393 -6.5340
907.0000 885.0000 0.0000
891.0779 792.8363 70.0000
921.6185 678.8571 -54.0000
921.6185 678.8571 -54.0000
921.6185 678.8571 -54.0000
905.5423 887.4901 6.9820
887.9613 789.0113 68.5980
918.4948 680.5156 -55.5660
917.9216 677.1977 -53.0460
923.3716 688.2067 -53.0460
904.1895 884.3256 15.2160
883.8451 787.2770 64.7040
912.9511 685.9282 -53.7280
912.1868 681.5043 -50.3680
923.7868 704.9363 -50.3680
902.8911 876.6516 24.2340
879.0800 787.0945 58.7860
905.6167 694.4250 -49.1820
904.9479 690.5541 -46.2420
923.0979 727.2171 -46.2420
901.5965 865.6129 33.5680
874.0165 787.9249 51.3120
897.1209 705.3363 -42.6240
896.7387 703.1244 -40.9440
921.5387 753.2204 -40.9440
900.2552 852.3544 42.7500
869.0052 789.2294 42.7500
888.0930 717.9923 -34.7500
888.0930 717.9923 -34.7500
919.3430 781.1173 -34.7500
898.8165 838.0209 51.3120
864.3965 790.4689 33.5680
879.1625 731.7233 -26.2560
879.5446 733.9352 -27.9360
916.7446 809.0792 -27.9360
897.2300 823.7575 58.7860
860.5411 791.1046 24.2340
870.9586 745.8593 -17.8380
871.6273 749.7302 -20.7780
913.9773 835.2772 -20.7780
895.4451 810.7090 64.7040
857.7895 790.5976 15.2160
864.1107 759.7306 -10.1920
864.8749 764.1545 -13.5520
911.2749 857.8825 -13.5520
893.4113 800.0203 68.5980
856.4923 788.4091 6.9820
859.2480 772.6674 -4.0140
859.8212 775.9853 -6.5340
908.8712 875.0663 -6.5340
907.0000 886.0000 0.0000
890.8190 793.8022 70.0000
921.3597 679.8230 -54.0000
921.3597 679.8230 -54.0000
921.3597 679.8230 -54.0000
905.5350 888.4891 6.9820
887.7096 789.9781 68.5980
918.2526 681.4837 -55.5660
917.6701 678.1645 -53.0460
923.1201 689.1735 -53.0460
904.1626 885.3221 15.2160
883.6132 788.2464 64.7040
912.7316 686.8992 -53.7280
911.9549 682.4737 -50.3680
923.5549 705.9057 -50.3680
902.8352 877.6442 24.2340
878.8771 788.0678 58.7860
905.4246 695.3997 -49.1820
904.7450 691.5274 -46.2420
922.8950 728.1904 -46.2420
901.5054 866.6009 33.5680
873.8488 788.9028 51.3120
896.9594 706.3150 -42.6240
896.5710 704.1023 -40.9440
921.3710 754.1983 -40.9440
900.1257 853.3373 42.7500
868.8757 790.2123 42.7500
887.9636 718.9753 -34.7500
887.9636 718.9753 -34.7500
919.2136 782.1003 -34.7500
898.6488 838.9988 51.3120
864.3054 791.4569 33.5680
879.0652 732.7104 -26.2560
879.4535 734.9232 -27.9360
916.6535 810.0672 -27.9360
897.0271 824.7308 58.7860
860.4852 792.0972 24.2340
870.8918 746.8505 -17.8380
871.5714 750.7228 -20.7780
913.9214 836.2698 -20.7780
895.2132 811.6784 64.7040
857.7626 791.5941 15.2160
864.0713 760.7254 -10.1920
864.8480 765.1509 -13.5520
911.2480 858.8789 -13.5520
893.1596 800.9871 68.5980
856.4850 789.4081 6.9820
859.2315 773.6653 -4.0140
859.8140 776.9844 -6.5340
908.8640 876.0654 -6.5340
907.0000 886.0000 0.0000
890.5602 794.7682 70.0000
921.1009 680.7889 -54.0000
921.1009 680.7889 -54.0000
921.1009 680.7889 -54.0000
905.5278 888.5117 6.9820
887.4581 790.9856 68.5980
918.0103 682.4562 -55.5660
917.4185 679.1719 -53.0460
922.8685 690.0719 -53.0460
904.1357 885.4066 15.2160
883.3813 789.2800 64.7040
912.5122 687.8863 -53.7280
911.7231 683.5072 -50.3680
923.3231 706.7072 -50.3680
902.7793 877.8214 24.2340
878.6742 789.1146 58.7860
905.2326 696.4059 -49.1820
904.5421 692.5741 -46.2420
922.6921 728.8741 -46.2420
901.4143 866.8929 33.5680
873.6811 789.9528 51.3120
896.7979 707.3418 -42.6240
896.4033 705.1522 -40.9440
921.2033 754.7522 -40.9440
899.9963 853.7578 42.7500
868.7463 791.2578 42.7500
887.8342 720.0207 -34.7500
887.8342 720.0207 -34.7500
919.0842 782.5207 -34.7500
898.4811 839.5528 51.3120
864.2143 792.4929 33.5680
878.9679 733.7696 -26.2560
879.3624 735.9592 -27.9360
916.5624 810.3592 -27.9360
896.8242 825.4146 58.7860
860.4293 793.1214 24.2340
870.8251 747.9152 -17.8380
871.5155 751.7469 -20.7780
913.8655 836.4469 -20.7780
894.9813 812.4800 64.7040
857.7357 792.6066 15.2160
864.0320 761.7842 -10.1920
864.8211 766.1634 -13.5520
911.2211 858.9634 -13.5520
892.9081 801.8856 68.5980
856.4778 790.4117 6.9820
859.2149 774.7036 -4.0140
859.8067 777.9879 -6.5340
908.8567 876.0879 -6.5340
908.0000 871.0000 0.0000
801.7853 1126.0810 70.0000
920.8420 681.7548 -54.0000
920.8420 681.7548 -54.0000
920.8420 681.7548 -54.0000
900.4337 896.5200 6.9820
800.7301 1115.1157 68.5980
921.3484 670.0488 -55.5660
917.5247 679.2317 -53.0460
923.0837 688.4967 -53.0460
890.1500 927.3253 15.2160
802.3587 1092.3818 64.7040
917.9416 667.8032 -53.7280
912.8433 680.0471 -50.3680
924.6753 699.7671 -50.3680
877.9135 961.4330 24.2340
806.2129 1060.3723 58.7860
911.5149 673.3146 -49.1820
907.0539 684.0280 -46.2420
925.5669 714.8830 -46.2420
864.4883 996.8600 33.5680
811.8342 1021.5801 51.3120
902.9615 684.8795 -42.6240
900.4123 691.0015 -40.9440
925.7083 733.1615 -40.9440
850.6391 1031.6234 42.7500
818.7641 978.4984 42.7500
893.1745 700.7945 -34.7500
893.1745 700.7945 -34.7500
925.0495 753.9195 -34.7500
837.1302 1063.7401 51.3120
826.5443 933.6200 33.5680
883.0473 719.3561 -26.2560
885.5965 713.2342 -27.9360
923.5405 776.4742 -27.9360
824.7259 1091.2273 58.7860
834.7165 889.4380 24.2340
873.4730 738.8610 -17.8380
877.9340 728.1476 -20.7780
921.1310 800.1426 -20.7780
814.1907 1112.1018 64.7040
842.8220 848.4453 15.2160
865.3449 757.6055 -10.1920
870.4432 745.3616 -13.5520
917.7712 824.2416 -13.5520
806.2891 1124.3807 68.5980
850.4027 813.1350 6.9820
859.5561 773.8863 -4.0140
863.3799 764.7034 -6.5340
913.4109 848.0884 -6.5340
908.0000 871.0000 0.0000
801.5265 1127.0470 70.0000
920.5833 682.7208 -54.0000
920.5833 682.7208 -54.0000
920.5833 682.7208 -54.0000
900.4264 896.5425 6.9820
800.4785 1116.1232 68.5980
921.1063 671.0215 -55.5660
917.2732 680.2391 -53.0460
922.8322 689.3951 -53.0460
890.1231 927.4098 15.2160
802.1268 1093.4153 64.7040
917.7223 668.7904 -53.7280
912.6115 681.0806 -50.3680
924.4435 700.5686 -50.3680
877.8575 961.6101 24.2340
806.0100 1061.4191 58.7860
911.3230 674.3209 -49.1820
906.8511 685.0748 -46.2420
925.3641 715.5668 -46.2420
864.3972 997.1520 33.5680
811.6664 1022.6301 51.3120
902.8001 685.9063 -42.6240
900.2447 692.0514 -40.9440
925.5407 733.7154 -40.9440
850.5097 1032.0439 42.7500
818.6347 979.5439 42.7500
893.0452 701.8400 -34.7500
893.0452 701.8400 -34.7500
924.9202 754.3400 -34.7500
836.9624 1064.2941 51.3120
826.4532 934.6560 33.5680
882.9500 720.4154 -26.2560
885.5054 714.2702 -27.9360
923.4494 776.7662 -27.9360
824.5230 1091.9111 58.7860
834.6605 890.4621 24.2340
873.4063 739.9257 -17.8380
877.8782 729.1717 -20.7780
921.0752 800.3197 -20.7780
813.9588 1112.9033 64.7040
842.7951 849.4578 15.2160
865.3056 758.6643 -10.1920
870.4163 746.3741 -13.5520
917.7443 824.3261 -13.5520
806.0375 1125.2792 68.5980
850.3954 814.1385 6.9820
859.5396 774.9247 -4.0140
863.3726 765.7070 -6.5340
913.4036 848.1110 -6.5340
908.0000 872.0000 0.0000
801.2677 1128.0130 70.0000
920.5833 682.7208 -54.0000
920.5833 682.7208 -54.0000
920.5833 682.7208 -54.0000
900.4087 897.5807 6.9820
800.2258 1117.0945 68.5980
921.1168 671.0463 -55.5660
917.2744 680.2628 -53.0460
922.8334 689.4188 -53.0460
890.0796 928.4681 15.2160
801.8908 1094.4003 64.7040
917.7388 668.8805 -53.7280
912.6157 681.1692 -50.3680
924.4477 700.6572 -50.3680
877.7826 962.6738 24.2340
805.7989 1062.4229 58.7860
911.3420 674.5079 -49.1820
906.8592 685.2604 -46.2420
925.3722 715.7524 -46.2420
864.2875 998.2096 33.5680
811.4863 1023.6544 51.3120
902.8187 686.2127 -42.6240
900.2571 692.3571 -40.9440
925.5531 734.0211 -40.9440
850.3641 1033.0873 42.7500
818.4891 980.5873 42.7500
893.0614 702.2796 -34.7500
893.0614 702.2796 -34.7500
924.9364 754.7796 -34.7500
836.7823 1065.3184 51.3120
826.3435 935.7136 33.5680
882.9625 720.9930 -26.2560
885.5240 714.8487 -27.9360
923.4680 777.3447 -27.9360
824.3119 1092.9149 58.7860
834.5856 891.5258 24.2340
873.4144 740.6373 -17.8380
877.8972 729.8847 -20.7780
921.0942 801.0327 -20.7780
813.7228 1113.8883 64.7040
842.7516 850.5161 15.2160
865.3097 759.4969 -10.1920
870.4329 747.2083 -13.5520
917.7609 825.1603 -13.5520
805.7848 1126.2505 68.5980
850.3777 815.1767 6.9820
859.5408 775.8563 -4.0140
863.3831 766.6398 -6.5340
913.4141 849.0438 -6.5340
908.0000 873.0000 0.0000
801.0089 1128.9790 70.0000
920.3244 683.6867 -54.0000
920.3244 683.6867 -54.0000
920.3244 683.6867 -54.0000
900.4015 898.5843 6.9820
799.9742 1117.9929 68.5980
920.8744 671.9459 -55.5660
917.0227 681.1612 -53.0460
922.5817 690.4262 -53.0460
890.0527 929.4805 15.2160
801.6589 1095.2019 64.7040
917.5193 669.6836 -53.7280
912.3837 681.9706 -50.3680
924.2157 701.6906 -50.3680
877.7267 963.6979 24.2340
805.5960 1063.1067 58.7860
911.1499 675.1930 -49.1820
906.6563 685.9442 -46.2420
925.1693 716.7992 -46.2420
864.1964 999.2457 33.5680
811.3186 1024.2084 51.3120
902.6571 686.7675 -42.6240
900.0894 692.9110 -40.9440
925.3854 735.0710 -40.9440
850.2347 1034.1328 42.7500
818.3597 981.0078 42.7500
892.9319 702.7001 -34.7500
892.9319 702.7001 -34.7500
924.8069 755.8251 -34.7500
836.6146 1066.3684 51.3120
826.2524 936.0057 33.5680
882.8651 721.2842 -26.2560
885.4329 715.1407 -27.9360
923.3769 778.3807 -27.9360
824.1090 1093.9617 58.7860
834.5297 891.7029 24.2340
873.3476 740.8130 -17.8380
877.8413 730.0618 -20.7780
921.0383 802.0568 -20.7780
813.4909 1114.9219 64.7040
842.7247 850.6005 15.2160
865.2704 759.5797 -10.1920
870.4059 747.2927 -13.5520
917.7339 826.1727 -13.5520
805.5332 1127.2579 68.5980
850.3705 815.1993 6.9820
859.5242 775.8776 -4.0140
863.3759 766.6624 -6.5340
913.4069 850.0474 -6.5340
908.0000 873.0000 0.0000
800.7500 1129.9440 70.0000
920.0656 684.6526 -54.0000
920.0656 684.6526 -54.0000
920.0656 684.6526 -54.0000
900.3942 898.6067 6.9820
799.7226 1118.9994 68.5980
920.6322 672.9185 -55.5660
916.7712 682.1685 -53.0460
922.3302 691.3245 -53.0460
890.0258 929.5648 15.2160
801.4270 1096.2345 64.7040
917.2998 670.6708 -53.7280
912.1518 683.0041 -50.3680
923.9838 702.4921 -50.3680
877.6708 963.8748 24.2340
805.3931 1064.1528 58.7860
910.9579 676.1993 -49.1820
906.4534 686.9910 -46.2420
924.9664 717.4830 -46.2420
864.1053 999.5373 33.5680
811.1509 1025.2577 51.3120
902.4957 687.7942 -42.6240
899.9217 693.9609 -40.9440
925.2177 735.6249 -40.9440
850.1053 1034.5527 42.7500
818.2303 982.0527 42.7500
892.8025 703.7456 -34.7500
892.8025 703.7456 -34.7500
924.6775 756.2456 -34.7500
836.4469 1066.9217 51.3120
826.1613 937.0413 33.5680
882.7678 722.3434 -26.2560
885.3418 716.1767 -27.9360
923.2858 778.6727 -27.9360
823.9061 1094.6448 58.7860
834.4738 892.7268 24.2340
873.2809 741.8777 -17.8380
877.7854 731.0860 -20.7780
920.9824 802.2340 -20.7780
813.2590 1115.7225 64.7040
842.6978 851.6128 15.2160
865.2310 760.6385 -10.1920
870.3790 748.3052 -13.5520
917.7070 826.2572 -13.5520
805.2816 1128.1554 68.5980
850.3632 816.2027 6.9820
859.5076 776.9160 -4.0140
863.3686 767.6660 -6.5340
913.3996 850.0700 -6.5340
908.0000 874.0000 0.0000
800.4912 1130.9100 70.0000
911.0070 718.4600 -54.0000
911.0070 718.4600 -54.0000
911.0070 718.4600 -54.0000
900.7434 898.2757 6.9820
799.5106 1119.8185 68.5980
911.7969 705.9563 -55.5660
907.9266 715.2051 -53.0460
913.4856 724.3611 -53.0460
890.5621 928.4594 15.2160
801.3359 1096.6786 64.7040
909.0549 701.5933 -53.7280
903.8945 713.9250 -50.3680
915.7265 733.4130 -50.3680
878.2617 962.4536 24.2340
805.4674 1064.0916 58.7860
903.5896 703.9562 -49.1820
899.0742 714.7465 -46.2420
917.5872 745.2385 -46.2420
864.6478 998.1607 33.5680
811.4055 1024.6593 51.3120
896.2095 711.6306 -42.6240
893.6293 717.7965 -40.9440
918.9253 759.4605 -40.9440
850.5259 1033.4831 42.7500
818.6509 980.9831 42.7500
887.7232 723.2019 -34.7500
887.7232 723.2019 -34.7500
919.5982 775.7019 -34.7500
836.7015 1066.3233 51.3120
826.7038 935.6647 33.5680
878.9394 737.2554 -26.2560
881.5196 731.0895 -27.9360
919.4636 793.5855 -27.9360
823.9804 1094.5836 58.7860
835.0647 891.3056 24.2340
870.6666 752.3765 -17.8380
875.1819 741.5863 -20.7780
918.3789 812.7343 -20.7780
813.1679 1116.1666 64.7040
843.2341 850.5074 15.2160
863.7133 767.1507 -10.1920
868.8737 754.8190 -13.5520
916.2017 832.7710 -13.5520
805.0696 1128.9745 68.5980
850.7124 815.8717 6.9820
858.8883 780.1634 -4.0140
862.7586 770.9147 -6.5340
912.7896 853.3187 -6.5340
908.0000 874.0000 0.0000
800.2324 1131.8760 70.0000
910.7481 719.4260 -54.0000
910.7481 719.4260 -54.0000
910.7481 719.4260 -54.0000
900.7361 898.3028 6.9820
799.2591 1120.7575 68.5980
911.5546 706.8605 -55.5660
907.6750 716.1440 -53.0460
913.2340 725.3000 -53.0460
890.5352 928.5599 15.2160
801.1040 1097.5441 64.7040
908.8354 702.4124 -53.7280
903.6625 714.7905 -50.3680
915.4945 734.2785 -50.3680
878.2058 962.6623 24.2340
805.2645 1064.8490 58.7860
903.3975 704.6730 -49.1820
898.8713 715.5038 -46.2420
917.3843 745.9958 -46.2420
864.5567 998.5008 33.5680
811.2378 1025.2852 51.3120
896.0479 712.2334 -42.6240
893.4615 718.4224 -40.9440
918.7575 760.0864 -40.9440
850.3965 1033.9661 42.7500
818.5215 981.4661 42.7500
887.5938 723.6849 -34.7500
887.5938 723.6849 -34.7500
919.4688 776.1849 -34.7500
836.5338 1066.9492 51.3120
826.6127 936.0048 33.5680
878.8420 737.6186 -26.2560
881.4285 731.4296 -27.9360
919.3725 793.9256 -27.9360
823.7775 1095.3410 58.7860
835.0088 891.5143 24.2340
870.5998 752.6257 -17.8380
875.1260 741.7949 -20.7780
918.3230 812.9429 -20.7780
812.9360 1117.0321 64.7040
843.2072 850.6079 15.2160
863.6740 767.2976 -10.1920
868.8468 754.9195 -13.5520
916.1748 832.8715 -13.5520
804.8181 1129.9135 68.5980
850.7051 815.8988 6.9820
858.8717 780.2252 -4.0140
862.7513 770.9417 -6.5340
912.7823 853.3457 -6.5340
908.0000 875.0000 0.0000
799.9736 1132.8420 70.0000
910.4893 720.3918 -54.0000
910.4893 720.3918 -54.0000
910.4893 720.3918 -54.0000
900.7244 899.4188 6.9820
799.0760 1119.9434 68.5980
911.3809 706.0475 -55.5660
907.4919 715.3298 -53.0460
912.9419 727.3198 -53.0460
890.4922 929.9724 15.2160
801.0401 1094.1456 64.7040
908.7839 699.0154 -53.7280
903.5987 711.3918 -50.3680
915.1987 736.9118 -50.3680
878.1184 964.4740 24.2340
805.3511 1058.2953 58.7860
903.4950 698.1206 -49.1820
898.9579 708.9500 -46.2420
917.1079 748.8800 -46.2420
864.4176 1000.7368 33.5680
811.4941 1015.2392 51.3120
896.3105 702.1881 -42.6240
893.7178 708.3763 -40.9440
918.5178 762.9363 -40.9440
850.2046 1036.5741 42.7500
818.9546 967.8241 42.7500
888.0269 710.0428 -34.7500
888.0269 710.0428 -34.7500
919.2769 778.7928 -34.7500
836.2941 1069.7992 51.3120
827.2176 918.8968 33.5680
879.4407 720.5097 -26.2560
882.0334 714.3215 -27.9360
919.2334 796.1615 -27.9360
823.5011 1098.2253 58.7860
835.7684 871.3040 24.2340
871.3485 732.4139 -17.8380
875.8856 721.5845 -20.7780
918.2356 814.7545 -20.7780
812.6401 1119.6656 64.7040
844.0922 827.8924 15.2160
864.5466 744.5804 -10.1920
869.7319 732.2039 -13.5520
916.1319 834.2839 -13.5520
804.5260 1131.9334 68.5980
851.6744 791.5088 6.9820
859.8316 755.8340 -4.0140
863.7206 746.5517 -6.5340
912.7706 854.4617 -6.5340
908.0000 875.0000 0.0000
799.7147 1133.8080 70.0000
910.2305 721.3578 -54.0000
910.2305 721.3578 -54.0000
910.2305 721.3578 -54.0000
900.7171 899.4414 6.9820
798.8244 1120.9509 68.5980
911.1386 707.0202 -55.5660
907.2404 716.3373 -53.0460
912.6904 728.2183 -53.0460
890.4653 930.0568 15.2160
800.8081 1095.1792 64.7040
908.5645 700.0026 -53.7280
903.3668 712.4254 -50.3680
914.9668 737.7134 -50.3680
878.0625 964.6511 24.2340
805.1481 1059.3422 58.7860
903.3029 699.1269 -49.1820
898.7550 709.9968 -46.2420
916.9050 749.5638 -46.2420
864.3264 1001.0288 33.5680
811.3264 1016.2892 51.3120
896.1490 703.2149 -42.6240
893.5501 709.4262 -40.9440
918.3501 763.4902 -40.9440
850.0751 1036.9946 42.7500
818.8251 968.8696 42.7500
887.8975 711.0883 -34.7500
887.8975 711.0883 -34.7500
919.1475 779.2133 -34.7500
836.1264 1070.3532 51.3120
827.1264 919.9328 33.5680
879.3434 721.5689 -26.2560
881.9423 715.3575 -27.9360
919.1423 796.4535 -27.9360
823.2981 1098.9092 58.7860
835.7125 872.3281 24.2340
871.2817 733.4786 -17.8380
875.8297 722.6087 -20.7780
918.1797 814.9317 -20.7780
812.4081 1120.4672 64.7040
844.0653 828.9048 15.2160
864.5073 745.6392 -10.1920
869.7050 733.2164 -13.5520
916.1050 834.3684 -13.5520
804.2744 1132.8319 68.5980
851.6671 792.5124 6.9820
859.8151 756.8724 -4.0140
863.7133 747.5553 -6.5340
912.7633 854.4843 -6.5340
908.0000 876.0000 0.0000
799.4559 1134.7740 70.0000
909.9717 722.3237 -54.0000
909.9717 722.3237 -54.0000
909.9717 722.3237 -54.0000
900.7099 900.4449 6.9820
798.5728 1121.8494 68.5980
910.8964 707.9197 -55.5660
906.9888 717.2356 -53.0460
912.4388 729.2256 -53.0460
890.4384 931.0693 15.2160
800.5762 1095.9807 64.7040
908.3450 700.8057 -53.7280
903.1349 713.2268 -50.3680
914.7349 738.7468 -50.3680
878.0066 965.6753 24.2340
804.9452 1060.0260 58.7860
903.1109 699.8121 -49.1820
898.5521 710.6806 -46.2420
916.7021 750.6106 -46.2420
864.2353 1002.0649 33.5680
811.1587 1016.8432 51.3120
895.9875 703.7696 -42.6240
893.3824 709.9801 -40.9440
918.1824 764.5401 -40.9440
849.9457 1038.0401 42.7500
818.6957 969.2901 42.7500
887.7681 711.5087 -34.7500
887.7681 711.5087 -34.7500
919.0181 780.2587 -34.7500
835.9587 1071.4032 51.3120
827.0353 920.2249 33.5680
879.2461 721.8601 -26.2560
881.8512 715.6495 -27.9360
919.0512 797.4895 -27.9360
823.0952 1099.9560 58.7860
835.6566 872.5053 24.2340
871.2149 733.6543 -17.8380
875.7738 722.7858 -20.7780
918.1238 815.9558 -20.7780
812.1762 1121.5007 64.7040
844.0384 828.9893 15.2160
864.4680 745.7220 -10.1920
869.6781 733.3008 -13.5520
916.0781 835.3808 -13.5520
804.0228 1133.8394 68.5980
851.6599 792.5349 6.9820
859.7985 756.8937 -4.0140
863.7061 747.5778 -6.5340
912.7561 855.4878 -6.5340
908.0000 876.0000 0.0000
799.1971 1135.7400 70.0000
909.7128 723.2897 -54.0000
909.7128 723.2897 -54.0000
909.7128 723.2897 -54.0000
900.7026 900.4675 6.9820
798.3213 1122.8568 68.5980
910.6541 708.8924 -55.5660
906.7372 718.2431 -53.0460
912.1872 730.1241 -53.0460
890.4115 931.1538 15.2160
800.3444 1097.0142 64.7040
908.1255 701.7928 -53.7280
902.9029 714.2604 -50.3680
914.5029 739.5484 -50.3680
877.9507 965.8524 24.2340
804.7423 1061.0728 58.7860
902.9188 700.8184 -49.1820
898.3491 711.7274 -46.2420
916.4991 751.2944 -46.2420
864.1442 1002.3569 33.5680
810.9910 1017.8931 51.3120
895.8259 704.7964 -42.6240
893.2146 711.0301 -40.9440
918.0146 765.0941 -40.9440
849.8163 1038.4606 42.7500
818.5663 970.3356 42.7500
887.6386 712.5542 -34.7500
887.6386 712.5542 -34.7500
918.8886 780.6792 -34.7500
835.7910 1071.9571 51.3120
826.9442 921.2609 33.5680
879.1488 722.9193 -26.2560
881.7600 716.6856 -27.9360
918.9600 797.7816 -27.9360
822.8923 1100.6398 58.7860
835.6007 873.5294 24.2340
871.1481 734.7191 -17.8380
875.7179 723.8100 -20.7780
918.0679 816.1330 -20.7780
811.9444 1122.3022 64.7040
844.0115 830.0018 15.2160
864.4286 746.7808 -10.1920
869.6511 734.3133 -13.5520
916.0511 835.4653 -13.5520
803.7713 1134.7378 68.5980
851.6526 793.5385 6.9820
859.7819 757.9320 -4.0140
863.6988 748.5814 -6.5340
912.7488 855.5104 -6.5340
908.0000 877.0000 0.0000
798.9383 1136.7060 70.0000
909.7128 723.2897 -54.0000
909.7128 723.2897 -54.0000
909.7128 723.2897 -54.0000
900.6849 901.5056 6.9820
798.0685 1123.8281 68.5980
910.6645 708.9173 -55.5660
906.7383 718.2667 -53.0460
912.1883 730.1477 -53.0460
890.3680 932.2121 15.2160
800.1083 1097.9992 64.7040
908.1420 701.8830 -53.7280
902.9071 714.3489 -50.3680
914.5071 739.6369 -50.3680
877.8757 966.9161 24.2340
804.5312 1062.0766 58.7860
902.9378 701.0054 -49.1820
898.3572 711.9130 -46.2420
916.5072 751.4800 -46.2420
864.0345 1003.4145 33.5680
810.8108 1018.9175 51.3120
895.8446 705.1028 -42.6240
893.2271 711.3357 -40.9440
918.0271 765.3997 -40.9440
849.6707 1039.5040 42.7500
818.4207 971.3790 42.7500
887.6548 712.9938 -34.7500
887.6548 712.9938 -34.7500
918.9048 781.1188 -34.7500
835.6108 1072.9815 51.3120
826.8345 922.3185 33.5680
879.1612 723.4969 -26.2560
881.7787 717.2640 -27.9360
918.9787 798.3600 -27.9360
822.6812 1101.6436 58.7860
835.5257 874.5931 24.2340
871.1563 735.4306 -17.8380
875.7369 724.5230 -20.7780
918.0869 816.8460 -20.7780
811.7083 1123.2872 64.7040
843.9680 831.0601 15.2160
864.4327 747.6134 -10.1920
869.6677 735.1475 -13.5520
916.0677 836.2995 -13.5520
803.5185 1135.7091 68.5980
851.6349 794.5766 6.9820
859.7831 758.8637 -4.0140
863.7093 749.5143 -6.5340
912.7593 856.4433 -6.5340
908.0000 878.0000 0.0000
798.6794 1137.6720 70.0000
909.4540 724.2556 -54.0000
909.4540 724.2556 -54.0000
909.4540 724.2556 -54.0000
900.6777 902.5092 6.9820
797.8169 1124.7266 68.5980
910.4223 709.8169 -55.5660
906.4868 719.1651 -53.0460
911.9368 731.1551 -53.0460
890.3411 933.2245 15.2160
799.8763 1098.8008 64.7040
907.9226 702.6861 -53.7280
902.6752 715.1504 -50.3680
914.2752 740.6704 -50.3680
877.8198 967.9403 24.2340
804.3282 1062.7605 58.7860
902.7458 701.6905 -49.1820
898.1543 712.5968 -46.2420
916.3043 752.5268 -46.2420
863.9434 1004.4505 33.5680
810.6431 1019.4714 51.3120
895.6831 705.6575 -42.6240
893.0594 711.8896 -40.9440
917.8594 766.4496 -40.9440
849.5413 1040.5495 42.7500
818.2913 971.7995 42.7500
887.5254 713.4143 -34.7500
887.5254 713.4143 -34.7500
918.7754 782.1643 -34.7500
835.4431 1074.0314 51.3120
826.7434 922.6105 33.5680
879.0639 723.7881 -26.2560
881.6876 717.5560 -27.9360
918.8876 799.3960 -27.9360
822.4782 1102.6905 58.7860
835.4698 874.7703 24.2340
871.0895 735.6063 -17.8380
875.6810 724.7001 -20.7780
918.0310 817.8701 -20.7780
811.4763 1124.3208 64.7040
843.9411 831.1445 15.2160
864.3934 747.6962 -10.1920
869.6408 735.2319 -13.5520
916.0408 837.3119 -13.5520
803.2669 1136.7166 68.5980
851.6277 794.5992 6.9820
859.7665 758.8850 -4.0140
863.7021 749.5368 -6.5340
912.7521 857.4468 -6.5340
908.0000 878.0000 0.0000
798.4207 1138.6380 70.0000
909.1952 725.2215 -54.0000
909.1952 725.2215 -54.0000
909.1952 725.2215 -54.0000
900.6704 902.5317 6.9820
797.5654 1125.7340 68.5980
910.1801 710.7895 -55.5660
906.2352 720.1724 -53.0460
911.6852 732.0534 -53.0460
890.3142 933.3090 15.2160
799.6446 1099.8343 64.7040
907.7031 703.6732 -53.7280
902.4433 716.1838 -50.3680
914.0433 741.4718 -50.3680
877.7639 968.1174 24.2340
804.1254 1063.8073 58.7860
902.5538 702.6967 -49.1820
897.9514 713.6435 -46.2420
916.1014 753.2105 -46.2420
863.8523 1004.7426 33.5680
810.4754 1020.5214 51.3120
895.5216 706.6842 -42.6240
892.8917 712.9395 -40.9440
917.6917 767.0035 -40.9440
849.4119 1040.9700 42.7500
818.1619 972.8450 42.7500
887.3960 714.4597 -34.7500
887.3960 714.4597 -34.7500
918.6460 782.5847 -34.7500
835.2754 1074.5854 51.3120
826.6523 923.6466 33.5680
878.9666 724.8473 -26.2560
881.5965 718.5920 -27.9360
918.7965 799.6880 -27.9360
822.2754 1103.3743 58.7860
835.4139 875.7944 24.2340
871.0228 736.6710 -17.8380
875.6251 725.7242 -20.7780
917.9751 818.0472 -20.7780
811.2446 1125.1223 64.7040
843.9142 832.1570 15.2160
864.3541 748.7550 -10.1920
869.6139 736.2444 -13.5520
916.0139 837.3964 -13.5520
803.0154 1137.6150 68.5980
851.6204 795.6027 6.9820
859.7500 759.9233 -4.0140
863.6948 750.5403 -6.5340
912.7448 857.4693 -6.5340
908.0000 879.0000 0.0000
798.1619 1139.6040 70.0000
907.9011 730.0511 -54.0000
907.9011 730.0511 -54.0000
907.9011 730.0511 -54.0000
900.7051 903.3743 6.9820
797.3185 1126.6836 68.5980
908.9269 715.5304 -55.5660
904.9727 724.9122 -53.0460
910.4227 736.7932 -53.0460
890.3535 934.0582 15.2160
799.4292 1100.7420 64.7040
906.5394 708.1679 -53.7280
901.2672 720.6769 -50.3680
912.8672 745.9649 -50.3680
877.7841 968.8261 24.2340
803.9551 1064.6590 58.7860
901.5174 706.8223 -49.1820
896.9042 717.7676 -46.2420
915.0542 757.3346 -46.2420
863.8358 1005.4524 33.5680
810.3574 1021.3139 51.3120
894.6395 710.3521 -42.6240
892.0034 716.6066 -40.9440
916.8034 770.6706 -40.9440
849.3473 1041.7116 42.7500
818.0973 973.5866 42.7500
886.6843 717.6160 -34.7500
886.6843 717.6160 -34.7500
917.9343 785.7410 -34.7500
835.1574 1075.3779 51.3120
826.6358 924.3564 33.5680
878.4303 727.4727 -26.2560
881.0664 721.2182 -27.9360
918.2664 802.3142 -27.9360
822.1051 1104.2260 58.7860
835.4341 876.5031 24.2340
870.6563 738.7808 -17.8380
