ply
format ascii 1.0
element vertex 1695
property float x
property float y
property float z
element face 0
property list uchar int vertex_index
end_header
1022.4738 1519.6880 -38.0700
979.9532 1798.0800 -14.7714
981.0583 1744.6960 21.9815
982.6558 1756.5520 23.8782
1047.6158 1686.0240 23.8782
1018.4334 1500.6435 -39.1573
978.2413 1817.5475 -7.8534
978.3130 1789.1445 8.8827
979.5111 1798.0365 10.3052
1048.1811 1723.4805 10.3052
1048.0000 1744.0000 0.0000
1014.7190 1497.0000 -39.5140
1026.4380 1289.0000 128.0768
1026.4380 1289.0000 128.0768
1026.4380 1289.0000 128.0768
1046.9085 1745.1660 -7.8938
1010.8031 1510.0580 -39.1617
1023.4976 1314.9020 126.6673
1022.2995 1306.0100 125.2448
1029.9295 1297.7260 125.2448
1044.9088 1730.4080 -14.8353
1006.2327 1538.7840 -38.0860
1018.7054 1357.6160 119.3349
1017.1080 1345.7600 117.4383
1033.3480 1328.1280 117.4383
1042.1550 1703.5420 -20.8529
1001.2735 1578.9060 -36.2581
1012.5973 1413.1040 107.3509
1011.1995 1402.7300 105.6913
1036.6095 1375.1420 105.6913
1038.8013 1668.3840 -25.9755
996.1914 1626.1520 -33.6494
1005.7091 1477.3280 91.9865
1004.9103 1471.4000 91.0381
1039.6303 1433.7040 91.0381
1035.0021 1628.7500 -30.2314
991.2521 1676.2500 -30.2314
998.5764 1546.2500 74.5128
998.5764 1546.2500 74.5128
1042.3264 1498.7500 74.5128
1030.9114 1588.4560 -33.6494
986.7213 1724.9280 -25.9755
991.7352 1615.8320 56.2012
992.5339 1621.7600 57.1496
1044.6139 1565.2160 57.1496
1026.6835 1551.3180 -36.2581
982.8650 1767.9140 -20.8529
985.7212 1682.0360 38.3229
987.1190 1692.4100 39.9825
1046.4090 1628.0380 39.9825
1022.4727 1521.1520 -38.0860
979.9488 1800.9360 -14.8353
981.0701 1740.8240 22.1491
982.6676 1752.6800 24.0458
1047.6276 1682.1520 24.0458
1018.4331 1501.7740 -39.1617
978.2385 1819.7220 -7.8938
978.3178 1788.1580 8.9511
979.5159 1797.0500 10.3736
1048.1859 1722.4940 10.3736
1048.0000 1745.0000 0.0000
1014.7190 1497.0000 -39.5140
1026.4380 1290.0000 128.0768
1026.4380 1290.0000 128.0768
1026.4380 1290.0000 128.0768
1046.9085 1746.1020 -7.8938
1010.8031 1510.0130 -39.1617
1023.4976 1315.8740 126.6673
1022.2995 1306.9460 125.2448
1029.9295 1298.7710 125.2448
1044.9088 1731.2560 -14.8353
1006.2327 1538.7040 -38.0860
1018.7054 1358.5120 119.3349
1017.1080 1346.6080 117.4383
1033.3480 1329.2080 117.4383
1042.1550 1704.2840 -20.8529
1001.2735 1578.8010 -36.2581
1012.5973 1413.8880 107.3509
1011.1995 1403.4720 105.6913
1036.6095 1376.2470 105.6913
1038.8013 1669.0080 -25.9755
996.1914 1626.0320 -33.6494
1005.7091 1477.9760 91.9865
1004.9103 1472.0240 91.0381
1039.6303 1434.8240 91.0381
1035.0021 1629.2500 -30.2314
991.2521 1676.1250 -30.2314
998.5764 1546.7500 74.5128
998.5764 1546.7500 74.5128
1042.3264 1499.8750 74.5128
1030.9114 1588.8320 -33.6494
986.7213 1724.8080 -25.9755
991.7352 1616.1840 56.2012
992.5339 1622.1360 57.1496
1044.6139 1566.3360 57.1496
1026.6835 1551.5760 -36.2581
982.8650 1767.8090 -20.8529
985.7212 1682.2520 38.3229
987.1190 1692.6680 39.9825
1046.4090 1629.1430 39.9825
1022.4727 1521.3040 -38.0860
979.9488 1800.8560 -14.8353
981.0701 1740.9280 22.1491
982.6676 1752.8320 24.0458
1047.6276 1683.2320 24.0458
1018.4331 1501.8380 -39.1617
978.2385 1819.6770 -7.8938
978.3178 1788.1860 8.9511
979.5159 1797.1140 10.3736
1048.1859 1723.5390 10.3736
1048.0000 1746.0000 0.0000
1014.7190 1498.0000 -39.5140
1026.4380 1291.0000 128.0768
1026.4380 1291.0000 128.0768
1026.4380 1291.0000 128.0768
1046.9085 1747.1020 -7.8938
1010.8031 1511.0130 -39.1617
1023.4976 1316.8740 126.6673
1022.2995 1307.9460 125.2448
1029.9295 1299.7710 125.2448
1044.9088 1732.2560 -14.8353
1006.2327 1539.7040 -38.0860
1018.7054 1359.5120 119.3349
1017.1080 1347.6080 117.4383
1033.3480 1330.2080 117.4383
1042.1550 1705.2840 -20.8529
1001.2735 1579.8010 -36.2581
1012.5973 1414.8880 107.3509
1011.1995 1404.4720 105.6913
1036.6095 1377.2470 105.6913
1038.8013 1670.0080 -25.9755
996.1914 1627.0320 -33.6494
1005.7091 1478.9760 91.9865
1004.9103 1473.0240 91.0381
1039.6303 1435.8240 91.0381
1035.0021 1630.2500 -30.2314
991.2521 1677.1250 -30.2314
998.5764 1547.7500 74.5128
998.5764 1547.7500 74.5128
1042.3264 1500.8750 74.5128
1030.9114 1589.8320 -33.6494
986.7213 1725.8080 -25.9755
991.7352 1617.1840 56.2012
992.5339 1623.1360 57.1496
1044.6139 1567.3360 57.1496
1026.6835 1552.5760 -36.2581
982.8650 1768.8090 -20.8529
985.7212 1683.2520 38.3229
987.1190 1693.6680 39.9825
1046.4090 1630.1430 39.9825
1022.4727 1522.3040 -38.0860
979.9488 1801.8560 -14.8353
981.0701 1741.9280 22.1491
982.6676 1753.8320 24.0458
1047.6276 1684.2320 24.0458
1018.4331 1502.8380 -39.1617
978.2385 1820.6770 -7.8938
978.3178 1789.1860 8.9511
979.5159 1798.1140 10.3736
1048.1859 1724.5390 10.3736
1048.0000 1747.0000 0.0000
1014.7190 1499.0000 -39.5140
1026.4380 1292.0000 128.0768
1026.4380 1292.0000 128.0768
1026.4380 1292.0000 128.0768
1046.9085 1748.1020 -7.8938
1010.8031 1512.0130 -39.1617
1023.4976 1317.8740 126.6673
1022.2995 1308.9460 125.2448
1029.9295 1300.7710 125.2448
1044.9088 1733.2560 -14.8353
1006.2327 1540.7040 -38.0860
1018.7054 1360.5120 119.3349
1017.1080 1348.6080 117.4383
1033.3480 1331.2080 117.4383
1042.1550 1706.2840 -20.8529
1001.2735 1580.8010 -36.2581
1012.5973 1415.8880 107.3509
1011.1995 1405.4720 105.6913
1036.6095 1378.2470 105.6913
1038.8013 1671.0080 -25.9755
996.1914 1628.0320 -33.6494
1005.7091 1479.9760 91.9865
1004.9103 1474.0240 91.0381
1039.6303 1436.8240 91.0381
1035.0021 1631.2500 -30.2314
991.2521 1678.1250 -30.2314
998.5764 1548.7500 74.5128
998.5764 1548.7500 74.5128
1042.3264 1501.8750 74.5128
1030.9114 1590.8320 -33.6494
986.7213 1726.8080 -25.9755
991.7352 1618.1840 56.2012
992.5339 1624.1360 57.1496
1044.6139 1568.3360 57.1496
1026.6835 1553.5760 -36.2581
982.8650 1769.8090 -20.8529
985.7212 1684.2520 38.3229
987.1190 1694.6680 39.9825
1046.4090 1631.1430 39.9825
1022.4727 1523.3040 -38.0860
979.9488 1802.8560 -14.8353
981.0701 1742.9280 22.1491
982.6676 1754.8320 24.0458
1047.6276 1685.2320 24.0458
1018.4331 1503.8380 -39.1617
978.2385 1821.6770 -7.8938
978.3178 1790.1860 8.9511
979.5159 1799.1140 10.3736
1048.1859 1725.5390 10.3736
1048.0000 1748.0000 0.0000
1014.7190 1500.0000 -39.5140
1026.4380 1293.0000 128.0768
1026.4380 1293.0000 128.0768
1026.4380 1293.0000 128.0768
1046.9085 1749.1020 -7.8938
1010.8031 1513.0130 -39.1617
1023.4976 1318.8740 126.6673
1022.2995 1309.9460 125.2448
1029.9295 1301.7710 125.2448
1044.9088 1734.2560 -14.8353
1006.2327 1541.7040 -38.0860
1018.7054 1361.5120 119.3349
1017.1080 1349.6080 117.4383
1033.3480 1332.2080 117.4383
1042.1550 1707.2840 -20.8529
1001.2735 1581.8010 -36.2581
1012.5973 1416.8880 107.3509
1011.1995 1406.4720 105.6913
1036.6095 1379.2470 105.6913
1038.8013 1672.0080 -25.9755
996.1914 1629.0320 -33.6494
1005.7091 1480.9760 91.9865
1004.9103 1475.0240 91.0381
1039.6303 1437.8240 91.0381
1035.0021 1632.2500 -30.2314
991.2521 1679.1250 -30.2314
998.5764 1549.7500 74.5128
998.5764 1549.7500 74.5128
1042.3264 1502.8750 74.5128
1030.9114 1591.8320 -33.6494
986.7213 1727.8080 -25.9755
991.7352 1619.1840 56.2012
992.5339 1625.1360 57.1496
1044.6139 1569.3360 57.1496
1026.6835 1554.5760 -36.2581
982.8650 1770.8090 -20.8529
985.7212 1685.2520 38.3229
987.1190 1695.6680 39.9825
1046.4090 1632.1430 39.9825
1022.4727 1524.3040 -38.0860
979.9488 1803.8560 -14.8353
981.0701 1743.9280 22.1491
982.6676 1755.8320 24.0458
1047.6276 1686.2320 24.0458
1018.4331 1504.8380 -39.1617
978.2385 1822.6770 -7.8938
978.3178 1791.1860 8.9511
979.5159 1800.1140 10.3736
1048.1859 1726.5390 10.3736
1048.0000 1749.0000 0.0000
1014.7190 1501.0000 -39.5140
1026.4380 1294.0000 128.0768
1026.4380 1294.0000 128.0768
1026.4380 1294.0000 128.0768
1046.9085 1750.1020 -7.8938
1010.8031 1514.0130 -39.1617
1023.4976 1319.8740 126.6673
1022.2995 1310.9460 125.2448
1029.9295 1302.7710 125.2448
1044.9088 1735.2560 -14.8353
1006.2327 1542.7040 -38.0860
1018.7054 1362.5120 119.3349
1017.1080 1350.6080 117.4383
1033.3480 1333.2080 117.4383
1042.1550 1708.2840 -20.8529
1001.2735 1582.8010 -36.2581
1012.5973 1417.8880 107.3509
1011.1995 1407.4720 105.6913
1036.6095 1380.2470 105.6913
1038.8013 1673.0080 -25.9755
996.1914 1630.0320 -33.6494
1005.7091 1481.9760 91.9865
1004.9103 1476.0240 91.0381
1039.6303 1438.8240 91.0381
1035.0021 1633.2500 -30.2314
991.2521 1680.1250 -30.2314
998.5764 1550.7500 74.5128
998.5764 1550.7500 74.5128
1042.3264 1503.8750 74.5128
1030.9114 1592.8320 -33.6494
986.7213 1728.8080 -25.9755
991.7352 1620.1840 56.2012
992.5339 1626.1360 57.1496
1044.6139 1570.3360 57.1496
1026.6835 1555.5760 -36.2581
982.8650 1771.8090 -20.8529
985.7212 1686.2520 38.3229
987.1190 1696.6680 39.9825
1046.4090 1633.1430 39.9825
1022.4727 1525.3040 -38.0860
979.9488 1804.8560 -14.8353
981.0701 1744.9280 22.1491
982.6676 1756.8320 24.0458
1047.6276 1687.2320 24.0458
1018.4331 1505.8380 -39.1617
978.2385 1823.6770 -7.8938
978.3178 1792.1860 8.9511
979.5159 1801.1140 10.3736
1048.1859 1727.5390 10.3736
1048.0000 1754.0000 0.0000
1014.7190 1502.0000 -39.5140
1026.4380 1295.0000 128.0768
1026.4380 1295.0000 128.0768
1026.4380 1295.0000 128.0768
1046.9085 1755.0080 -7.8938
1010.8031 1514.8510 -39.1617
1023.4976 1320.8560 126.6673
1022.2995 1311.7840 125.2448
1029.9295 1304.0450 125.2448
1044.9088 1739.9040 -14.8353
1006.2327 1543.4480 -38.0860
1018.7054 1363.4480 119.3349
1017.1080 1351.3520 117.4383
1033.3480 1334.8800 117.4383
1042.1550 1712.5460 -20.8529
1001.2735 1583.5070 -36.2581
1012.5973 1418.7620 107.3509
1011.1995 1408.1780 105.6913
1036.6095 1382.4050 105.6913
1038.8013 1676.7920 -25.9755
996.1914 1630.7440 -33.6494
1005.7091 1482.7840 91.9865
1004.9103 1476.7360 91.0381
1039.6303 1441.5200 91.0381
1035.0021 1636.5000 -30.2314
991.2521 1680.8750 -30.2314
998.5764 1551.5000 74.5128
998.5764 1551.5000 74.5128
1042.3264 1507.1250 74.5128
1030.9114 1595.5280 -33.6494
986.7213 1729.6160 -25.9755
991.7352 1620.8960 56.2012
992.5339 1626.9440 57.1496
1044.6139 1574.1200 57.1496
1026.6835 1557.7340 -36.2581
982.8650 1772.6830 -20.8529
985.7212 1686.9580 38.3229
987.1190 1697.5420 39.9825
1046.4090 1637.4050 39.9825
1022.4727 1526.9760 -38.0860
979.9488 1805.7920 -14.8353
981.0701 1745.6720 22.1491
982.6676 1757.7680 24.0458
1047.6276 1691.8800 24.0458
1018.4331 1507.1120 -39.1617
978.2385 1824.6590 -7.8938
978.3178 1793.0240 8.9511
979.5159 1802.0960 10.3736
1048.1859 1732.4450 10.3736
1048.0000 1811.0000 0.0000
1014.7190 1503.0000 -39.5140
1026.4380 1296.0000 128.0768
1026.4380 1296.0000 128.0768
1026.4380 1296.0000 128.0768
1046.9085 1810.6920 -7.8938
1010.8031 1513.5830 -39.1617
1023.4976 1321.6040 126.6673
1022.2995 1310.5160 125.2448
1029.9295 1308.8810 125.2448
1044.9088 1791.9760 -14.8353
1006.2327 1540.8640 -38.0860
1018.7054 1363.5520 119.3349
1017.1080 1348.7680 117.4383
1033.3480 1345.2880 117.4383
1042.1550 1759.2140 -20.8529
1001.2735 1580.3910 -36.2581
1012.5973 1417.9980 107.3509
1011.1995 1405.0620 105.6913
1036.6095 1399.6170 105.6913
1038.8013 1716.7680 -25.9755
996.1914 1627.7120 -33.6494
1005.7091 1481.0960 91.9865
1004.9103 1473.7040 91.0381
1039.6303 1466.2640 91.0381
1035.0021 1669.0000 -30.2314
991.2521 1678.3750 -30.2314
998.5764 1549.0000 74.5128
998.5764 1549.0000 74.5128
1042.3264 1539.6250 74.5128
1030.9114 1620.2720 -33.6494
986.7213 1727.9280 -25.9755
991.7352 1617.8640 56.2012
992.5339 1625.2560 57.1496
1044.6139 1614.0960 57.1496
1026.6835 1574.9460 -36.2581
982.8650 1771.9190 -20.8529
985.7212 1683.8420 38.3229
987.1190 1696.7780 39.9825
1046.4090 1684.0730 39.9825
1022.4727 1537.3840 -38.0860
979.9488 1805.8960 -14.8353
981.0701 1743.0880 22.1491
982.6676 1757.8720 24.0458
1047.6276 1743.9520 24.0458
1018.4331 1511.9480 -39.1617
978.2385 1825.4070 -7.8938
978.3178 1791.7560 8.9511
979.5159 1802.8440 10.3736
1048.1859 1788.1290 10.3736
1048.0000 1812.0000 0.0000
1014.7190 1504.0000 -39.5140
1026.4380 1297.0000 128.0768
1026.4380 1297.0000 128.0768
1026.4380 1297.0000 128.0768
1046.9085 1811.6920 -7.8938
1010.8031 1514.5830 -39.1617
1023.4976 1322.6040 126.6673
1022.2995 1311.5160 125.2448
1029.9295 1309.8810 125.2448
1044.9088 1792.9760 -14.8353
1006.2327 1541.8640 -38.0860
1018.7054 1364.5520 119.3349
1017.1080 1349.7680 117.4383
1033.3480 1346.2880 117.4383
1042.1550 1760.2140 -20.8529
1001.2735 1581.3910 -36.2581
1012.5973 1418.9980 107.3509
1011.1995 1406.0620 105.6913
1036.6095 1400.6170 105.6913
1038.8013 1717.7680 -25.9755
996.1914 1628.7120 -33.6494
1005.7091 1482.0960 91.9865
1004.9103 1474.7040 91.0381
1039.6303 1467.2640 91.0381
1035.0021 1670.0000 -30.2314
991.2521 1679.3750 -30.2314
998.5764 1550.0000 74.5128
998.5764 1550.0000 74.5128
1042.3264 1540.6250 74.5128
1030.9114 1621.2720 -33.6494
986.7213 1728.9280 -25.9755
991.7352 1618.8640 56.2012
992.5339 1626.2560 57.1496
1044.6139 1615.0960 57.1496
1026.6835 1575.9460 -36.2581
982.8650 1772.9190 -20.8529
985.7212 1684.8420 38.3229
987.1190 1697.7780 39.9825
1046.4090 1685.0730 39.9825
1022.4727 1538.3840 -38.0860
979.9488 1806.8960 -14.8353
981.0701 1744.0880 22.1491
982.6676 1758.8720 24.0458
1047.6276 1744.9520 24.0458
1018.4331 1512.9480 -39.1617
978.2385 1826.4070 -7.8938
978.3178 1792.7560 8.9511
979.5159 1803.8440 10.3736
1048.1859 1789.1290 10.3736
1048.0000 1813.0000 0.0000
1014.7190 1504.0000 -39.5140
1026.4380 1298.0000 128.0768
1026.4380 1298.0000 128.0768
1026.4380 1298.0000 128.0768
1046.9085 1812.6235 -7.8938
1010.8031 1514.6065 -39.1617
1023.4976 1323.6445 126.6673
1022.2995 1312.5205 125.2448
1029.9295 1310.8855 125.2448
1044.9088 1793.8080 -14.8353
1006.2327 1541.9520 -38.0860
1018.7054 1365.6160 119.3349
1017.1080 1350.7840 117.4383
1033.3480 1347.3040 117.4383
1042.1550 1760.9245 -20.8529
1001.2735 1581.5755 -36.2581
1012.5973 1420.0715 107.3509
1011.1995 1407.0935 105.6913
1036.6095 1401.6485 105.6913
1038.8013 1718.3440 -25.9755
996.1914 1629.0160 -33.6494
1005.7091 1483.1680 91.9865
1004.9103 1475.7520 91.0381
1039.6303 1468.3120 91.0381
1035.0021 1670.4375 -30.2314
991.2521 1679.8125 -30.2314
998.5764 1551.0625 74.5128
998.5764 1551.0625 74.5128
1042.3264 1541.6875 74.5128
1030.9114 1621.5760 -33.6494
986.7213 1729.5040 -25.9755
991.7352 1619.9120 56.2012
992.5339 1627.3280 57.1496
1044.6139 1616.1680 57.1496
1026.6835 1576.1305 -36.2581
982.8650 1773.6295 -20.8529
985.7212 1685.8735 38.3229
987.1190 1698.8515 39.9825
1046.4090 1686.1465 39.9825
1022.4727 1538.4720 -38.0860
979.9488 1807.7280 -14.8353
981.0701 1745.1040 22.1491
982.6676 1759.9360 24.0458
1047.6276 1746.0160 24.0458
1018.4331 1512.9715 -39.1617
978.2385 1827.3385 -7.8938
978.3178 1793.7605 8.9511
979.5159 1804.8845 10.3736
1048.1859 1790.1695 10.3736
1048.0000 1818.0000 0.0000
1014.7190 1505.0000 -39.5140
1026.4380 1299.0000 128.0768
1026.4380 1299.0000 128.0768
1026.4380 1299.0000 128.0768
1046.9085 1817.5295 -7.8938
1010.8031 1515.4445 -39.1617
1023.4976 1324.6265 126.6673
1022.2995 1313.3585 125.2448
1029.9295 1312.1595 125.2448
1044.9088 1798.4560 -14.8353
1006.2327 1542.6960 -38.0860
1018.7054 1366.5520 119.3349
1017.1080 1351.5280 117.4383
1033.3480 1348.9760 117.4383
1042.1550 1765.1865 -20.8529
1001.2735 1582.2815 -36.2581
1012.5973 1420.9455 107.3509
1011.1995 1407.7995 105.6913
1036.6095 1403.8065 105.6913
1038.8013 1722.1280 -25.9755
996.1914 1629.7280 -33.6494
1005.7091 1483.9760 91.9865
1004.9103 1476.4640 91.0381
1039.6303 1471.0080 91.0381
1035.0021 1673.6875 -30.2314
991.2521 1680.5625 -30.2314
998.5764 1551.8125 74.5128
998.5764 1551.8125 74.5128
1042.3264 1544.9375 74.5128
1030.9114 1624.2720 -33.6494
986.7213 1730.3120 -25.9755
991.7352 1620.6240 56.2012
992.5339 1628.1360 57.1496
1044.6139 1619.9520 57.1496
1026.6835 1578.2885 -36.2581
982.8650 1774.5035 -20.8529
985.7212 1686.5795 38.3229
987.1190 1699.7255 39.9825
1046.4090 1690.4085 39.9825
1022.4727 1540.1440 -38.0860
979.9488 1808.6640 -14.8353
981.0701 1745.8480 22.1491
982.6676 1760.8720 24.0458
1047.6276 1750.6640 24.0458
1018.4331 1514.2455 -39.1617
978.2385 1828.3205 -7.8938
978.3178 1794.5985 8.9511
979.5159 1805.8665 10.3736
1048.1859 1795.0755 10.3736
1048.0000 1829.0000 0.0000
1014.7190 1506.0000 -39.5140
1026.4380 1300.0000 128.0768
1026.4380 1300.0000 128.0768
1026.4380 1300.0000 128.0768
1046.9085 1828.2945 -7.8938
1010.8031 1516.0395 -39.1617
1023.4976 1325.5815 126.6673
1022.2995 1313.9535 125.2448
1029.9295 1313.8445 125.2448
1044.9088 1808.5760 -14.8353
1006.2327 1543.0560 -38.0860
1018.7054 1367.3920 119.3349
1017.1080 1351.8880 117.4383
1033.3480 1351.6560 117.4383
1042.1550 1774.3415 -20.8529
1001.2735 1582.5465 -36.2581
1012.5973 1421.6305 107.3509
1011.1995 1408.0645 105.6913
1036.6095 1407.7015 105.6913
1038.8013 1730.0880 -25.9755
996.1914 1630.0080 -33.6494
1005.7091 1484.4960 91.9865
1004.9103 1476.7440 91.0381
1039.6303 1476.2480 91.0381
1035.0021 1680.3125 -30.2314
991.2521 1680.9375 -30.2314
998.5764 1552.1875 74.5128
998.5764 1552.1875 74.5128
1042.3264 1551.5625 74.5128
1030.9114 1629.5120 -33.6494
986.7213 1730.8320 -25.9755
991.7352 1620.9040 56.2012
992.5339 1628.6560 57.1496
1044.6139 1627.9120 57.1496
1026.6835 1582.1835 -36.2581
982.8650 1775.1885 -20.8529
985.7212 1686.8445 38.3229
987.1190 1700.4105 39.9825
1046.4090 1699.5635 39.9825
1022.4727 1542.8240 -38.0860
979.9488 1809.5040 -14.8353
981.0701 1746.2080 22.1491
982.6676 1761.7120 24.0458
1047.6276 1760.7840 24.0458
1018.4331 1515.9305 -39.1617
978.2385 1829.2755 -7.8938
978.3178 1795.1935 8.9511
979.5159 1806.8215 10.3736
1048.1859 1805.8405 10.3736
1048.0000 1830.0000 0.0000
1014.7190 1507.0000 -39.5140
1026.4380 1301.0000 128.0768
1026.4380 1301.0000 128.0768
1026.4380 1301.0000 128.0768
1046.9085 1829.2945 -7.8938
1010.8031 1517.0395 -39.1617
1023.4976 1326.5815 126.6673
1022.2995 1314.9535 125.2448
1029.9295 1314.8445 125.2448
1044.9088 1809.5760 -14.8353
1006.2327 1544.0560 -38.0860
1018.7054 1368.3920 119.3349
1017.1080 1352.8880 117.4383
1033.3480 1352.6560 117.4383
1042.1550 1775.3415 -20.8529
1001.2735 1583.5465 -36.2581
1012.5973 1422.6305 107.3509
1011.1995 1409.0645 105.6913
1036.6095 1408.7015 105.6913
1038.8013 1731.0880 -25.9755
996.1914 1631.0080 -33.6494
1005.7091 1485.4960 91.9865
1004.9103 1477.7440 91.0381
1039.6303 1477.2480 91.0381
1035.0021 1681.3125 -30.2314
991.2521 1681.9375 -30.2314
998.5764 1553.1875 74.5128
998.5764 1553.1875 74.5128
1042.3264 1552.5625 74.5128
1030.9114 1630.5120 -33.6494
986.7213 1731.8320 -25.9755
991.7352 1621.9040 56.2012
992.5339 1629.6560 57.1496
1044.6139 1628.9120 57.1496
1026.6835 1583.1835 -36.2581
982.8650 1776.1885 -20.8529
985.7212 1687.8445 38.3229
987.1190 1701.4105 39.9825
1046.4090 1700.5635 39.9825
1022.4727 1543.8240 -38.0860
979.9488 1810.5040 -14.8353
981.0701 1747.2080 22.1491
982.6676 1762.7120 24.0458
1047.6276 1761.7840 24.0458
1018.4331 1516.9305 -39.1617
978.2385 1830.2755 -7.8938
978.3178 1796.1935 8.9511
979.5159 1807.8215 10.3736
1048.1859 1806.8405 10.3736
1048.0000 1831.0000 0.0000
1014.7190 1508.0000 -39.5140
1026.4380 1302.0000 128.0768
1026.4380 1302.0000 128.0768
1026.4380 1302.0000 128.0768
1046.9085 1830.2945 -7.8938
1010.8031 1518.0395 -39.1617
1023.4976 1327.5815 126.6673
1022.2995 1315.9535 125.2448
1029.9295 1315.8445 125.2448
1044.9088 1810.5760 -14.8353
1006.2327 1545.0560 -38.0860
1018.7054 1369.3920 119.3349
1017.1080 1353.8880 117.4383
1033.3480 1353.6560 117.4383
1042.1550 1776.3415 -20.8529
1001.2735 1584.5465 -36.2581
1012.5973 1423.6305 107.3509
1011.1995 1410.0645 105.6913
1036.6095 1409.7015 105.6913
1038.8013 1732.0880 -25.9755
996.1914 1632.0080 -33.6494
1005.7091 1486.4960 91.9865
1004.9103 1478.7440 91.0381
1039.6303 1478.2480 91.0381
1035.0021 1682.3125 -30.2314
991.2521 1682.9375 -30.2314
998.5764 1554.1875 74.5128
998.5764 1554.1875 74.5128
1042.3264 1553.5625 74.5128
1030.9114 1631.5120 -33.6494
986.7213 1732.8320 -25.9755
991.7352 1622.9040 56.2012
992.5339 1630.6560 57.1496
1044.6139 1629.9120 57.1496
1026.6835 1584.1835 -36.2581
982.8650 1777.1885 -20.8529
985.7212 1688.8445 38.3229
987.1190 1702.4105 39.9825
1046.4090 1701.5635 39.9825
1022.4727 1544.8240 -38.0860
979.9488 1811.5040 -14.8353
981.0701 1748.2080 22.1491
982.6676 1763.7120 24.0458
1047.6276 1762.7840 24.0458
1018.4331 1517.9305 -39.1617
978.2385 1831.2755 -7.8938
978.3178 1797.1935 8.9511
979.5159 1808.8215 10.3736
1048.1859 1807.8405 10.3736
1048.0000 1908.0000 0.0000
1014.7190 1509.0000 -39.5140
1026.4380 1303.0000 128.0768
1026.4380 1303.0000 128.0768
1026.4380 1303.0000 128.0768
1046.9040 1905.5580 -7.8938
1010.8716 1515.2080 -39.1617
1023.5661 1327.4860 126.6673
1022.3680 1313.1220 125.2448
1029.8890 1322.4960 125.2448
1044.8928 1881.0640 -14.8353
1006.4007 1539.3440 -38.0860
1018.8734 1367.3280 119.3349
1017.2760 1348.1760 117.4383
1033.2840 1368.1280 117.4383
1042.1235 1839.6660 -20.8529
1001.5630 1576.7760 -36.2581
1012.8868 1419.0520 107.3509
1011.4890 1402.2940 105.6913
1036.5360 1433.5120 105.6913
1038.7533 1786.5120 -25.9755
996.6154 1622.8720 -33.6494
1006.1331 1479.1840 91.9865
1005.3343 1469.6080 91.0381
1039.5583 1512.2640 91.0381
1034.9396 1726.7500 -30.2314
991.8146 1673.0000 -30.2314
999.1389 1544.2500 74.5128
999.1389 1544.2500 74.5128
1042.2639 1598.0000 74.5128
1030.8394 1665.5280 -33.6494
987.4173 1722.5280 -25.9755
992.4312 1610.7760 56.2012
993.2299 1620.3520 57.1496
1044.5659 1684.3360 57.1496
1026.6100 1607.9940 -36.2581
983.6805 1766.8240 -20.8529
986.5367 1675.2880 38.3229
987.9345 1692.0460 39.9825
1046.3775 1764.8880 39.9825
1022.4087 1559.2960 -38.0860
980.8608 1801.2560 -14.8353
981.9821 1734.3120 22.1491
983.5796 1753.4640 24.0458
1047.6116 1833.2720 24.0458
1018.3926 1524.5820 -39.1617
979.2150 1821.1920 -7.8938
979.2943 1784.3740 8.9511
980.4924 1798.7380 10.3736
1048.1814 1883.1040 10.3736
1048.0000 1909.0000 0.0000
1014.7190 1510.0000 -39.5140
1026.4380 1304.0000 128.0768
1026.4380 1304.0000 128.0768
1026.4380 1304.0000 128.0768
1046.9040 1906.5580 -7.8938
1010.8716 1516.2080 -39.1617
1023.5661 1328.4860 126.6673
1022.3680 1314.1220 125.2448
1029.8890 1323.4960 125.2448
1044.8928 1882.0640 -14.8353
1006.4007 1540.3440 -38.0860
1018.8734 1368.3280 119.3349
1017.2760 1349.1760 117.4383
1033.2840 1369.1280 117.4383
1042.1235 1840.6660 -20.8529
1001.5630 1577.7760 -36.2581
1012.8868 1420.0520 107.3509
1011.4890 1403.2940 105.6913
1036.5360 1434.5120 105.6913
1038.7533 1787.5120 -25.9755
996.6154 1623.8720 -33.6494
1006.1331 1480.1840 91.9865
1005.3343 1470.6080 91.0381
1039.5583 1513.2640 91.0381
1034.9396 1727.7500 -30.2314
991.8146 1674.0000 -30.2314
999.1389 1545.2500 74.5128
999.1389 1545.2500 74.5128
1042.2639 1599.0000 74.5128
1030.8394 1666.5280 -33.6494
987.4173 1723.5280 -25.9755
992.4312 1611.7760 56.2012
993.2299 1621.3520 57.1496
1044.5659 1685.3360 57.1496
1026.6100 1608.9940 -36.2581
983.6805 1767.8240 -20.8529
986.5367 1676.2880 38.3229
987.9345 1693.0460 39.9825
1046.3775 1765.8880 39.9825
1022.4087 1560.2960 -38.0860
980.8608 1802.2560 -14.8353
981.9821 1735.3120 22.1491
983.5796 1754.4640 24.0458
1047.6116 1834.2720 24.0458
1018.3926 1525.5820 -39.1617
979.2150 1822.1920 -7.8938
979.2943 1785.3740 8.9511
980.4924 1799.7380 10.3736
1048.1814 1884.1040 10.3736
1048.0000 1909.0000 0.0000
1014.7190 1510.0000 -39.5140
1026.4380 1305.0000 128.0768
1026.4380 1305.0000 128.0768
1026.4380 1305.0000 128.0768
1046.9040 1906.5175 -7.8938
1010.8716 1516.2035 -39.1617
1023.5661 1329.4625 126.6673
1022.3680 1315.0985 125.2448
1029.8890 1324.4725 125.2448
1044.8928 1882.0000 -14.8353
1006.4007 1540.3280 -38.0860
1018.8734 1369.2400 119.3349
1017.2760 1350.0880 117.4383
1033.2840 1370.0400 117.4383
1042.1235 1840.5925 -20.8529
1001.5630 1577.7445 -36.2581
1012.8868 1420.8675 107.3509
1011.4890 1404.1095 105.6913
1036.5360 1435.3275 105.6913
1038.7533 1787.4400 -25.9755
996.6154 1623.8240 -33.6494
1006.1331 1480.8800 91.9865
1005.3343 1471.3040 91.0381
1039.5583 1513.9600 91.0381
1034.9396 1727.6875 -30.2314
991.8146 1673.9375 -30.2314
999.1389 1545.8125 74.5128
999.1389 1545.8125 74.5128
1042.2639 1599.5625 74.5128
1030.8394 1666.4800 -33.6494
987.4173 1723.4560 -25.9755
992.4312 1612.2000 56.2012
993.2299 1621.7760 57.1496
1044.5659 1685.7600 57.1496
1026.6100 1608.9625 -36.2581
983.6805 1767.7505 -20.8529
986.5367 1676.5775 38.3229
987.9345 1693.3355 39.9825
1046.3775 1766.1775 39.9825
1022.4087 1560.2800 -38.0860
980.8608 1802.1920 -14.8353
981.9821 1735.4800 22.1491
983.5796 1754.6320 24.0458
1047.6116 1834.4400 24.0458
1018.3926 1525.5775 -39.1617
979.2150 1822.1515 -7.8938
979.2943 1785.4425 8.9511
980.4924 1799.8065 10.3736
1048.1814 1884.1725 10.3736
1048.0000 1910.0000 0.0000
1014.7190 1511.0000 -39.5140
1026.4380 1306.0000 128.0768
1026.4380 1306.0000 128.0768
1026.4380 1306.0000 128.0768
1046.9040 1907.5175 -7.8938
1010.8716 1517.2035 -39.1617
1023.5661 1330.4625 126.6673
1022.3680 1316.0985 125.2448
1029.8890 1325.4725 125.2448
1044.8928 1883.0000 -14.8353
1006.4007 1541.3280 -38.0860
1018.8734 1370.2400 119.3349
1017.2760 1351.0880 117.4383
1033.2840 1371.0400 117.4383
1042.1235 1841.5925 -20.8529
1001.5630 1578.7445 -36.2581
1012.8868 1421.8675 107.3509
1011.4890 1405.1095 105.6913
1036.5360 1436.3275 105.6913
1038.7533 1788.4400 -25.9755
996.6154 1624.8240 -33.6494
1006.1331 1481.8800 91.9865
1005.3343 1472.3040 91.0381
1039.5583 1514.9600 91.0381
1034.9396 1728.6875 -30.2314
991.8146 1674.9375 -30.2314
999.1389 1546.8125 74.5128
999.1389 1546.8125 74.5128
1042.2639 1600.5625 74.5128
1030.8394 1667.4800 -33.6494
987.4173 1724.4560 -25.9755
992.4312 1613.2000 56.2012
993.2299 1622.7760 57.1496
1044.5659 1686.7600 57.1496
1026.6100 1609.9625 -36.2581
983.6805 1768.7505 -20.8529
986.5367 1677.5775 38.3229
987.9345 1694.3355 39.9825
1046.3775 1767.1775 39.9825
1022.4087 1561.2800 -38.0860
980.8608 1803.1920 -14.8353
981.9821 1736.4800 22.1491
983.5796 1755.6320 24.0458
1047.6116 1835.4400 24.0458
1018.3926 1526.5775 -39.1617
979.2150 1823.1515 -7.8938
979.2943 1786.4425 8.9511
980.4924 1800.8065 10.3736
1048.1814 1885.1725 10.3736
1048.0000 1911.0000 0.0000
1014.7190 1512.0000 -39.5140
1026.4380 1307.0000 128.0768
1026.4380 1307.0000 128.0768
1026.4380 1307.0000 128.0768
1046.9040 1908.5175 -7.8938
1010.8716 1518.2035 -39.1617
1023.5661 1331.4625 126.6673
1022.3680 1317.0985 125.2448
1029.8890 1326.4725 125.2448
1044.8928 1884.0000 -14.8353
1006.4007 1542.3280 -38.0860
1018.8734 1371.2400 119.3349
1017.2760 1352.0880 117.4383
1033.2840 1372.0400 117.4383
1042.1235 1842.5925 -20.8529
1001.5630 1579.7445 -36.2581
1012.8868 1422.8675 107.3509
1011.4890 1406.1095 105.6913
1036.5360 1437.3275 105.6913
1038.7533 1789.4400 -25.9755
996.6154 1625.8240 -33.6494
1006.1331 1482.8800 91.9865
1005.3343 1473.3040 91.0381
1039.5583 1515.9600 91.0381
1034.9396 1729.6875 -30.2314
991.8146 1675.9375 -30.2314
999.1389 1547.8125 74.5128
999.1389 1547.8125 74.5128
1042.2639 1601.5625 74.5128
1030.8394 1668.4800 -33.6494
987.4173 1725.4560 -25.9755
992.4312 1614.2000 56.2012
993.2299 1623.7760 57.1496
1044.5659 1687.7600 57.1496
1026.6100 1610.9625 -36.2581
983.6805 1769.7505 -20.8529
986.5367 1678.5775 38.3229
987.9345 1695.3355 39.9825
1046.3775 1768.1775 39.9825
1022.4087 1562.2800 -38.0860
980.8608 1804.1920 -14.8353
981.9821 1737.4800 22.1491
983.5796 1756.6320 24.0458
1047.6116 1836.4400 24.0458
1018.3926 1527.5775 -39.1617
979.2150 1824.1515 -7.8938
979.2943 1787.4425 8.9511
980.4924 1801.8065 10.3736
1048.1814 1886.1725 10.3736
1048.0000 1912.0000 0.0000
1014.7190 1513.0000 -39.5140
1026.4380 1308.0000 128.0768
1026.4380 1308.0000 128.0768
1026.4380 1308.0000 128.0768
1046.9040 1909.5175 -7.8938
1010.8716 1519.2035 -39.1617
1023.5661 1332.4625 126.6673
1022.3680 1318.0985 125.2448
1029.8890 1327.4725 125.2448
1044.8928 1885.0000 -14.8353
1006.4007 1543.3280 -38.0860
1018.8734 1372.2400 119.3349
1017.2760 1353.0880 117.4383
1033.2840 1373.0400 117.4383
1042.1235 1843.5925 -20.8529
1001.5630 1580.7445 -36.2581
1012.8868 1423.8675 107.3509
1011.4890 1407.1095 105.6913
1036.5360 1438.3275 105.6913
1038.7533 1790.4400 -25.9755
996.6154 1626.8240 -33.6494
1006.1331 1483.8800 91.9865
1005.3343 1474.3040 91.0381
1039.5583 1516.9600 91.0381
1034.9396 1730.6875 -30.2314
991.8146 1676.9375 -30.2314
999.1389 1548.8125 74.5128
999.1389 1548.8125 74.5128
1042.2639 1602.5625 74.5128
1030.8394 1669.4800 -33.6494
987.4173 1726.4560 -25.9755
992.4312 1615.2000 56.2012
993.2299 1624.7760 57.1496
1044.5659 1688.7600 57.1496
1026.6100 1611.9625 -36.2581
983.6805 1770.7505 -20.8529
986.5367 1679.5775 38.3229
987.9345 1696.3355 39.9825
1046.3775 1769.1775 39.9825
1022.4087 1563.2800 -38.0860
980.8608 1805.1920 -14.8353
981.9821 1738.4800 22.1491
983.5796 1757.6320 24.0458
1047.6116 1837.4400 24.0458
1018.3926 1528.5775 -39.1617
979.2150 1825.1515 -7.8938
979.2943 1788.4425 8.9511
980.4924 1802.8065 10.3736
1048.1814 1887.1725 10.3736
1048.0000 1913.0000 0.0000
1014.7190 1514.0000 -39.5140
1026.4380 1309.0000 128.0768
1026.4380 1309.0000 128.0768
1026.4380 1309.0000 128.0768
1046.9040 1910.5175 -7.8938
1010.8716 1520.2035 -39.1617
1023.5661 1333.4625 126.6673
1022.3680 1319.0985 125.2448
1029.8890 1328.4725 125.2448
1044.8928 1886.0000 -14.8353
1006.4007 1544.3280 -38.0860
1018.8734 1373.2400 119.3349
1017.2760 1354.0880 117.4383
1033.2840 1374.0400 117.4383
1042.1235 1844.5925 -20.8529
1001.5630 1581.7445 -36.2581
1012.8868 1424.8675 107.3509
1011.4890 1408.1095 105.6913
1036.5360 1439.3275 105.6913
1038.7533 1791.4400 -25.9755
996.6154 1627.8240 -33.6494
1006.1331 1484.8800 91.9865
1005.3343 1475.3040 91.0381
1039.5583 1517.9600 91.0381
1034.9396 1731.6875 -30.2314
991.8146 1677.9375 -30.2314
999.1389 1549.8125 74.5128
999.1389 1549.8125 74.5128
1042.2639 1603.5625 74.5128
1030.8394 1670.4800 -33.6494
987.4173 1727.4560 -25.9755
992.4312 1616.2000 56.2012
993.2299 1625.7760 57.1496
1044.5659 1689.7600 57.1496
1026.6100 1612.9625 -36.2581
983.6805 1771.7505 -20.8529
986.5367 1680.5775 38.3229
987.9345 1697.3355 39.9825
1046.3775 1770.1775 39.9825
1022.4087 1564.2800 -38.0860
980.8608 1806.1920 -14.8353
981.9821 1739.4800 22.1491
983.5796 1758.6320 24.0458
1047.6116 1838.4400 24.0458
1018.3926 1529.5775 -39.1617
979.2150 1826.1515 -7.8938
979.2943 1789.4425 8.9511
980.4924 1803.8065 10.3736
1048.1814 1888.1725 10.3736
1048.0000 1914.0000 0.0000
1014.7190 1515.0000 -39.5140
1026.5070 1278.0000 129.0743
1026.5070 1278.0000 129.0743
1026.5070 1278.0000 129.0743
1046.9012 1912.8135 -7.9342
1010.8713 1521.3475 -39.1662
1023.6335 1303.2145 127.6414
1022.4354 1288.8505 126.2189
1029.9564 1298.2245 126.2189
1044.8883 1889.0480 -14.8991
1006.3996 1545.8400 -38.1019
1018.9364 1345.0560 120.2447
1017.3389 1325.9040 118.3480
1033.3469 1345.8560 118.3480
1042.1184 1847.9445 -20.9263
1001.5609 1583.7525 -36.2895
1012.9431 1399.7715 108.1644
1011.5453 1383.0135 106.5048
1036.5923 1414.2315 106.5048
1038.7484 1794.7440 -26.0473
996.6121 1630.3600 -33.6973
1006.1811 1463.6080 92.6807
1005.3824 1454.0320 91.7324
1039.6064 1496.6880 91.7324
1034.9352 1734.6875 -30.2938
991.8103 1680.9375 -30.2938
999.1778 1532.8125 75.0739
999.1778 1532.8125 75.0739
1042.3028 1586.5625 75.0739
1030.8361 1673.0160 -33.6973
987.4124 1730.7600 -26.0473
992.4605 1603.6320 56.6242
993.2592 1613.2080 57.5725
1044.5952 1677.1920 57.5725
1026.6079 1614.9705 -36.2895
983.6754 1775.1025 -20.9263
986.5566 1672.3135 38.6117
987.9544 1689.0715 40.2713
1046.3974 1761.9135 40.2713
1022.4076 1565.7920 -38.1019
980.8563 1809.2400 -14.8991
981.9937 1735.1040 22.3167
983.5912 1754.2560 24.2134
1047.6232 1834.0640 24.2134
1018.3923 1530.7215 -39.1662
979.2122 1828.4475 -7.9342
979.2990 1788.2505 9.0194
980.4971 1802.6145 10.4419
1048.1861 1886.9805 10.4419
1048.0000 1915.0000 0.0000
1014.7190 1516.0000 -39.5140
1026.5070 1279.0000 129.0743
1026.5070 1279.0000 129.0743
1026.5070 1279.0000 129.0743
1046.9012 1913.8135 -7.9342
1010.8713 1522.3475 -39.1662
1023.6335 1304.2145 127.6414
1022.4354 1289.8505 126.2189
1029.9564 1299.2245 126.2189
1044.8883 1890.0480 -14.8991
1006.3996 1546.8400 -38.1019
1018.9364 1346.0560 120.2447
1017.3389 1326.9040 118.3480
1033.3469 1346.8560 118.3480
1042.1184 1848.9445 -20.9263
1001.5609 1584.7525 -36.2895
1012.9431 1400.7715 108.1644
1011.5453 1384.0135 106.5048
1036.5923 1415.2315 106.5048
1038.7484 1795.7440 -26.0473
996.6121 1631.3600 -33.6973
1006.1811 1464.6080 92.6807
1005.3824 1455.0320 91.7324
1039.6064 1497.6880 91.7324
1034.9352 1735.6875 -30.2938
991.8103 1681.9375 -30.2938
999.1778 1533.8125 75.0739
999.1778 1533.8125 75.0739
1042.3028 1587.5625 75.0739
1030.8361 1674.0160 -33.6973
987.4124 1731.7600 -26.0473
992.4605 1604.6320 56.6242
993.2592 1614.2080 57.5725
1044.5952 1678.1920 57.5725
1026.6079 1615.9705 -36.2895
983.6754 1776.1025 -20.9263
986.5566 1673.3135 38.6117
987.9544 1690.0715 40.2713
1046.3974 1762.9135 40.2713
1022.4076 1566.7920 -38.1019
980.8563 1810.2400 -14.8991
981.9937 1736.1040 22.3167
983.5912 1755.2560 24.2134
1047.6232 1835.0640 24.2134
1018.3923 1531.7215 -39.1662
979.2122 1829.4475 -7.9342
979.2990 1789.2505 9.0194
980.4971 1803.6145 10.4419
1048.1861 1887.9805 10.4419
1048.0000 1916.0000 0.0000
1014.7190 1517.0000 -39.5140
1026.5070 1280.0000 129.0743
1026.5070 1280.0000 129.0743
1026.5070 1280.0000 129.0743
1046.9012 1914.8135 -7.9342
1010.8713 1523.3475 -39.1662
1023.6335 1305.2145 127.6414
1022.4354 1290.8505 126.2189
1029.9564 1300.2245 126.2189
1044.8883 1891.0480 -14.8991
1006.3996 1547.8400 -38.1019
1018.9364 1347.0560 120.2447
1017.3389 1327.9040 118.3480
1033.3469 1347.8560 118.3480
1042.1184 1849.9445 -20.9263
1001.5609 1585.7525 -36.2895
1012.9431 1401.7715 108.1644
1011.5453 1385.0135 106.5048
1036.5923 1416.2315 106.5048
1038.7484 1796.7440 -26.0473
996.6121 1632.3600 -33.6973
1006.1811 1465.6080 92.6807
1005.3824 1456.0320 91.7324
1039.6064 1498.6880 91.7324
1034.9352 1736.6875 -30.2938
991.8103 1682.9375 -30.2938
999.1778 1534.8125 75.0739
999.1778 1534.8125 75.0739
1042.3028 1588.5625 75.0739
1030.8361 1675.0160 -33.6973
987.4124 1732.7600 -26.0473
992.4605 1605.6320 56.6242
993.2592 1615.2080 57.5725
1044.5952 1679.1920 57.5725
1026.6079 1616.9705 -36.2895
983.6754 1777.1025 -20.9263
986.5566 1674.3135 38.6117
987.9544 1691.0715 40.2713
1046.3974 1763.9135 40.2713
1022.4076 1567.7920 -38.1019
980.8563 1811.2400 -14.8991
981.9937 1737.1040 22.3167
983.5912 1756.2560 24.2134
1047.6232 1836.0640 24.2134
1018.3923 1532.7215 -39.1662
979.2122 1830.4475 -7.9342
979.2990 1790.2505 9.0194
980.4971 1804.6145 10.4419
1048.1861 1888.9805 10.4419
1048.0000 1917.0000 0.0000
1014.7190 1517.0000 -39.5140
1026.5070 1281.0000 129.0743
1026.5070 1281.0000 129.0743
1026.5070 1281.0000 129.0743
1046.9012 1915.7450 -7.9342
1010.8713 1523.3710 -39.1662
1023.6335 1306.2550 127.6414
1022.4354 1291.8550 126.2189
1029.9564 1301.2290 126.2189
1044.8883 1891.8800 -14.8991
1006.3996 1547.9280 -38.1019
1018.9364 1348.1200 120.2447
1017.3389 1328.9200 118.3480
1033.3469 1348.8720 118.3480
1042.1184 1850.6550 -20.9263
1001.5609 1585.9370 -36.2895
1012.9431 1402.8450 108.1644
1011.5453 1386.0450 106.5048
1036.5923 1417.2630 106.5048
1038.7484 1797.3200 -26.0473
996.6121 1632.6640 -33.6973
1006.1811 1466.6800 92.6807
1005.3824 1457.0800 91.7324
1039.6064 1499.7360 91.7324
1034.9352 1737.1250 -30.2938
991.8103 1683.3750 -30.2938
999.1778 1535.8750 75.0739
999.1778 1535.8750 75.0739
1042.3028 1589.6250 75.0739
1030.8361 1675.3200 -33.6973
987.4124 1733.3360 -26.0473
992.4605 1606.6800 56.6242
993.2592 1616.2800 57.5725
1044.5952 1680.2640 57.5725
1026.6079 1617.1550 -36.2895
983.6754 1777.8130 -20.9263
986.5566 1675.3450 38.6117
987.9544 1692.1450 40.2713
1046.3974 1764.9870 40.2713
1022.4076 1567.8800 -38.1019
980.8563 1812.0720 -14.8991
981.9937 1738.1200 22.3167
983.5912 1757.3200 24.2134
1047.6232 1837.1280 24.2134
1018.3923 1532.7450 -39.1662
979.2122 1831.3790 -7.9342
979.2990 1791.2550 9.0194
980.4971 1805.6550 10.4419
1048.1861 1890.0210 10.4419
1048.0000 1918.0000 0.0000
1014.7190 1518.0000 -39.5140
1026.5070 1282.0000 129.0743
1026.5070 1282.0000 129.0743
1026.5070 1282.0000 129.0743
1046.9012 1916.7450 -7.9342
1010.8713 1524.3710 -39.1662
1023.6335 1307.2550 127.6414
1022.4354 1292.8550 126.2189
1029.9564 1302.2290 126.2189
1044.8883 1892.8800 -14.8991
1006.3996 1548.9280 -38.1019
1018.9364 1349.1200 120.2447
1017.3389 1329.9200 118.3480
1033.3469 1349.8720 118.3480
1042.1184 1851.6550 -20.9263
1001.5609 1586.9370 -36.2895
1012.9431 1403.8450 108.1644
1011.5453 1387.0450 106.5048
1036.5923 1418.2630 106.5048
1038.7484 1798.3200 -26.0473
996.6121 1633.6640 -33.6973
1006.1811 1467.6800 92.6807
1005.3824 1458.0800 91.7324
1039.6064 1500.7360 91.7324
1034.9352 1738.1250 -30.2938
991.8103 1684.3750 -30.2938
999.1778 1536.8750 75.0739
999.1778 1536.8750 75.0739
1042.3028 1590.6250 75.0739
1030.8361 1676.3200 -33.6973
987.4124 1734.3360 -26.0473
992.4605 1607.6800 56.6242
993.2592 1617.2800 57.5725
1044.5952 1681.2640 57.5725
1026.6079 1618.1550 -36.2895
983.6754 1778.8130 -20.9263
986.5566 1676.3450 38.6117
987.9544 1693.1450 40.2713
1046.3974 1765.9870 40.2713
1022.4076 1568.8800 -38.1019
980.8563 1813.0720 -14.8991
981.9937 1739.1200 22.3167
983.5912 1758.3200 24.2134
1047.6232 1838.1280 24.2134
1018.3923 1533.7450 -39.1662
979.2122 1832.3790 -7.9342
979.2990 1792.2550 9.0194
980.4971 1806.6550 10.4419
1048.1861 1891.0210 10.4419
1048.0000 1919.0000 0.0000
1014.7190 1797.0000 -39.5140
1026.5070 1283.0000 129.0743
1026.5070 1283.0000 129.0743
1026.5070 1283.0000 129.0743
1046.9012 1936.7880 -7.9342
1010.8713 1796.8380 -39.1662
1023.6335 1296.9960 127.6414
1022.4354 1292.6040 126.2189
1029.9564 1301.9780 126.2189
1044.8883 1940.5840 -14.8991
1006.3996 1803.4640 -38.1019
1018.9364 1332.3280 120.2447
1017.3389 1326.4720 118.3480
1033.3469 1346.4240 118.3480
1042.1184 1933.1360 -20.9263
1001.5609 1814.6460 -36.2895
1012.9431 1384.4120 108.1644
1011.5453 1379.2880 106.5048
1036.5923 1410.5060 106.5048
1038.7484 1917.1920 -26.0473
996.6121 1828.1520 -33.6973
1006.1811 1448.6640 92.6807
1005.3824 1445.7360 91.7324
1039.6064 1488.3920 91.7324
1034.9352 1895.5000 -30.2938
991.8103 1841.7500 -30.2938
999.1778 1520.5000 75.0739
999.1778 1520.5000 75.0739
1042.3028 1574.2500 75.0739
1030.8361 1870.8080 -33.6973
987.4124 1853.2080 -26.0473
992.4605 1595.3360 56.6242
993.2592 1598.2640 57.5725
1044.5952 1662.2480 57.5725
1026.6079 1845.8640 -36.2895
983.6754 1860.2940 -20.9263
986.5566 1668.5880 38.6117
987.9544 1673.7120 40.2713
1046.3974 1746.5540 40.2713
1022.4076 1823.4160 -38.1019
980.8563 1860.7760 -14.8991
981.9937 1735.6720 22.3167
983.5912 1741.5280 24.2134
1047.6232 1821.3360 24.2134
1018.3923 1806.2120 -39.1662
979.2122 1852.4220 -7.9342
979.2990 1792.0040 9.0194
980.4971 1796.3960 10.4419
1048.1861 1880.7620 10.4419
1048.0000 1920.0000 0.0000
1014.7190 1798.0000 -39.5140
1026.5070 1284.0000 129.0743
1026.5070 1284.0000 129.0743
1026.5070 1284.0000 129.0743
1046.9012 1937.7880 -7.9342
1010.8713 1797.8380 -39.1662
1023.6335 1297.9960 127.6414
1022.4354 1293.6040 126.2189
1029.9564 1302.9780 126.2189
1044.8883 1941.5840 -14.8991
1006.3996 1804.4640 -38.1019
1018.9364 1333.3280 120.2447
1017.3389 1327.4720 118.3480
1033.3469 1347.4240 118.3480
1042.1184 1934.1360 -20.9263
1001.5609 1815.6460 -36.2895
1012.9431 1385.4120 108.1644
1011.5453 1380.2880 106.5048
1036.5923 1411.5060 106.5048
1038.7484 1918.1920 -26.0473
996.6121 1829.1520 -33.6973
1006.1811 1449.6640 92.6807
1005.3824 1446.7360 91.7324
1039.6064 1489.3920 91.7324
1034.9352 1896.5000 -30.2938
991.8103 1842.7500 -30.2938
999.1778 1521.5000 75.0739
999.1778 1521.5000 75.0739
1042.3028 1575.2500 75.0739
1030.8361 1871.8080 -33.6973
987.4124 1854.2080 -26.0473
992.4605 1596.3360 56.6242
993.2592 1599.2640 57.5725
1044.5952 1663.2480 57.5725
1026.6079 1846.8640 -36.2895
983.6754 1861.2940 -20.9263
986.5566 1669.5880 38.6117
987.9544 1674.7120 40.2713
1046.3974 1747.5540 40.2713
1022.4076 1824.4160 -38.1019
980.8563 1861.7760 -14.8991
981.9937 1736.6720 22.3167
983.5912 1742.5280 24.2134
1047.6232 1822.3360 24.2134
1018.3923 1807.2120 -39.1662
979.2122 1853.4220 -7.9342
979.2990 1793.0040 9.0194
980.4971 1797.3960 10.4419
1048.1861 1881.7620 10.4419
1048.0000 1921.0000 0.0000
1014.7190 1799.0000 -39.5140
1026.5070 1285.0000 129.0743
1026.5070 1285.0000 129.0743
1026.5070 1285.0000 129.0743
1046.9012 1938.7880 -7.9342
1010.8713 1798.8380 -39.1662
1023.6335 1298.9960 127.6414
1022.4354 1294.6040 126.2189
1029.9564 1303.9780 126.2189
1044.8883 1942.5840 -14.8991
1006.3996 1805.4640 -38.1019
1018.9364 1334.3280 120.2447
1017.3389 1328.4720 118.3480
1033.3469 1348.4240 118.3480
1042.1184 1935.1360 -20.9263
1001.5609 1816.6460 -36.2895
1012.9431 1386.4120 108.1644
1011.5453 1381.2880 106.5048
1036.5923 1412.5060 106.5048
1038.7484 1919.1920 -26.0473
996.6121 1830.1520 -33.6973
1006.1811 1450.6640 92.6807
1005.3824 1447.7360 91.7324
1039.6064 1490.3920 91.7324
1034.9352 1897.5000 -30.2938
991.8103 1843.7500 -30.2938
999.1778 1522.5000 75.0739
999.1778 1522.5000 75.0739
1042.3028 1576.2500 75.0739
1030.8361 1872.8080 -33.6973
987.4124 1855.2080 -26.0473
992.4605 1597.3360 56.6242
993.2592 1600.2640 57.5725
1044.5952 1664.2480 57.5725
1026.6079 1847.8640 -36.2895
983.6754 1862.2940 -20.9263
986.5566 1670.5880 38.6117
987.9544 1675.7120 40.2713
1046.3974 1748.5540 40.2713
1022.4076 1825.4160 -38.1019
980.8563 1862.7760 -14.8991
981.9937 1737.6720 22.3167
983.5912 1743.5280 24.2134
1047.6232 1823.3360 24.2134
1018.3923 1808.2120 -39.1662
979.2122 1854.4220 -7.9342
979.2990 1794.0040 9.0194
980.4971 1798.3960 10.4419
1048.1861 1882.7620 10.4419
1049.0000 1647.0000 0.0000
1014.7190 1800.0000 -39.5140
1026.5070 1286.0000 129.0743
1026.5070 1286.0000 129.0743
1026.5070 1286.0000 129.0743
1047.8777 1671.2505 -7.9342
1010.8308 1810.9755 -39.1662
1023.6290 1301.2335 127.6414
1022.3949 1306.7415 126.2189
1030.0249 1286.1405 126.2189
1045.8003 1692.7840 -14.8991
1006.3356 1824.0640 -38.1019
1018.9204 1339.7280 120.2447
1017.2749 1347.0720 118.3480
1033.5149 1303.2240 118.3480
1042.9339 1711.8735 -20.9263
1001.4874 1837.8585 -36.2895
1012.9116 1396.0745 108.1644
1011.4718 1402.5005 106.5048
1036.8818 1333.8935 106.5048
1039.4444 1728.7920 -26.0473
996.5401 1850.9520 -33.6973
1006.1331 1464.8640 92.6807
1005.3104 1468.5360 91.7324
1040.0304 1374.7920 91.7324
1035.4977 1743.8125 -30.2938
991.7478 1861.9375 -30.2938
999.1153 1540.6875 75.0739
999.1153 1540.6875 75.0739
1042.8653 1422.5625 75.0739
1031.2601 1757.2080 -33.6973
987.3644 1869.4080 -26.0473
992.3885 1618.1360 56.6242
993.2112 1614.4640 57.5725
1045.2912 1473.8480 57.5725
1026.8974 1769.2515 -36.2895
983.6439 1871.9565 -20.9263
986.4831 1691.8005 38.6117
987.9229 1685.3745 40.2713
1047.2129 1525.2915 40.2713
1022.5756 1780.2160 -38.1019
980.8403 1868.1760 -14.8991
981.9297 1756.2720 22.3167
983.5752 1748.9280 24.2134
1048.5352 1573.5360 24.2134
1018.4608 1790.3745 -39.1662
979.2077 1856.6595 -7.9342
979.2585 1806.1415 9.0194
980.4926 1800.6335 10.4419
1049.1626 1615.2245 10.4419
1049.0000 1648.0000 0.0000
1014.7190 1801.0000 -39.5140
1026.5070 1287.0000 129.0743
1026.5070 1287.0000 129.0743
1026.5070 1287.0000 129.0743
1047.8777 1672.2505 -7.9342
1010.8308 1811.9755 -39.1662
1023.6290 1302.2335 127.6414
1022.3949 1307.7415 126.2189
1030.0249 1287.1405 126.2189
1045.8003 1693.7840 -14.8991
1006.3356 1825.0640 -38.1019
1018.9204 1340.7280 120.2447
1017.2749 1348.0720 118.3480
1033.5149 1304.2240 118.3480
1042.9339 1712.8735 -20.9263
1001.4874 1838.8585 -36.2895
1012.9116 1397.0745 108.1644
1011.4718 1403.5005 106.5048
1036.8818 1334.8935 106.5048
1039.4444 1729.7920 -26.0473
996.5401 1851.9520 -33.6973
1006.1331 1465.8640 92.6807
1005.3104 1469.5360 91.7324
1040.0304 1375.7920 91.7324
1035.4977 1744.8125 -30.2938
991.7478 1862.9375 -30.2938
999.1153 1541.6875 75.0739
999.1153 1541.6875 75.0739
1042.8653 1423.5625 75.0739
1031.2601 1758.2080 -33.6973
987.3644 1870.4080 -26.0473
992.3885 1619.1360 56.6242
993.2112 1615.4640 57.5725
1045.2912 1474.8480 57.5725
1026.8974 1770.2515 -36.2895
983.6439 1872.9565 -20.9263
986.4831 1692.8005 38.6117
987.9229 1686.3745 40.2713
1047.2129 1526.2915 40.2713
1022.5756 1781.2160 -38.1019
980.8403 1869.1760 -14.8991
981.9297 1757.2720 22.3167
983.5752 1749.9280 24.2134
1048.5352 1574.5360 24.2134
1018.4608 1791.3745 -39.1662
979.2077 1857.6595 -7.9342
979.2585 1807.1415 9.0194
980.4926 1801.6335 10.4419
1049.1626 1616.2245 10.4419
1049.0000 1649.0000 0.0000
1014.7190 1802.0000 -39.5140
1026.5070 1288.0000 129.0743
1026.5070 1288.0000 129.0743
1026.5070 1288.0000 129.0743
1047.8732 1673.3045 -7.9342
1010.8993 1812.1535 -39.1662
1023.6975 1302.4115 127.6414
1022.4634 1307.9195 126.2189
1029.9844 1288.6265 126.2189
1045.7843 1694.9760 -14.8991
1006.5036 1824.0480 -38.1019
1019.0884 1339.7120 120.2447
1017.4429 1347.0560 118.3480
1033.4509 1305.9920 118.3480
1042.9024 1714.2515 -20.9263
1001.7769 1836.3845 -36.2895
1013.2011 1394.6005 108.1644
1011.7613 1401.0265 106.5048
1036.8083 1336.7755 106.5048
1039.3964 1731.3680 -26.0473
996.9641 1847.8640 -33.6973
1006.5571 1461.7760 92.6807
1005.7344 1465.4480 91.7324
1039.9584 1377.6560 91.7324
1035.4352 1746.5625 -30.2938
992.3103 1857.1875 -30.2938
999.6778 1535.9375 75.0739
999.6778 1535.9375 75.0739
1042.8028 1425.3125 75.0739
1031.1881 1760.0720 -33.6973
988.0604 1863.0560 -26.0473
993.0845 1611.7840 56.6242
993.9072 1608.1120 57.5725
1045.2432 1476.4240 57.5725
1026.8239 1772.1335 -36.2895
984.4594 1864.1705 -20.9263
987.2986 1684.0145 38.6117
988.7384 1677.5885 40.2713
1047.1814 1527.6695 40.2713
1022.5116 1782.9840 -38.1019
981.7523 1859.2320 -14.8991
982.8417 1747.3280 22.3167
984.4872 1739.9840 24.2134
1048.5192 1575.7280 24.2134
1018.4203 1792.8605 -39.1662
980.1842 1846.9415 -7.9342
980.2350 1796.4235 9.0194
981.4691 1790.9155 10.4419
1049.1581 1617.2785 10.4419
1049.0000 1649.0000 0.0000
1014.7190 1802.0000 -39.5140
1026.5070 1289.0000 129.0743
1026.5070 1289.0000 129.0743
1026.5070 1289.0000 129.0743
1047.8732 1673.2640 -7.9342
1010.8993 1812.1490 -39.1662
1023.6975 1303.3880 127.6414
1022.4634 1308.8960 126.2189
1029.9844 1289.6030 126.2189
1045.7843 1694.9120 -14.8991
1006.5036 1824.0320 -38.1019
1019.0884 1340.6240 120.2447
1017.4429 1347.9680 118.3480
1033.4509 1306.9040 118.3480
1042.9024 1714.1780 -20.9263
1001.7769 1836.3530 -36.2895
1013.2011 1395.4160 108.1644
1011.7613 1401.8420 106.5048
1036.8083 1337.5910 106.5048
1039.3964 1731.2960 -26.0473
996.9641 1847.8160 -33.6973
1006.5571 1462.4720 92.6807
1005.7344 1466.1440 91.7324
1039.9584 1378.3520 91.7324
1035.4352 1746.5000 -30.2938
992.3103 1857.1250 -30.2938
999.6778 1536.5000 75.0739
999.6778 1536.5000 75.0739
1042.8028 1425.8750 75.0739
1031.1881 1760.0240 -33.6973
988.0604 1862.9840 -26.0473
993.0845 1612.2080 56.6242
993.9072 1608.5360 57.5725
1045.2432 1476.8480 57.5725
1026.8239 1772.1020 -36.2895
984.4594 1864.0970 -20.9263
987.2986 1684.3040 38.6117
988.7384 1677.8780 40.2713
1047.1814 1527.9590 40.2713
1022.5116 1782.9680 -38.1019
981.7523 1859.1680 -14.8991
982.8417 1747.4960 22.3167
984.4872 1740.1520 24.2134
1048.5192 1575.8960 24.2134
1018.4203 1792.8560 -39.1662
980.1842 1846.9010 -7.9342
980.2350 1796.4920 9.0194
981.4691 1790.9840 10.4419
1049.1581 1617.3470 10.4419
1049.0000 1650.0000 0.0000
1014.7190 1803.0000 -39.5140
1026.5070 1290.0000 129.0743
1026.5070 1290.0000 129.0743
1026.5070 1290.0000 129.0743
1047.8732 1674.2640 -7.9342
1010.8993 1813.1490 -39.1662
1023.6975 1304.3880 127.6414
1022.4634 1309.8960 126.2189
1029.9844 1290.6030 126.2189
1045.7843 1695.9120 -14.8991
1006.5036 1825.0320 -38.1019
1019.0884 1341.6240 120.2447
1017.4429 1348.9680 118.3480
1033.4509 1307.9040 118.3480
1042.9024 1715.1780 -20.9263
1001.7769 1837.3530 -36.2895
1013.2011 1396.4160 108.1644
1011.7613 1402.8420 106.5048
1036.8083 1338.5910 106.5048
1039.3964 1732.2960 -26.0473
996.9641 1848.8160 -33.6973
1006.5571 1463.4720 92.6807
1005.7344 1467.1440 91.7324
1039.9584 1379.3520 91.7324
1035.4352 1747.5000 -30.2938
992.3103 1858.1250 -30.2938
999.6778 1537.5000 75.0739
999.6778 1537.5000 75.0739
1042.8028 1426.8750 75.0739
1031.1881 1761.0240 -33.6973
988.0604 1863.9840 -26.0473
993.0845 1613.2080 56.6242
993.9072 1609.5360 57.5725
1045.2432 1477.8480 57.5725
