ply
format ascii 1.0
element vertex 600
property float x
property float y
property float z
element face 0
property list uchar int vertex_index
end_header
446.0000 359.0000 0.0000
395.0000 380.0000 -38.0000
395.0000 374.0000 56.0000
395.0000 374.0000 56.0000
395.0000 374.0000 56.0000
445.0580 360.1640 -4.7090
389.1920 380.1615 -37.3590
390.8660 373.6410 55.9395
389.1920 374.2755 54.8550
400.5590 373.4315 54.8550
442.4240 362.0320 -9.7120
382.4160 379.4720 -35.5520
384.6080 373.0880 53.0560
382.4160 373.9040 51.6800
406.8320 372.1520 51.6800
438.3860 364.4180 -14.8230
375.0440 378.1205 -32.7530
376.8920 372.3770 47.9465
375.0440 373.0385 46.8650
413.5130 370.3505 46.8650
433.2320 367.1360 -19.8560
367.4480 376.2960 -29.1360
368.3840 371.5440 41.2080
367.4480 371.8320 40.8000
420.2960 368.2160 40.8000
427.2500 370.0000 -24.6250
360.0000 374.1875 -24.8750
359.7500 370.6250 33.4375
360.0000 370.4375 33.8750
426.8750 365.9375 33.8750
420.7280 372.8240 -28.9440
353.0720 371.9840 -20.1440
351.6560 369.6560 25.2320
353.0720 369.0080 26.4800
432.9440 363.7040 26.4800
413.9540 375.4220 -32.6270
347.0360 369.8745 -15.1170
344.7680 368.6730 17.1885
347.0360 367.6965 19.0050
438.1970 361.7045 19.0050
407.2160 377.6080 -35.4880
342.2640 368.0480 -9.9680
339.7520 367.7120 9.9040
342.2640 366.6560 11.8400
442.3280 360.1280 11.8400
400.8020 379.1960 -37.3410
339.1280 366.6935 -4.8710
337.2740 366.8090 3.9755
339.1280 366.0395 5.3750
445.0310 359.1635 5.3750
452.0000 366.0000 0.0000
395.0000 388.0000 -43.0000
395.0000 383.0000 58.0000
395.0000 383.0000 58.0000
395.0000 383.0000 58.0000
450.9260 367.1560 -5.2135
388.8930 388.1010 -42.2505
390.7020 382.4445 58.1760
388.8930 383.1960 56.8305
401.2130 382.5015 56.8305
447.9280 369.0880 -10.8080
381.8240 387.2480 -40.1440
384.1760 381.6160 55.3280
381.8240 382.6080 53.5840
408.2240 381.1520 53.5840
443.3420 371.5920 -16.5645
374.1710 385.6570 -36.8935
376.1240 380.5715 50.0920
374.1710 381.4220 48.6535
415.6910 379.1705 48.6535
437.5040 374.4640 -22.2640
366.3120 383.5440 -32.7120
367.2480 379.3680 43.1040
366.3120 379.8240 42.4320
423.2720 376.7760 42.4320
430.7500 377.5000 -27.6875
358.6250 381.1250 -27.8125
358.2500 378.0625 35.0000
358.6250 378.0000 35.3125
430.6250 374.1875 35.3125
423.4160 380.4960 -32.6160
351.4880 378.6160 -22.4080
349.8320 376.7120 26.4160
351.4880 376.1360 27.6880
437.4080 371.6240 27.6880
415.8380 383.2480 -36.8305
345.2790 376.2330 -16.7115
342.6960 375.3735 17.9880
345.2790 374.4180 19.9515
443.2790 369.3045 19.9515
408.3520 385.5520 -40.1120
340.3760 374.1920 -10.9360
337.5440 374.1040 10.3520
340.3760 373.0320 12.4960
447.8960 367.4480 12.4960
401.2940 387.2040 -42.2415
337.1570 372.7090 -5.2945
335.0780 372.9605 4.1440
337.1570 372.1640 5.7145
450.9170 366.2735 5.7145
455.0000 373.0000 0.0000
395.0000 397.0000 -49.0000
395.0000 393.0000 60.0000
395.0000 393.0000 60.0000
395.0000 393.0000 60.0000
453.8735 374.2030 -5.7055
388.3760 397.1775 -48.1185
390.4145 392.4705 60.3315
388.3760 393.2535 58.8105
401.4995 392.4625 58.8105
450.7280 376.2640 -11.9440
380.7680 396.3600 -45.6480
383.4560 391.6240 57.4720
380.7680 392.6480 55.5040
408.8560 390.9200 55.5040
445.9145 378.9610 -18.4485
372.5720 394.7725 -41.8495
374.8715 390.5235 52.0905
372.5720 391.3845 50.4735
416.7065 388.6275 50.4735
439.7840 382.0720 -24.9520
364.1840 392.6400 -36.9840
365.4080 389.2320 44.8560
364.1840 389.6640 44.1120
424.6880 385.8400 44.1120
432.6875 385.3750 -31.1875
356.0000 390.1875 -31.3125
355.8125 387.8125 36.4375
356.0000 387.6875 36.8125
432.4375 382.8125 36.8125
424.9760 388.6480 -36.8880
348.4160 387.6400 -25.0960
346.8320 386.3280 27.5040
348.4160 385.6560 28.9680
439.5920 379.8000 28.9680
417.0005 391.6690 -41.7865
341.8280 385.2225 -18.5955
339.2135 384.8415 18.7245
341.8280 383.7705 20.9715
445.7885 377.0575 20.9715
409.1120 394.2160 -45.6160
336.6320 383.1600 -12.0720
333.7040 383.4160 10.7680
336.6320 382.2320 13.2160
450.6640 374.8400 13.2160
401.6615 396.0670 -48.1095
333.2240 381.6775 -5.7865
331.0505 382.1145 4.3035
333.2240 381.2415 6.0945
453.8555 373.4025 6.0945
458.0000 383.0000 0.0000
395.0000 404.0000 -53.0000
395.0000 405.0000 57.0000
395.0000 405.0000 57.0000
395.0000 405.0000 57.0000
456.8165 384.0065 -6.0605
388.0490 404.2235 -52.0110
390.1955 404.3270 57.6450
388.0490 405.2045 55.8990
401.8670 404.4695 55.8990
453.5120 385.7920 -12.7440
380.0720 403.4480 -49.2480
382.9040 403.1760 55.1200
380.0720 404.3760 52.8320
409.6160 402.8560 52.8320
448.4555 388.1555 -19.7535
371.4830 401.9045 -45.0170
373.9085 401.6490 50.0850
371.4830 402.7515 48.1530
417.8690 400.4265 48.1530
442.0160 390.8960 -26.7920
362.6960 399.8240 -39.6240
363.9920 399.8480 43.2000
362.6960 400.5680 42.2160
426.2480 397.4480 42.2160
434.5625 393.8125 -33.5625
354.1250 397.4375 -33.3750
353.9375 397.8750 35.1250
354.1250 398.0625 35.3750
434.3750 394.1875 35.3750
426.4640 396.7040 -39.7680
346.1840 394.9760 -26.5760
344.5280 395.8320 26.5200
346.1840 395.4720 27.9840
441.8720 390.9120 27.9840
418.0895 399.3695 -45.1115
339.2870 392.6705 -19.5330
336.5465 393.8210 18.0450
339.2870 393.0335 20.3970
448.3610 387.8885 20.3970
409.8080 401.6080 -49.2960
333.8480 390.7520 -12.5520
330.7760 391.9440 10.3600
333.8480 390.9840 12.9680
453.4640 385.3840 12.9680
401.9885 403.2185 -52.0245
330.2810 389.4515 -5.9390
327.9995 390.3030 4.1250
330.2810 389.5605 6.0510
456.8030 383.6655 6.0510
461.0000 392.0000 0.0000
395.0000 414.0000 -55.0000
395.0000 414.0000 54.0000
395.0000 414.0000 54.0000
395.0000 414.0000 54.0000
459.7505 392.9355 -6.0760
387.8590 414.4335 -53.9505
390.1135 413.6820 54.8775
387.8590 414.4335 52.9785
402.1940 413.5055 52.9785
456.2640 394.7040 -12.8880
379.7120 413.9680 -51.0240
382.6880 412.9760 52.6400
379.7120 413.9680 50.1280
410.3120 411.9040 50.1280
450.9335 397.0985 -20.1120
370.9730 412.8045 -46.5535
373.5245 411.9540 47.9325
370.9730 412.8045 45.7695
418.9580 409.4685 45.7695
444.1520 399.9120 -27.4240
362.0560 411.1440 -40.8720
363.4240 410.6880 41.4000
362.0560 411.1440 40.2240
427.7360 406.4720 40.2240
436.3125 402.9375 -34.5000
353.3750 409.1875 -34.3125
353.1875 409.2500 33.6875
353.3750 409.1875 33.8125
436.2500 403.1875 33.8125
427.8080 405.9680 -41.0160
345.3440 407.1360 -27.2080
343.6160 407.7120 25.4400
345.3440 407.1360 26.8560
444.1040 399.8880 26.8560
419.0315 408.7965 -46.6480
338.3770 405.1905 -19.8915
335.5105 406.1460 17.3025
338.3770 405.1905 19.6755
450.9020 396.8465 19.6755
410.3760 411.2160 -51.0720
332.8880 403.5520 -12.6960
329.6720 404.6240 9.9200
332.8880 403.5520 12.5920
456.2480 394.3360 12.5920
402.2345 413.0195 -53.9640
329.2910 402.4215 -5.9545
326.9015 403.2180 3.9375
329.2910 402.4215 5.9265
459.7460 392.6295 5.9265
462.0000 401.0000 0.0000
395.0000 424.0000 -55.0000
395.0000 419.0000 49.0000
395.0000 419.0000 49.0000
395.0000 419.0000 49.0000
460.7270 402.0085 -5.9545
387.7375 424.3595 -53.9280
390.1090 418.6670 50.0760
387.7375 419.4545 48.0960
402.3030 418.4330 48.0960
457.1760 403.8880 -12.6960
379.5200 423.7760 -50.9440
382.6720 418.0960 48.2080
379.5200 419.1360 45.5680
410.5440 416.9840 45.5680
451.7490 406.4195 -19.8915
370.7525 422.4565 -46.3960
373.4930 417.3290 44.0020
370.7525 418.2215 41.6920
419.3210 414.8810 41.6920
444.8480 409.3840 -27.2080
361.8400 420.6080 -40.6320
363.3760 416.4080 38.0640
361.8400 416.8880 36.7440
428.2320 412.3520 36.7440
436.8750 412.5625 -34.3125
353.1875 418.4375 -34.0000
353.1250 415.3750 31.0000
353.1875 415.3125 31.0000
436.8750 409.6250 31.0000
428.2320 415.7360 -40.8720
345.2000 416.1520 -26.8480
343.5440 414.2720 23.4160
345.2000 413.6720 24.7360
444.8480 406.9280 24.7360
419.3210 418.6855 -46.5535
338.2825 413.9585 -19.5240
335.4370 413.1410 15.9180
338.2825 412.1435 18.2280
451.7490 404.4890 18.2280
410.5440 421.1920 -51.0240
332.8400 412.0640 -12.3760
329.6080 412.0240 9.1120
332.8400 410.9040 11.7520
457.1760 402.5360 11.7520
402.3030 423.0365 -53.9505
329.2775 410.6755 -5.7520
326.8610 410.9630 3.6040
329.2775 410.1305 5.5840
460.7270 401.2970 5.5840
462.0000 409.0000 0.0000
395.0000 437.0000 -53.0000
395.0000 427.0000 46.0000
395.0000 427.0000 46.0000
395.0000 427.0000 46.0000
460.7270 410.4725 -5.6150
387.6970 437.2015 -51.9615
390.1090 426.5860 47.1465
387.6970 427.3915 45.1575
402.3030 426.4105 45.1575
457.1760 412.9200 -12.0400
379.4560 436.2720 -49.0720
382.6720 425.9680 45.4720
379.4560 426.9920 42.8000
410.5440 424.9040 42.8000
451.7490 416.0875 -18.9450
370.6790 434.4605 -44.6705
373.4930 425.1820 41.5555
370.6790 425.9905 39.1825
419.3210 422.7235 39.1825
444.8480 419.7200 -26.0000
361.7680 432.0160 -39.0960
363.3760 424.2640 35.9760
361.7680 424.5760 34.5600
428.2320 420.1120 34.5600
436.8750 423.5625 -32.8750
353.1250 429.1875 -32.6875
353.1250 423.2500 29.3125
353.1250 422.9375 29.1875
436.8750 417.3125 29.1875
428.2320 427.3600 -39.2400
345.1520 426.2240 -25.7840
343.5440 422.1760 22.1440
345.1520 421.2640 23.3200
444.8480 414.5680 23.3200
419.3210 430.8575 -44.7650
338.2510 423.3745 -18.7245
335.4370 421.0780 15.0495
338.2510 419.7445 17.2125
451.7490 412.1215 17.2125
410.5440 433.8000 -49.1200
332.8240 420.8880 -11.8480
329.6080 419.9920 8.6080
332.8240 418.5680 11.1200
457.1760 410.2160 11.1200
402.3030 435.9325 -51.9750
329.2730 419.0135 -5.4935
326.8610 418.9540 3.3985
329.2730 417.9235 5.2975
460.7270 409.0945 5.2975
462.0000 419.0000 0.0000
395.0000 446.0000 -49.0000
395.0000 434.0000 46.0000
395.0000 434.0000 46.0000
395.0000 434.0000 46.0000
460.7270 420.4895 -5.2195
387.6970 446.2510 -48.0555
390.1090 433.4665 47.0655
387.6970 434.4790 45.1395
402.3030 433.5665 45.1395
457.1760 422.8960 -11.1760
379.4560 445.3680 -45.4240
382.6720 432.8720 45.3440
379.4560 434.2320 42.7360
410.5440 432.3120 42.7360
451.7490 425.9765 -17.5665
370.6790 443.5970 -41.4085
373.4930 432.2255 41.4085
370.6790 433.4330 39.0565
419.3210 430.4555 39.0565
444.8480 429.4880 -24.0880
361.7680 441.1840 -36.3120
363.3760 431.5360 35.8320
361.7680 432.2560 34.3680
428.2320 428.2160 34.3680
436.8750 433.1875 -30.4375
353.1250 438.3750 -30.4375
353.1250 430.8125 29.1875
353.1250 430.8750 28.9375
436.8750 425.8125 28.9375
428.2320 436.8320 -36.3120
345.1520 435.4160 -24.0880
343.5440 430.0640 22.0480
345.1520 429.4640 23.0320
444.8480 423.4640 23.0320
419.3210 440.1785 -41.4085
338.2510 432.5530 -17.5665
335.4370 429.2995 14.9865
338.2510 428.1970 16.9185
451.7490 421.3895 16.9185
410.5440 442.9840 -45.4240
332.8240 430.0320 -11.1760
329.6080 428.5280 8.5760
332.8240 427.2480 10.8640
457.1760 419.8080 10.8640
402.3030 445.0055 -48.0555
329.2730 428.0990 -5.2195
326.8610 427.7585 3.3895
329.2730 426.7910 5.1355
460.7270 418.9385 5.1355
465.0000 428.0000 0.0000
395.0000 455.0000 -44.0000
395.0000 438.0000 44.0000
395.0000 438.0000 44.0000
395.0000 438.0000 44.0000
463.6565 429.5795 -4.8770
387.6970 455.0960 -43.1640
390.0955 437.4470 44.9505
387.6970 438.4190 43.1640
402.5085 437.6840 43.1640
459.9120 432.0560 -10.3360
379.4560 454.0480 -40.8320
382.6240 436.9760 43.2640
379.4560 438.2720 40.8320
411.0480 436.7520 40.8320
454.1955 435.1865 -16.1190
370.6790 452.1020 -37.2680
373.3985 436.5690 39.4835
370.6790 437.7030 37.2680
420.1895 435.3780 37.2680
446.9360 438.7280 -21.9680
361.7680 449.5040 -32.7360
363.2320 436.2080 34.1520
361.7680 436.8560 32.7360
429.5040 433.7360 32.7360
438.5625 442.4375 -27.6250
353.1250 446.5000 -27.5000
352.9375 435.8750 27.8125
353.1250 435.8750 27.5000
438.5625 432.0000 27.5000
429.5040 446.0720 -32.8320
345.1520 443.3360 -21.8240
343.3280 435.5520 21.0080
345.1520 434.9040 21.8240
446.9360 430.3440 21.8240
420.1895 449.3885 -37.3310
338.2510 440.2580 -15.9720
335.2165 435.2210 14.2815
338.2510 434.0870 15.9720
454.1955 428.9420 15.9720
411.0480 452.1440 -40.8640
332.8240 437.5120 -10.2080
329.4160 434.8640 8.1760
332.8240 433.5680 10.2080
459.9120 427.9680 10.2080
402.5085 454.0955 -43.1730
329.2730 435.3440 -4.7960
326.7395 434.4630 3.2345
329.2730 433.4910 4.7960
463.6565 427.5960 4.7960
463.0000 437.0000 0.0000
395.0000 459.0000 -40.0000
395.0000 442.0000 40.0000
395.0000 442.0000 40.0000
395.0000 442.0000 40.0000
461.7080 438.4305 -4.5220
387.5070 459.3730 -39.2400
390.0360 441.7015 40.8420
387.5070 442.6960 39.2400
402.3715 441.9050 39.2400
458.1040 440.5040 -9.5360
379.0960 458.9040 -37.1200
382.4880 441.7520 39.2960
379.0960 443.1280 37.1200
410.7120 441.4000 37.1200
452.5960 443.0435 -14.8140
370.1690 457.7610 -33.8800
373.1720 442.0705 35.8540
370.1690 443.3620 33.8800
419.6105 440.6050 33.8800
445.5920 445.8720 -20.1280
361.1280 456.1120 -29.7600
362.9040 442.5760 31.0080
361.1280 443.4640 29.7600
428.6560 439.6400 29.7600
437.5000 448.8125 -25.2500
352.3750 454.1250 -25.0000
352.5000 443.1875 25.2500
352.3750 443.5000 25.0000
437.4375 438.6250 25.0000
428.7280 451.6880 -29.9520
344.3120 451.9680 -19.8400
342.7760 443.8240 19.0720
344.3120 443.5360 19.8400
445.5440 437.6800 19.8400
419.6840 454.3215 -34.0060
337.3410 449.8090 -14.5200
334.5480 444.4045 12.9660
337.3410 443.6380 14.5200
452.5645 436.9250 14.5200
410.7760 456.5360 -37.1840
331.8640 447.8160 -9.2800
328.6320 444.8480 7.4240
331.8640 443.8720 9.2800
458.0880 436.4800 9.2800
402.4120 458.1545 -39.2580
328.2830 446.1570 -4.3600
325.8440 445.0735 2.9380
328.2830 444.3040 4.3600
461.7035 436.4650 4.3600
463.0000 441.0000 0.0000
395.0000 465.0000 -29.0000
395.0000 451.0000 41.0000
395.0000 451.0000 41.0000
395.0000 451.0000 41.0000
461.7035 442.5585 -3.6065
387.6565 465.2380 -28.5030
390.1045 450.7210 41.6565
387.6565 451.5040 40.1670
402.4120 450.4950 40.1670
458.0880 444.8080 -7.4320
379.3920 464.6640 -27.1040
382.6560 450.6480 39.9520
379.3920 451.6720 37.8560
410.7760 449.4800 37.8560
452.5645 447.5595 -11.3355
370.6055 463.4460 -24.9410
373.4615 450.7270 36.3755
370.6055 451.5880 34.3490
419.6840 448.1050 34.3490
445.5440 450.6240 -15.1760
361.6960 461.7520 -22.1520
363.3280 450.9040 31.4160
361.6960 451.3360 29.9280
428.7280 446.5200 29.9280
437.4375 453.8125 -18.8125
353.0625 459.7500 -18.8750
353.0625 451.1250 25.5625
353.0625 451.0000 24.8750
437.5000 444.8750 24.8750
428.6560 456.9360 -22.1040
345.1040 457.6080 -15.2480
343.4720 451.3360 19.3040
345.1040 450.6640 19.4720
445.5920 443.3200 19.4720
419.6105 459.8055 -24.9095
338.2195 455.4940 -11.4090
335.3635 451.4830 13.1295
338.2195 450.4120 14.0010
452.5960 442.0050 14.0010
410.7120 462.2320 -27.0880
332.8080 453.5760 -7.4960
329.5440 451.5120 7.5280
332.8080 450.3280 8.7440
458.1040 441.0800 8.7440
402.3715 464.0265 -28.4985
329.2685 452.0220 -3.6470
326.8205 451.3690 2.9885
329.2685 450.4960 3.9830
461.7080 440.6950 3.9830
442.0000 353.0000 0.0000
395.0000 371.0000 -31.0000
395.0000 365.0000 52.0000
395.0000 365.0000 52.0000
395.0000 365.0000 52.0000
441.1250 350.2235 -3.7840
388.7525 367.5755 -30.5055
391.2950 360.7985 51.9525
388.7525 361.6895 50.9175
400.9330 360.6680 50.9175
438.6800 349.6080 -7.8320
382.0800 365.1040 -29.1040
385.6800 358.2880 49.2800
382.0800 359.5360 47.9200
407.1840 357.3840 47.9200
434.9350 350.7245 -11.9880
375.2375 363.4385 -26.9185
378.7550 357.1595 44.5375
375.2375 358.3565 43.3825
413.5310 355.0160 43.3825
430.1600 353.1440 -16.0960
368.4800 362.4320 -24.0720
371.1200 357.1040 38.2800
368.4800 357.9680 37.6800
419.7520 353.4320 37.6800
424.6250 356.4375 -20.0000
362.0625 361.9375 -20.6875
363.3750 357.8125 31.0625
362.0625 358.1875 31.1875
425.6250 352.5000 31.1875
418.6000 360.1760 -23.5440
356.2400 361.8080 -16.8880
356.1200 358.9760 23.4400
356.2400 358.8320 24.2800
430.9280 352.0880 24.2800
412.3550 363.9305 -26.5720
351.2675 361.8965 -12.7965
349.9550 360.2855 15.9675
351.2675 359.7185 17.3325
435.4390 352.0640 17.3325
406.1600 367.2720 -28.9280
347.4000 362.0560 -8.5360
345.4800 361.4320 9.2000
347.4000 360.6640 10.7200
438.9360 352.2960 10.7200
400.2850 369.7715 -30.4560
344.8925 362.1395 -4.2295
343.2950 362.1065 3.6925
344.8925 361.4855 4.8175
441.1970 352.6520 4.8175
