ply
format ascii 1.0
element vertex 500
property float x
property float y
property float z
element face 0
property list uchar int vertex_index
end_header
397.0000 741.0000 0.0000
380.0000 743.0000 -20.0000
380.0000 740.0000 23.0000
380.0000 740.0000 23.0000
380.0000 740.0000 23.0000
396.6140 741.3755 -2.0180
379.1060 743.1880 -19.6335
379.7180 740.2945 23.1480
379.1060 740.2450 22.5495
381.2860 740.1765 22.5495
395.5520 741.7040 -4.3840
378.4080 743.2640 -18.6080
379.2240 740.5760 22.0640
378.4080 740.4800 21.2960
383.0480 740.3120 21.2960
393.9580 741.9885 -6.9660
377.8820 743.2460 -17.0345
378.5960 740.8415 20.0060
377.8820 740.7050 19.3865
385.1420 740.4155 19.3865
391.9760 742.2320 -9.6320
377.5040 743.1520 -15.0240
377.9120 741.0880 17.2320
377.5040 740.9200 16.9680
387.4240 740.4960 16.9680
389.7500 742.4375 -12.2500
377.2500 743.0000 -12.6875
377.2500 741.3125 14.0000
377.2500 741.1250 14.1875
389.7500 740.5625 14.1875
387.4240 742.6080 -14.6880
377.0960 742.8080 -10.1360
376.6880 741.5120 10.5680
377.0960 741.3200 11.1920
391.9760 740.6240 11.1920
385.1420 742.7465 -16.8140
377.0180 742.5940 -7.4805
376.3040 741.6835 7.1940
377.0180 741.5050 8.1285
393.9580 740.6895 8.1285
383.0480 742.8560 -18.4960
376.9920 742.3760 -4.8320
376.1760 741.8240 4.1360
376.9920 741.6800 5.1440
395.5520 740.7680 5.1440
381.2860 742.9395 -19.6020
376.9940 742.1720 -2.3015
376.3820 741.9305 1.6520
376.9940 741.8450 2.3855
396.6140 740.8685 2.3855
396.0000 745.0000 0.0000
380.0000 749.0000 -23.0000
380.0000 744.0000 32.0000
380.0000 744.0000 32.0000
380.0000 744.0000 32.0000
395.6510 745.4810 -2.5070
378.9005 749.0040 -22.6035
379.5170 744.0360 32.0580
378.9005 744.0990 31.3515
381.2175 744.1270 31.3515
394.6880 746.0080 -5.3360
377.9040 748.7520 -21.4880
378.7360 744.0480 30.4640
377.9040 744.1120 29.5520
382.8800 744.2160 29.5520
393.2370 746.5570 -8.3490
377.0135 748.2980 -19.7645
377.7590 744.0420 27.5660
377.0135 744.0630 26.8205
384.8525 744.2790 26.8205
391.4240 747.1040 -11.4080
376.2320 747.6960 -17.5440
376.6880 744.0240 23.7120
376.2320 743.9760 23.3760
387.0000 744.3280 23.3760
389.3750 747.6250 -14.3750
375.5625 747.0000 -14.9375
375.6250 744.0000 19.2500
375.5625 743.8750 19.4375
389.1875 744.3750 19.4375
387.2160 748.0960 -17.1120
375.0080 746.2640 -12.0560
374.6720 743.9760 14.5280
375.0080 743.7840 15.2240
391.2800 744.4320 15.2240
385.0730 748.4930 -19.4810
374.5715 745.5420 -9.0105
373.9310 743.9580 9.8940
374.5715 743.7270 10.9545
393.1425 744.5110 10.9545
383.0720 748.7920 -21.3440
374.2560 744.8880 -5.9120
373.5040 743.9520 5.6960
374.2560 743.7280 6.8480
394.6400 744.6240 6.8480
381.3390 748.9690 -22.5630
374.0645 744.3560 -2.8715
373.4930 743.9640 2.2820
374.0645 743.8110 3.1235
395.6375 744.7830 3.1235
396.0000 750.0000 0.0000
380.0000 755.0000 -23.0000
380.0000 748.0000 43.0000
380.0000 748.0000 43.0000
380.0000 748.0000 43.0000
395.6690 750.6035 -2.8715
378.6670 754.8200 -22.6530
379.2430 747.8135 42.9210
378.6670 747.9530 42.0930
381.3390 748.2675 42.0930
394.7520 751.2880 -5.9120
377.2960 754.2400 -21.6640
378.0640 747.5680 40.6880
377.2960 747.7440 39.5840
383.0720 748.4800 39.5840
393.3630 752.0145 -9.0105
375.9290 753.3500 -20.1110
376.6010 747.2845 36.7570
375.9290 747.4210 35.7910
385.0730 748.6525 35.7910
391.6160 752.7440 -12.0560
374.6080 752.2400 -18.0720
374.9920 746.9840 31.5840
374.6080 747.0320 31.0320
387.2160 748.8000 31.0320
389.6250 753.4375 -14.9375
373.3750 751.0000 -15.6250
373.3750 746.6875 25.6250
373.3750 746.6250 25.6250
389.3750 748.9375 25.6250
387.5040 754.0560 -17.5440
372.2720 749.7200 -12.8480
371.8880 746.4160 19.3360
372.2720 746.2480 19.8880
391.4240 749.0800 19.8880
385.3670 754.5605 -19.7645
371.3410 748.4900 -9.8190
370.6690 746.1905 13.1730
371.3410 745.9490 14.1390
393.2370 749.2425 14.1390
383.3280 754.9120 -21.4880
370.6240 747.4000 -6.6160
369.8560 746.0320 7.5920
370.6240 745.7760 8.6960
394.6880 749.4400 8.6960
381.5010 755.0715 -22.6035
370.1630 746.5400 -3.3170
369.5870 745.9615 3.0490
370.1630 745.7770 3.8770
395.6510 749.6875 3.8770
395.0000 752.0000 0.0000
380.0000 759.0000 -14.0000
380.0000 748.0000 51.0000
380.0000 748.0000 51.0000
380.0000 748.0000 51.0000
394.7105 752.6550 -2.7005
378.3930 758.7290 -13.9005
378.9735 747.7670 50.7330
378.3930 747.9380 49.8645
381.4325 748.3055 49.8645
393.9040 753.4800 -5.1040
376.6240 758.0720 -13.5840
377.4080 747.6560 47.9840
376.6240 747.8640 46.7360
383.1600 748.6240 46.7360
392.6735 754.4150 -7.2135
374.7710 757.1130 -13.0235
375.4745 747.6490 43.2810
374.7710 747.7960 42.0315
385.0775 748.9585 42.0315
391.1120 755.4000 -9.0320
372.9120 755.9360 -12.1920
373.3440 747.7280 37.1520
372.9120 747.7520 36.1680
387.0800 749.3120 36.1680
389.3125 756.3750 -10.5625
371.1250 754.6250 -11.0625
371.1875 747.8750 30.1250
371.1250 747.7500 29.5625
389.0625 749.6875 29.5625
387.3680 757.2800 -11.8080
369.4880 753.2640 -9.6080
369.1760 748.0720 22.7280
369.4880 747.8080 22.6320
390.9200 750.0880 22.6320
385.3715 758.0550 -12.7715
368.0790 751.9370 -7.8015
367.4805 748.3010 15.4890
368.0790 747.9440 15.7935
392.5475 750.5165 15.7935
383.4160 758.6400 -13.4560
366.9760 750.7280 -5.6160
366.2720 748.5440 8.9360
366.9760 748.1760 9.4640
393.8400 750.9760 9.4640
381.5945 758.9750 -13.8645
366.2570 749.7210 -3.0245
365.7215 748.7830 3.5970
366.2570 748.5220 4.0605
394.6925 751.4695 4.0605
393.0000 756.0000 0.0000
380.0000 760.0000 -5.0000
380.0000 749.0000 64.0000
380.0000 749.0000 64.0000
380.0000 749.0000 64.0000
392.7755 756.6205 -2.4080
378.1595 759.7570 -5.1705
378.7085 748.7005 63.0630
378.1595 748.9660 62.5185
381.4575 749.4300 62.5185
392.1440 757.2640 -4.1040
376.0160 759.1760 -5.5840
376.7680 748.5840 59.2640
376.0160 748.9680 58.4480
383.0800 750.0000 58.4480
391.1685 757.9035 -5.1960
373.6865 758.3290 -6.0935
374.3795 748.6235 53.2210
373.6865 749.0120 52.3495
384.7925 750.6800 52.3495
389.9120 758.5120 -5.7920
371.2880 757.2880 -6.5520
371.7440 748.7920 45.5520
371.2880 749.1040 44.7840
386.5200 751.4400 44.7840
388.4375 759.0625 -6.0000
368.9375 756.1250 -6.8125
369.0625 749.0625 36.8750
368.9375 749.2500 36.3125
388.1875 752.2500 36.3125
386.8080 759.5280 -5.9280
366.7520 754.9120 -6.7280
366.5360 749.4080 27.8080
366.7520 749.4560 27.4960
389.7200 753.0800 27.4960
385.0865 759.8815 -5.6840
364.8485 753.7210 -6.1515
364.3655 749.8015 18.9690
364.8485 749.7280 18.8955
391.0425 753.9000 18.8955
383.3360 760.0960 -5.3760
363.3440 752.6240 -4.9360
362.7520 750.2160 10.9760
363.3440 750.0720 11.0720
392.0800 754.6800 11.0720
381.6195 760.1445 -5.1120
362.3555 751.6930 -2.9345
361.8965 750.6245 4.4470
362.3555 750.4940 4.5865
392.7575 755.3900 4.5865
390.0000 757.0000 0.0000
380.0000 758.0000 4.0000
380.0000 751.0000 71.0000
380.0000 751.0000 71.0000
380.0000 751.0000 71.0000
389.8595 757.4015 -2.3180
378.0350 757.9070 3.5865
378.5165 750.8825 69.5340
378.0350 751.0400 69.3135
381.4140 751.3795 69.3135
389.4560 757.7120 -3.4240
375.6400 757.7360 2.5120
376.3120 751.0000 65.0720
375.6400 751.2400 64.6880
382.8320 751.8960 64.6880
388.8165 757.9405 -3.5460
372.9650 757.4990 1.0255
373.6055 751.3075 58.2680
372.9650 751.5700 57.7745
384.2180 752.5165 57.7745
387.9680 758.0960 -2.9120
370.1600 757.2080 -0.6240
370.6160 751.7600 49.7760
370.1600 752.0000 49.2240
385.5360 753.2080 49.2240
386.9375 758.1875 -1.7500
367.3750 756.8750 -2.1875
367.5625 752.3125 40.2500
367.3750 752.5000 39.6875
386.7500 753.9375 39.6875
385.7520 758.2240 -0.2880
364.7600 756.5120 -3.4160
364.6640 752.9200 30.3440
364.7600 753.0400 29.8160
387.8240 754.6720 29.8160
384.4385 758.2145 1.2460
362.4650 756.1310 -4.0605
362.1395 753.5375 20.7120
362.4650 753.5900 20.2605
388.7220 755.3785 20.2605
383.0240 758.1680 2.6240
360.6400 755.7440 -3.8720
360.2080 754.1200 12.0080
360.6400 754.1200 11.6720
389.4080 756.0240 11.6720
381.5355 758.0935 3.6180
359.4350 755.3630 -2.6015
359.0885 754.6225 4.8860
359.4350 754.6000 4.7015
389.8460 756.5755 4.7015
389.0000 760.0000 0.0000
380.0000 758.0000 13.0000
380.0000 758.0000 70.0000
380.0000 758.0000 70.0000
380.0000 758.0000 70.0000
388.8920 760.2320 -1.9850
378.0195 758.1090 12.3795
378.3840 758.0595 68.1930
378.0195 758.1090 68.2965
381.4670 758.2585 68.2965
388.5760 760.2560 -2.3600
375.4960 758.2320 10.7360
375.9920 758.1360 63.5840
375.4960 758.2320 63.6320
382.8560 758.5280 63.6320
388.0640 760.1140 -1.4550
372.6065 758.3630 8.3965
373.0580 758.2265 56.7910
372.6065 758.3630 56.6755
384.1490 758.7995 56.6755
387.3680 759.8480 0.4000
369.5280 758.4960 5.6880
369.8160 758.3280 48.4320
369.5280 758.4960 48.0960
385.3280 759.0640 48.0960
386.5000 759.5000 2.8750
366.4375 758.6250 2.9375
366.5000 758.4375 39.1250
366.4375 758.6250 38.5625
386.3750 759.3125 38.5625
385.4720 759.1120 5.6400
363.5120 758.7440 0.4720
363.3440 758.5520 29.4880
363.5120 758.7440 28.7440
387.2720 759.5360 28.7440
384.2960 758.7260 8.3650
360.9285 758.8470 -1.3815
360.5820 758.6685 20.1390
360.9285 758.8470 19.3095
388.0010 759.7255 19.3095
382.9840 758.3840 10.7200
358.8640 758.9280 -2.2960
358.4480 758.7840 11.6960
358.8640 758.9280 10.9280
388.5440 759.8720 10.9280
381.5480 758.1280 12.3750
357.4955 758.9810 -1.9445
357.1760 758.8955 4.7770
357.4955 758.9810 4.2685
388.8830 759.9665 4.2685
385.0000 761.0000 0.0000
380.0000 759.0000 20.0000
380.0000 759.0000 60.0000
380.0000 759.0000 60.0000
380.0000 759.0000 60.0000
384.9590 760.9800 -1.4650
378.4710 759.1650 19.2600
378.8130 759.2370 58.0635
378.4710 759.1650 58.5000
381.2740 759.1370 58.5000
384.8320 760.8400 -1.1200
376.5680 759.4400 17.2800
377.0640 759.5360 53.8880
376.5680 759.4400 54.4000
382.3120 759.3360 54.4000
384.6130 760.6100 0.6450
374.4170 759.7950 14.4200
374.9210 759.8790 47.9745
374.4170 759.7950 48.3000
383.1380 759.5790 48.3000
384.2960 760.3200 3.4400
372.1440 760.2000 11.0400
372.5520 760.2480 40.8240
372.1440 760.2000 40.8000
383.7760 759.8480 40.8000
383.8750 760.0000 6.8750
369.8750 760.6250 7.5000
370.1250 760.6250 32.9375
369.8750 760.6250 32.5000
384.2500 760.1250 32.5000
383.3440 759.6800 10.5600
367.7360 761.0400 4.1600
367.8080 760.9920 24.8160
367.7360 761.0400 24.0000
384.5840 760.3920 24.0000
382.6970 759.3900 14.1050
365.8530 761.4150 1.3800
365.7690 761.3310 16.9605
365.8530 761.4150 15.9000
384.8020 760.6310 15.9000
381.9280 759.1600 17.1200
364.3520 761.7200 -0.4800
364.1760 761.6240 9.8720
364.3520 761.7200 8.8000
384.9280 760.8240 8.8000
381.0310 759.0200 19.2150
363.3590 761.9250 -1.0600
363.1970 761.8530 4.0515
363.3590 761.9250 3.3000
384.9860 760.9530 3.3000
380.0000 761.0000 0.0000
380.0000 759.0000 26.0000
380.0000 759.0000 45.0000
380.0000 759.0000 45.0000
380.0000 759.0000 45.0000
380.0450 760.9395 -0.6490
379.1125 759.1245 25.1865
379.3150 759.1965 43.1325
379.1125 759.1245 43.8255
380.6885 759.0155 43.8255
380.1600 760.7760 0.5280
378.0000 759.3760 22.9920
378.3200 759.4720 39.7600
378.0000 759.3760 40.6240
381.0880 759.1440 40.6240
380.3150 760.5365 3.1170
376.7375 759.7215 19.7855
377.1050 759.8055 35.2275
376.7375 759.7215 35.8785
381.2495 759.3585 35.8785
380.4800 760.2480 6.7040
375.4000 760.1280 15.9360
375.7600 760.1760 29.8800
375.4000 760.1280 30.0720
381.2240 759.6320 30.0720
380.6250 759.9375 10.8750
374.0625 760.5625 11.8125
374.3750 760.5625 24.0625
374.0625 760.5625 23.6875
381.0625 759.9375 23.6875
380.7200 759.6320 15.2160
372.8000 760.9920 7.7840
373.0400 760.9440 18.1200
372.8000 760.9920 17.2080
380.8160 760.2480 17.2080
380.7350 759.3585 19.3130
371.6875 761.3835 4.2195
371.8450 761.2995 12.3975
371.6875 761.3835 11.1165
380.5355 760.5365 11.1165
380.6400 759.1440 22.7520
370.8000 761.7040 1.4880
370.8800 761.6080 7.2400
370.8000 761.7040 5.8960
380.2720 760.7760 5.8960
380.4050 759.0155 25.1190
370.2125 761.9205 -0.0415
370.2350 761.8485 2.9925
370.2125 761.9205 2.0295
380.0765 760.9395 2.0295
397.0000 737.0000 0.0000
380.0000 736.0000 -17.0000
380.0000 735.0000 16.0000
380.0000 735.0000 16.0000
380.0000 735.0000 16.0000
396.6140 736.0405 -2.9870
379.7945 735.0605 -16.6725
379.7180 734.1560 14.5710
379.7945 734.0795 15.7005
381.5695 734.0390 15.7005
395.5520 735.4240 -5.7360
379.4960 734.5840 -15.7600
379.2240 733.7680 12.9280
379.4960 733.6560 14.8640
383.4960 733.5920 14.8640
393.9580 735.0935 -8.2290
379.1315 734.4835 -14.3675
378.5960 733.7520 11.1370
379.1315 733.6365 13.5835
385.6565 733.5630 13.5835
391.9760 734.9920 -10.4480
378.7280 734.6720 -12.6000
377.9120 734.0240 9.2640
378.7280 733.9280 11.9520
387.9280 733.8560 11.9520
389.7500 735.0625 -12.3750
378.3125 735.0625 -10.5625
377.2500 734.5000 7.3750
378.3125 734.4375 10.0625
390.1875 734.3750 10.0625
387.4240 735.2480 -13.9920
377.9120 735.5680 -8.3600
376.6880 735.0960 5.5360
377.9120 735.0720 8.0080
392.3120 735.0240 8.0080
385.1420 735.4915 -15.2810
377.5535 736.1015 -6.0975
376.3040 735.7280 3.8130
377.5535 735.7385 5.8815
394.1785 735.7070 5.8815
383.0480 735.7360 -16.2240
377.2640 736.5760 -3.8800
376.1760 736.3120 2.2720
377.2640 736.3440 3.7760
395.6640 736.3280 3.7760
381.2860 735.9245 -16.8030
377.0705 736.9045 -1.8125
376.3820 736.7640 0.9790
377.0705 736.7955 1.7845
396.6455 736.7910 1.7845
