ply
format ascii 1.0
element vertex 1500
property float x
property float y
property float z
element face 0
property list uchar int vertex_index
end_header
353.0000 236.0000 0.0000
340.0000 228.0000 -10.0000
340.0000 231.0000 25.0000
340.0000 231.0000 25.0000
340.0000 231.0000 25.0000
352.7260 235.9785 -1.5355
339.0345 228.5345 -9.8775
339.4620 231.6845 24.6960
339.0345 231.4775 24.4575
341.0930 231.3560 24.4575
351.9680 235.4880 -3.0240
338.0560 229.2960 -9.5200
338.6160 232.3360 23.2480
338.0560 232.0800 22.9600
342.5040 231.8880 22.9600
350.8220 234.6395 -4.4385
337.0915 230.2215 -8.9425
337.5640 232.9515 20.9020
337.0915 232.7625 20.7025
344.1310 232.5420 20.7025
349.3840 233.5440 -5.7520
336.1680 231.2480 -8.1600
336.4080 233.5280 17.9040
336.1680 233.4800 17.8800
345.8720 233.2640 17.8800
347.7500 232.3125 -6.9375
335.3125 232.3125 -7.1875
335.2500 234.0625 14.5000
335.3125 234.1875 14.6875
347.6250 234.0000 14.6875
346.0160 231.0560 -7.9680
334.5520 233.3520 -6.0400
334.1920 234.5520 10.9360
334.5520 234.8400 11.3200
349.2880 234.6960 11.3200
344.2780 229.8855 -8.8165
333.9135 234.3035 -4.7325
333.3360 234.9935 7.4580
333.9135 235.3925 7.9725
350.7590 235.2980 7.9725
342.6320 228.9120 -9.4560
333.4240 235.1040 -3.2800
332.7840 235.3840 4.3120
333.4240 235.8000 4.8400
351.9360 235.7520 4.8400
341.1740 228.2465 -9.8595
333.1105 235.6905 -1.6975
332.6380 235.7205 1.7440
333.1105 236.0175 2.1175
352.7170 236.0040 2.1175
352.0000 242.0000 0.0000
340.0000 233.0000 -13.0000
340.0000 239.0000 26.0000
340.0000 239.0000 26.0000
340.0000 239.0000 26.0000
351.7540 241.8245 -1.9030
338.9255 233.5365 -12.8115
339.3980 239.7060 25.7940
338.9255 239.4225 25.4475
341.1055 239.3540 25.4475
351.0720 241.1760 -3.7840
337.8240 234.3920 -12.2720
338.4640 240.3280 24.3520
337.8240 239.9600 23.9200
342.4640 239.7920 23.9200
350.0380 240.1715 -5.6010
336.7285 235.4855 -11.4205
337.3060 240.8720 21.9380
336.7285 240.5675 21.6125
343.9885 240.2780 21.6125
348.7360 238.9280 -7.3120
335.6720 236.7360 -10.2960
336.0320 241.3440 18.8160
335.6720 241.2000 18.7200
345.5920 240.7760 18.7200
347.2500 237.5625 -8.8750
334.6875 238.0625 -8.9375
334.7500 241.7500 15.2500
334.6875 241.8125 15.4375
347.1875 241.2500 15.4375
345.6640 236.1920 -10.2480
333.8080 239.3840 -7.3840
333.5680 242.0960 11.5040
333.8080 242.3600 11.9600
348.6880 241.6640 11.9600
344.0620 234.9335 -11.3890
333.0665 240.6195 -5.6745
332.5940 242.3880 7.8420
333.0665 242.7975 8.4825
350.0065 241.9820 8.4825
342.5280 233.9040 -12.2560
332.4960 241.6880 -3.8480
331.9360 242.6320 4.5280
332.4960 243.0800 5.2000
351.0560 242.1680 5.2000
341.1460 233.2205 -12.8070
332.1295 242.5085 -1.9435
331.7020 242.8340 1.8260
332.1295 243.1625 2.3075
351.7495 242.1860 2.3075
350.0000 254.0000 0.0000
340.0000 240.0000 -16.0000
340.0000 248.0000 25.0000
340.0000 248.0000 25.0000
340.0000 248.0000 25.0000
349.8100 253.6665 -2.1490
338.8290 240.5680 -15.7365
339.2700 248.7175 24.9390
338.8290 248.4160 24.4845
341.0090 248.6495 24.4845
349.2800 252.6720 -4.3520
337.5520 241.4240 -14.9920
338.1600 249.2000 23.6320
337.5520 248.8480 23.0560
342.1920 249.4560 23.0560
348.4700 251.1755 -6.5430
336.2230 242.4960 -13.8355
336.7900 249.4925 21.3430
336.2230 249.2720 20.8915
343.4830 250.3565 20.8915
347.4400 249.3360 -8.6560
334.8960 243.7120 -12.3360
335.2800 249.6400 18.3360
334.8960 249.6640 18.1680
344.8160 251.2880 18.1680
346.2500 247.3125 -10.6250
333.6250 245.0000 -10.5625
333.7500 249.6875 14.8750
333.6250 250.0000 15.0625
346.1250 252.1875 15.0625
344.9600 245.2640 -12.3840
332.4640 246.2880 -8.5840
332.3200 249.6800 11.2240
332.4640 250.2560 11.7520
347.3440 252.9920 11.7520
343.6300 243.3495 -13.8670
331.4670 247.5040 -6.4695
331.1100 249.6625 7.6470
331.4670 250.4080 8.4135
348.4070 253.6385 8.4135
342.3200 241.7280 -15.0080
330.6880 248.5760 -4.2880
330.2400 249.6800 4.4080
330.6880 250.4320 5.2240
349.2480 254.0640 5.2240
341.0900 240.5585 -15.7410
330.1810 249.4320 -2.1085
329.8300 249.7775 1.7710
330.1810 250.3040 2.3605
349.8010 254.2055 2.3605
350.0000 262.0000 0.0000
340.0000 249.0000 -18.0000
340.0000 260.0000 25.0000
340.0000 260.0000 25.0000
340.0000 260.0000 25.0000
349.8145 261.6810 -2.2455
338.8415 249.5700 -17.6895
339.2015 260.8695 25.0605
338.8415 260.3610 24.4935
341.0900 260.5915 24.4935
349.2960 260.7280 -4.6240
337.5120 250.5200 -16.8160
337.9920 261.4160 23.8240
337.5120 260.7280 23.0880
342.3200 261.1520 23.0880
348.5015 259.2970 -7.0485
336.0805 251.7600 -15.4665
336.5005 261.6965 21.5635
336.0805 261.0770 20.9545
343.6300 261.6605 20.9545
347.4880 257.5440 -9.4320
334.6160 253.2000 -13.7280
334.8560 261.7680 18.5520
334.6160 261.3840 18.2640
344.9600 262.0960 18.2640
346.3125 255.6250 -11.6875
333.1875 254.7500 -11.6875
333.1875 261.6875 15.0625
333.1875 261.6250 15.1875
346.2500 262.4375 15.1875
345.0320 253.6960 -13.7280
331.8640 256.3200 -9.4320
331.6240 261.5120 11.3680
331.8640 261.7760 11.8960
347.4400 262.6640 11.8960
343.7035 251.9130 -15.4665
330.7145 257.8200 -7.0485
330.2945 261.2985 7.7415
330.7145 261.8130 8.5605
348.4700 262.7545 8.5605
342.3840 250.4320 -16.8160
329.8080 259.1600 -4.6240
329.3280 261.1040 4.4560
329.8080 261.7120 5.3520
349.2800 262.6880 5.3520
341.1305 249.4090 -17.6895
329.2135 260.2500 -2.2455
328.8535 260.9855 1.7845
329.2135 261.4490 2.4415
349.8100 262.4435 2.4415
349.0000 270.0000 0.0000
340.0000 258.0000 -19.0000
340.0000 263.0000 20.0000
340.0000 263.0000 20.0000
340.0000 263.0000 20.0000
348.8425 269.5875 -2.3140
338.7730 258.5690 -18.6435
339.1375 263.9465 20.2590
338.7730 263.4740 19.6155
341.0620 263.5830 19.6155
348.4000 268.6400 -4.7920
337.3440 259.5120 -17.6480
337.8400 264.7920 19.3920
337.3440 264.1520 18.5440
342.2160 264.3840 18.5440
347.7175 267.2925 -7.3380
335.7910 260.7330 -16.1245
336.2425 265.5455 17.6330
335.7910 264.9680 16.9085
343.4140 265.3310 16.9085
346.8400 265.6800 -9.8560
334.1920 262.1360 -14.1840
334.4800 266.2160 15.2160
334.1920 265.8560 14.8320
344.6080 266.3520 14.8320
345.8125 263.9375 -12.2500
332.6250 263.6250 -11.9375
332.6875 266.8125 12.3750
332.6250 266.7500 12.4375
345.7500 267.3750 12.4375
344.6800 262.2000 -14.4240
331.1680 265.1040 -9.4960
331.0000 267.3440 9.3440
331.1680 267.5840 9.8480
346.7920 268.3280 9.8480
343.4875 260.6025 -16.2820
329.8990 266.4770 -6.9705
329.5525 267.8195 6.3570
329.8990 268.2920 7.1865
347.6860 269.1390 7.1865
342.2800 259.2800 -17.7280
328.8960 267.6480 -4.4720
328.4800 268.2480 3.6480
328.8960 268.8080 4.5760
348.3840 269.7360 4.5760
341.1025 258.3675 -18.6660
328.2370 268.5210 -2.1115
327.9175 268.6385 1.4510
328.2370 269.0660 2.1395
348.8380 270.0470 2.1395
350.0000 278.0000 0.0000
340.0000 261.0000 -13.0000
340.0000 268.0000 21.0000
340.0000 268.0000 21.0000
340.0000 268.0000 21.0000
349.8235 277.4475 -1.7005
338.7450 261.7000 -12.7890
339.0645 268.9765 21.2760
338.7450 268.5670 20.5650
341.1710 268.6760 20.5650
349.3280 276.1200 -3.4640
337.2400 263.0000 -12.1920
337.6560 269.9920 20.3680
337.2400 269.4960 19.3600
342.4480 269.7280 19.3600
348.5645 274.2125 -5.2335
335.5750 264.7500 -11.2630
335.9215 271.0255 18.5220
335.5750 270.6790 17.5350
343.7770 271.0420 17.5350
347.5840 271.9200 -6.9520
333.8400 266.8000 -10.0560
334.0080 272.0560 15.9840
333.8400 272.0080 15.2400
345.1040 272.5040 15.2400
346.4375 269.4375 -8.5625
332.1250 269.0000 -8.6250
332.0625 273.0625 13.0000
332.1250 273.3750 12.6250
346.3750 274.0000 12.6250
345.1760 266.9600 -10.0080
330.5200 271.2000 -7.0240
330.2320 274.0240 9.8160
330.5200 274.6720 9.8400
347.5360 275.4160 9.8400
343.8505 264.6825 -11.2315
329.1150 273.2500 -5.3070
328.6635 274.9195 6.6780
329.1150 275.7910 7.0350
348.5330 276.6380 7.0350
342.5120 262.8000 -12.1760
328.0000 275.0000 -3.5280
327.5040 275.7280 3.8320
328.0000 276.6240 4.3600
349.3120 277.5520 4.3600
341.2115 261.5075 -12.7845
327.2650 276.3000 -1.7410
326.9005 276.4285 1.5240
327.2650 277.0630 1.9650
349.8190 278.0440 1.9650
351.0000 284.0000 0.0000
340.0000 266.0000 -16.0000
340.0000 272.0000 20.0000
340.0000 272.0000 20.0000
340.0000 272.0000 20.0000
350.8045 283.4195 -1.9465
338.6360 266.6515 -15.7140
338.9915 273.1450 20.0565
338.6360 272.5375 19.6020
341.2800 272.6465 19.6020
350.2560 282.0160 -4.0320
337.0080 267.9920 -14.9120
337.4720 274.3600 19.0720
337.0080 273.5600 18.4960
342.6800 273.7920 18.4960
349.4115 279.9965 -6.1755
335.2120 269.8505 -13.6780
335.6005 275.6150 17.2655
335.2120 274.9325 16.8140
344.1400 275.2955 16.8140
348.3280 277.5680 -8.2960
333.3440 272.0560 -12.0960
333.5360 276.8800 14.8560
333.3440 276.5200 14.6880
345.6000 277.0160 14.6880
347.0625 274.9375 -10.3125
331.5000 274.4375 -10.2500
331.4375 278.1250 12.0625
331.5000 278.1875 12.2500
347.0000 278.8125 12.2500
345.6720 272.3120 -12.1440
329.7760 276.8240 -8.2240
329.4640 279.3200 9.1040
329.7760 279.8000 9.6320
348.2800 280.5440 9.6320
344.2135 269.8985 -13.7095
328.2680 279.0445 -6.1020
327.7745 280.4350 6.1995
328.2680 281.2225 6.9660
349.3800 282.0695 6.9660
342.7440 267.9040 -14.9280
327.0720 280.9280 -3.9680
326.5280 281.4400 3.5680
327.0720 282.3200 4.3840
350.2400 283.2480 4.3840
341.3205 266.5355 -15.7185
326.2840 282.3035 -1.9060
325.8835 282.3050 1.4285
326.2840 282.9575 2.0180
350.8000 283.9385 2.0180
352.0000 290.0000 0.0000
340.0000 272.0000 -19.0000
340.0000 278.0000 18.0000
340.0000 278.0000 18.0000
340.0000 278.0000 18.0000
351.7855 289.4915 -2.1115
338.5270 272.7885 -18.6345
338.9185 279.3225 18.2250
338.5270 278.6745 17.6625
341.3890 278.6465 17.6625
351.1840 288.1120 -4.4720
336.7760 274.3280 -17.6160
337.2880 280.7600 17.4400
336.7760 279.8960 16.7200
342.9120 279.7920 16.7200
350.2585 286.0805 -6.9705
334.8490 276.4295 -16.0615
335.2795 282.2675 15.8550
334.8490 281.5115 15.2775
344.5030 281.2955 15.2775
349.0720 283.6160 -9.4960
332.8480 278.9040 -14.0880
333.0640 283.8000 13.6800
332.8480 283.3680 13.4400
346.0960 283.0160 13.4400
347.6875 280.9375 -11.9375
330.8750 281.5625 -11.8125
330.8125 285.3125 11.1250
330.8750 285.3125 11.3125
347.6250 284.8125 11.3125
346.1680 278.2640 -14.1840
329.0320 284.2160 -9.3520
328.6960 286.7600 8.4000
329.0320 287.1920 9.0000
349.0240 286.5440 9.0000
344.5765 275.8145 -16.1245
327.4210 286.6755 -6.8235
326.8855 288.0975 5.7150
327.4210 288.8535 6.6075
350.2270 288.0695 6.6075
342.9760 273.8080 -17.6480
326.1440 288.7520 -4.3440
325.5520 289.2800 3.2800
326.1440 290.1440 4.2400
351.1680 289.2480 4.2400
341.4295 272.4635 -18.6435
325.3030 290.2565 -2.0305
324.8665 290.2625 1.3050
325.3030 290.9105 2.0025
351.7810 289.9385 2.0025
352.0000 300.0000 0.0000
340.0000 277.0000 -21.0000
340.0000 287.0000 17.0000
340.0000 287.0000 17.0000
340.0000 287.0000 17.0000
351.7990 299.3155 -2.1675
338.2810 278.0040 -20.5830
338.7130 288.4395 17.3700
338.2810 287.8140 16.6950
341.4295 287.7735 16.6950
351.2320 297.5440 -4.6800
336.2080 279.8720 -19.4240
336.7840 289.9360 16.7200
336.2080 289.1520 15.8400
342.9760 289.0880 15.8400
350.3530 294.9585 -7.4025
333.9070 282.3880 -17.6610
334.4110 291.4565 15.2600
333.9070 290.8580 14.5250
344.5765 290.7845 14.5250
349.2160 291.8320 -10.2000
331.5040 285.3360 -15.4320
331.7920 292.9680 13.2000
331.5040 292.7760 12.8400
346.1680 292.7040 12.8400
347.8750 288.4375 -12.9375
329.1250 288.5000 -12.8750
329.1250 294.4375 10.7500
329.1250 294.7500 10.8750
347.6875 294.6875 10.8750
346.3840 285.0480 -15.4800
326.8960 291.6640 -10.1280
326.6080 295.8320 8.1200
326.8960 296.6240 8.7200
349.0720 296.5760 8.7200
344.7970 281.9365 -17.6925
324.9430 294.6120 -7.3290
324.4390 297.1185 5.5200
324.9430 298.2420 6.4650
350.2585 298.2105 6.4650
343.1680 279.3760 -19.4400
323.3920 297.1280 -4.6160
322.8160 298.2640 3.1600
323.3920 299.4480 4.2000
351.1840 299.4320 4.2000
341.5510 277.6395 -20.5875
322.3690 298.9960 -2.1270
321.9370 299.2355 1.2500
322.3690 300.0860 2.0150
351.7855 300.0815 2.0150
350.0000 307.0000 0.0000
340.0000 285.0000 -23.0000
340.0000 290.0000 16.0000
340.0000 290.0000 16.0000
340.0000 290.0000 16.0000
349.8460 306.2895 -2.2640
338.2810 286.0825 -22.5315
338.7220 291.8200 16.4745
338.2810 290.9875 15.7275
341.4140 290.7820 15.7275
349.4080 304.5360 -4.9520
336.2080 288.1600 -21.2320
336.8160 293.9200 15.9360
336.2080 292.8000 14.9600
342.8320 292.2960 14.9600
348.7220 302.0065 -7.9080
333.9070 290.9775 -19.2605
334.4740 296.2100 14.5915
333.9070 295.2125 13.7725
344.2180 294.3440 13.7725
347.8240 298.9680 -10.9760
331.5040 294.2800 -16.7760
331.8880 298.6000 12.6480
331.5040 298.0000 12.2400
345.5360 296.7280 12.2400
346.7500 295.6875 -14.0000
329.1250 297.8125 -13.9375
329.2500 301.0000 10.3125
329.1250 300.9375 10.4375
346.7500 299.2500 10.4375
345.5360 292.4320 -16.8240
326.8960 301.3200 -10.9040
326.7520 303.3200 7.7920
326.8960 303.8000 8.4400
347.8240 301.7120 8.4400
344.2180 289.4685 -19.2920
324.9430 304.5475 -7.8345
324.5860 305.4700 5.2935
324.9430 306.3625 6.3225
348.7220 303.9160 6.3225
342.8320 287.0640 -21.2480
323.3920 307.2400 -4.8880
322.9440 307.3600 3.0240
323.3920 308.4000 4.1600
349.4080 305.6640 4.1600
341.4140 285.4855 -22.5360
322.3690 309.1425 -2.2235
322.0180 308.9000 1.1905
322.3690 309.6875 2.0275
349.8460 306.7580 2.0275
348.0000 314.0000 0.0000
340.0000 293.0000 -25.0000
340.0000 297.0000 13.0000
340.0000 297.0000 13.0000
340.0000 297.0000 13.0000
347.8930 313.5155 -2.3605
338.3620 294.1275 -24.4710
338.7310 298.8480 13.6260
338.3620 298.0515 12.8070
341.2770 297.6560 12.8070
347.5840 311.9440 -5.2240
336.3360 296.2400 -23.0080
336.8480 301.0240 13.3280
336.3360 299.9520 12.2560
342.4960 299.0880 12.2560
347.0910 309.5585 -8.4135
334.0540 299.0825 -20.7970
334.5370 303.4260 12.2920
334.0540 302.4705 11.3890
343.6390 301.0920 11.3890
346.4320 306.6320 -11.7520
331.6480 302.4000 -18.0240
331.9840 305.9520 10.7040
331.6480 305.3760 10.2480
344.6880 303.4640 10.2480
345.6250 303.4375 -15.0625
329.2500 305.9375 -14.8750
329.3750 308.5000 8.7500
329.2500 308.4375 8.8750
345.6250 306.0000 8.8750
344.6880 300.2480 -18.1680
326.9920 309.4400 -11.5360
326.8960 310.9680 6.6160
326.9920 311.4240 7.3120
346.4320 308.4960 7.3120
343.6390 297.3365 -20.8915
325.0060 312.6525 -8.1930
324.7330 313.2540 4.4880
325.0060 314.1045 5.6010
347.0910 310.7480 5.6010
342.4960 294.9760 -23.0560
323.4240 315.3200 -5.0320
323.0720 315.2560 2.5520
323.4240 316.2480 3.7840
347.5840 312.5520 3.7840
341.2770 293.4395 -24.4845
322.3780 317.1875 -2.2390
322.0990 316.8720 0.9940
322.3780 317.6235 1.9030
347.8930 313.7040 1.9030
347.0000 320.0000 0.0000
340.0000 302.0000 -26.0000
340.0000 304.0000 11.0000
340.0000 304.0000 11.0000
340.0000 304.0000 11.0000
346.9255 319.6580 -2.3075
338.3060 303.3545 -25.4385
338.5985 306.0860 11.7540
338.3060 305.3165 10.8585
341.2085 304.5380 10.8585
346.7040 318.3040 -5.2000
336.1280 305.7360 -23.8880
336.5280 308.6480 11.6320
336.1280 307.5920 10.4480
342.3280 305.8240 10.4480
346.3385 316.1960 -8.4825
333.6220 308.8715 -21.5495
333.9895 311.5420 10.8080
333.6220 310.5655 9.7895
343.3495 307.6660 9.7895
345.8320 313.5920 -11.9600
330.9440 312.4880 -18.6240
331.1840 314.6240 9.4560
330.9440 313.9760 8.9040
344.2640 309.8720 8.9040
345.1875 310.7500 -15.4375
328.2500 316.3125 -15.3125
328.3125 317.7500 7.7500
328.2500 317.5625 7.8125
345.0625 312.2500 7.8125
344.4080 307.9280 -18.7200
325.6960 320.0720 -11.8160
325.5760 320.7760 5.8640
325.6960 321.0640 6.5360
345.7360 314.6080 6.5360
343.4965 305.3840 -21.6125
323.4380 323.4935 -8.3355
323.1755 323.5580 3.9720
323.4380 324.2195 5.0955
346.2755 316.7540 5.0955
342.4560 303.3760 -23.9200
321.6320 326.3040 -5.0720
321.3120 325.9520 2.2480
321.6320 326.7680 3.5120
346.6720 318.4960 3.5120
341.2895 302.1620 -25.4475
320.4340 328.2305 -2.2265
320.1865 327.8140 0.8660
320.4340 328.4485 1.8065
346.9165 319.6420 1.8065
347.0000 326.0000 0.0000
340.0000 310.0000 -29.0000
340.0000 310.0000 9.0000
340.0000 310.0000 9.0000
340.0000 310.0000 9.0000
346.9165 325.7545 -2.4320
338.4835 311.3075 -28.3590
338.7355 311.9645 9.8415
338.4835 311.3075 8.9190
341.2895 310.3265 8.9190
346.6720 324.5760 -5.5760
336.5280 313.5600 -26.5920
336.8640 314.4560 9.8720
336.5280 313.5600 8.6720
342.4560 311.4720 8.6720
346.2755 322.7015 -9.2040
334.2745 316.5025 -23.9330
334.5685 317.3215 9.2505
334.2745 316.5025 8.2530
343.4965 313.2355 8.2530
345.7360 320.3680 -13.0880
331.8640 319.8800 -20.6160
332.0320 320.4080 8.1360
331.8640 319.8800 7.6560
344.4080 315.4160 7.6560
345.0625 317.8125 -17.0000
329.4375 323.4375 -16.8750
329.4375 323.5625 6.6875
329.4375 323.4375 6.8750
345.1875 317.8125 6.8750
344.2640 315.2720 -20.7120
327.1360 326.9200 -12.9440
326.9680 326.6320 5.0640
327.1360 326.9200 5.9040
345.8320 320.2240 5.9040
343.3495 312.9835 -23.9960
325.1005 330.0725 -9.0570
324.8065 329.4635 3.4245
325.1005 330.0725 4.7370
346.3385 322.4495 4.7370
342.3280 311.1840 -26.6240
323.4720 332.6400 -5.4480
323.1360 331.9040 1.9280
323.4720 332.6400 3.3680
346.7040 324.2880 3.3680
341.2085 310.1105 -28.3680
322.3915 334.3675 -2.3510
322.1395 333.8005 0.7335
322.3915 334.3675 1.7910
346.9255 325.5385 1.7910
344.0000 332.0000 0.0000
340.0000 317.0000 -29.0000
340.0000 313.0000 8.0000
340.0000 313.0000 8.0000
340.0000 313.0000 8.0000
343.9915 331.8275 -2.3510
338.4150 318.2290 -28.3545
338.6805 314.8855 8.9865
338.4150 314.3050 7.9425
341.0030 313.3925 7.9425
343.9520 330.7600 -5.4480
336.3600 320.3520 -26.5760
336.7440 317.4240 9.1520
336.3600 316.6400 7.7600
341.8240 314.7200 7.7600
343.8605 329.0225 -9.0570
333.9850 323.1230 -23.9015
334.3735 320.4385 8.6555
333.9850 319.7350 7.4375
342.4810 316.7575 7.4375
343.6960 326.8400 -12.9440
331.4400 326.2960 -20.5680
331.7520 323.7520 7.6560
331.4400 323.3200 6.9600
342.9920 319.2800 6.9600
343.4375 324.4375 -16.8750
328.8750 329.6250 -16.8125
329.0625 327.1875 6.3125
328.8750 327.1250 6.3125
343.3750 322.0625 6.3125
343.0640 322.0400 -20.6160
326.4400 332.8640 -12.8720
326.4880 330.5680 4.7840
326.4400 330.8800 5.4800
343.6480 324.8800 5.4800
342.5545 319.8725 -23.9330
324.2850 335.7670 -8.9835
324.2115 333.7165 3.2295
324.2850 334.3150 4.4475
343.8290 327.5075 4.4475
341.8880 318.1600 -26.5920
322.5600 338.0880 -5.3840
322.4160 336.4560 1.8080
322.5600 337.1600 3.2000
343.9360 329.7200 3.2000
341.0435 317.1275 -28.3590
321.4150 339.5810 -2.3105
321.2845 338.6095 0.6785
321.4150 339.1450 1.7225
343.9870 331.2925 1.7225
343.0000 337.0000 0.0000
340.0000 324.0000 -30.0000
340.0000 320.0000 3.0000
340.0000 320.0000 3.0000
340.0000 320.0000 3.0000
343.0285 337.0500 -2.3790
338.3310 325.0640 -29.3085
338.4795 321.6890 4.1040
338.3310 321.1400 3.0645
340.9750 320.3365 3.0645
343.0880 336.2400 -5.5520
336.0480 326.9120 -27.4080
336.2560 323.9520 4.5920
336.0480 323.2000 3.2160
341.7200 321.5120 3.2160
343.1395 334.7800 -9.2730
333.3370 329.3280 -24.5595
333.5365 326.6330 4.5780
333.3370 325.9400 3.3915
342.2650 323.3255 3.3915
343.1440 332.8800 -13.2960
330.3840 332.0960 -21.0240
330.5280 329.5760 4.1760
330.3840 329.1200 3.5280
342.6400 325.5760 3.5280
343.0625 330.7500 -17.3750
327.3750 335.0000 -17.0625
327.4375 332.6250 3.5000
327.3750 332.5000 3.5625
342.8750 328.0625 3.5625
342.8560 328.6000 -21.2640
324.4960 337.8240 -12.9360
324.4720 335.6240 2.6640
324.4960 335.8400 3.4320
343.0000 330.5840 3.4320
342.4855 326.6400 -24.7170
321.9330 340.3520 -8.9055
321.8385 338.4170 1.7820
321.9330 338.9000 3.0735
343.0450 332.9395 3.0735
341.9120 325.0800 -27.4880
319.8720 342.3680 -5.2320
319.7440 340.8480 0.9680
319.8720 341.4400 2.4240
343.0400 334.9280 2.4240
341.0965 324.1300 -29.3310
318.4990 343.6560 -2.1765
318.3955 342.7610 0.3360
318.4990 343.2200 1.4205
343.0150 336.3485 1.4205
341.0000 343.0000 0.0000
340.0000 335.0000 -31.0000
340.0000 324.0000 2.0000
340.0000 324.0000 2.0000
340.0000 324.0000 2.0000
341.0935 343.3565 -2.2450
338.0975 335.9275 -30.2805
338.2145 325.6270 3.1680
338.0975 325.1365 2.0925
340.9595 324.4420 2.0925
341.3280 343.0320 -5.4000
335.4400 337.4000 -28.3040
335.6160 327.8960 3.7440
335.4400 327.1920 2.3200
341.5760 325.7360 2.3200
341.6345 342.1855 -9.1950
332.2525 339.2525 -25.3435
332.4415 330.6390 3.8360
332.2525 329.9355 2.6075
341.9065 327.6840 2.6075
341.9440 340.9760 -13.3600
328.7600 341.3200 -21.6720
328.9280 333.6880 3.5520
328.7600 333.1360 2.8800
342.0080 330.0880 2.8800
342.1875 339.5625 -17.6250
325.1875 343.4375 -17.5625
325.3125 336.8750 3.0000
325.1875 336.5625 3.0625
341.9375 332.7500 3.0625
342.2960 338.1040 -21.7200
321.7600 345.4400 -13.2880
321.8320 340.0320 2.2880
321.7600 339.9840 3.0800
341.7520 335.4720 3.0800
342.2005 336.7595 -25.3750
318.7025 347.1625 -9.1215
318.7235 342.9910 1.5240
318.7025 343.1695 2.8575
341.5085 338.0560 2.8575
341.8320 335.6880 -28.3200
316.2400 348.4400 -5.3360
316.2240 345.5840 0.8160
316.2400 345.8880 2.3200
341.2640 340.3040 2.3200
341.1215 335.0485 -30.2850
314.5975 349.1075 -2.2045
314.5705 347.6430 0.2720
314.5975 347.9085 1.3925
341.0755 342.0180 1.3925
340.0000 350.0000 0.0000
340.0000 339.0000 -31.0000
340.0000 333.0000 1.0000
340.0000 333.0000 1.0000
340.0000 333.0000 1.0000
340.1305 350.2680 -2.2045
337.9730 340.0980 -30.2760
338.0135 334.4865 2.2320
337.9730 334.2120 1.1160
341.0530 333.4895 1.1160
340.4640 349.7040 -5.3360
335.0640 341.8640 -28.2880
335.1280 336.6320 2.8960
335.0640 336.2960 1.4080
341.6640 334.7360 1.4080
340.9135 348.5060 -9.1215
331.5310 344.1060 -25.3120
331.6045 339.2655 3.0940
331.5310 339.0240 1.7920
341.9110 336.5565 1.7920
341.3920 346.8720 -13.2880
327.6320 346.6320 -21.6240
327.7040 342.2160 2.9280
327.6320 342.1680 2.1840
341.8720 338.7680 2.1840
341.8125 345.0000 -17.5625
323.6250 349.2500 -17.5000
323.6875 345.3125 2.5000
323.6250 345.5000 2.5000
341.6250 341.1875 2.5000
342.0880 343.0880 -21.6720
319.7680 351.7680 -13.2160
319.8160 348.3840 1.9120
319.7680 348.7920 2.6560
341.2480 343.6320 2.6560
342.1315 341.3340 -25.3435
316.3190 353.9940 -9.0480
316.3505 351.2595 1.2660
316.3190 351.8160 2.5680
340.8190 345.9185 2.5680
341.8560 339.9360 -28.3040
313.5360 355.7360 -5.2720
313.5520 353.7680 0.6640
313.5360 354.3440 2.1520
340.4160 347.8640 2.1520
341.1745 339.0920 -30.2805
311.6770 356.8020 -2.1640
311.6815 355.7385 0.2080
311.6770 356.1480 1.3240
340.1170 349.2855 1.3240
340.0000 356.0000 0.0000
340.0000 346.0000 -32.0000
340.0000 340.0000 3.0000
340.0000 340.0000 3.0000
340.0000 340.0000 3.0000
340.1395 356.2060 -2.2325
337.8765 347.1665 -31.2615
337.8765 341.6810 4.1850
337.8765 341.2805 3.0735
341.1745 340.3805 3.0735
340.4960 355.6480 -5.4400
334.7920 349.0320 -29.2320
334.7920 344.0080 4.7200
334.7920 343.4640 3.2480
341.8560 341.5040 3.2480
340.9765 354.5120 -9.3375
331.0255 351.3955 -26.1905
331.0255 346.8070 4.7250
331.0255 346.3135 3.4545
342.1315 343.1935 3.4545
341.4880 352.9840 -13.6400
326.8560 354.0560 -22.4160
326.8560 349.9040 4.3200
326.8560 349.5920 3.6240
342.0880 345.2720 3.6240
341.9375 351.2500 -18.0625
322.5625 356.8125 -18.1875
322.5625 353.1250 3.6250
322.5625 353.0625 3.6875
341.8125 347.5625 3.6875
342.2320 349.4960 -22.3200
318.4240 359.4640 -13.7840
318.4240 356.2960 2.7600
318.4240 356.4880 3.5760
341.3920 349.8880 3.5760
342.2785 347.9080 -26.1275
314.7195 361.8095 -9.4845
314.7195 359.2430 1.8450
314.7195 359.6315 3.2205
340.9135 352.0715 3.2205
341.9840 346.6720 -29.2000
311.7280 363.6480 -5.5680
311.7280 361.7920 1.0000
311.7280 362.2560 2.5520
340.4640 353.9360 2.5520
341.2555 345.9740 -31.2525
309.7285 364.7785 -2.3135
309.7285 363.7690 0.3450
309.7285 364.1245 1.5015
340.1305 355.3045 1.5015
340.0000 362.0000 0.0000
340.0000 352.0000 -29.0000
340.0000 349.0000 3.0000
340.0000 349.0000 3.0000
340.0000 349.0000 3.0000
340.1440 362.1610 -2.1080
337.8080 353.2215 -28.3320
337.8080 350.6385 4.2255
337.8080 350.2785 3.0600
341.2555 349.2290 3.0600
340.5120 361.5680 -5.0640
334.6240 355.1520 -26.4960
334.6240 352.8480 4.7840
334.6240 352.3680 3.2000
341.9840 350.1120 3.2000
341.0080 360.4070 -8.6160
330.7360 357.5905 -23.7440
330.7360 355.4695 4.7985
330.7360 355.0495 3.3600
342.2785 351.4930 3.3600
341.5360 358.8640 -12.5120
326.4320 360.3360 -20.3280
326.4320 358.3440 4.3920
326.4320 358.1040 3.4800
342.2320 353.2160 3.4800
342.0000 357.1250 -16.5000
322.0000 363.1875 -16.5000
322.0000 361.3125 3.6875
322.0000 361.3125 3.5000
341.9375 355.1250 3.5000
342.3040 355.3760 -20.3280
317.7280 365.9440 -12.5120
317.7280 364.2160 2.8080
317.7280 364.4560 3.3600
341.4880 357.0640 3.3600
342.3520 353.8030 -23.7440
313.9040 368.4045 -8.6160
313.9040 366.8955 1.8765
313.9040 367.3155 3.0000
340.9765 358.8770 3.0000
342.0480 352.5920 -26.4960
310.8160 370.3680 -5.0640
310.8160 369.1920 1.0160
310.8160 369.6720 2.3600
340.4960 360.4080 2.3600
341.2960 351.9290 -28.3320
308.7520 371.6335 -2.1080
308.7520 370.9465 0.3495
308.7520 371.3065 1.3800
340.1395 361.5010 1.3800
338.0000 365.0000 0.0000
340.0000 360.0000 -28.0000
340.0000 360.0000 6.0000
340.0000 360.0000 6.0000
340.0000 360.0000 6.0000
338.1955 365.2380 -2.0395
337.7395 361.2890 -27.3690
337.7485 361.6715 7.0335
337.7395 361.2890 5.9850
341.1590 359.8565 5.9850
338.7040 364.9440 -4.8960
334.4560 363.2320 -25.6320
334.4880 363.7920 7.3280
334.4560 363.2320 5.9200
341.7120 360.0720 5.9200
339.4085 364.2560 -8.3265
330.4465 365.6430 -23.0230
330.5095 366.2205 7.0245
330.4465 365.6430 5.7750
341.7730 360.5655 5.7750
340.1920 363.3120 -12.0880
326.0080 368.3360 -19.7760
326.1040 368.8160 6.2640
326.0080 368.3360 5.5200
341.4560 361.2560 5.5200
340.9375 362.2500 -15.9375
321.4375 371.1250 -16.1250
321.5625 371.4375 5.1875
321.4375 371.1250 5.1250
340.8750 362.0625 5.1250
341.5280 361.2080 -19.6320
317.0320 373.8240 -12.3040
317.1760 373.9440 3.9360
317.0320 373.8240 4.5600
340.1440 362.9040 4.5600
341.8465 360.3240 -22.9285
313.0885 376.2470 -8.5470
313.2355 376.1945 2.6505
313.0885 376.2470 3.7950
339.3770 363.6995 3.7950
341.7760 359.7360 -25.5840
309.9040 378.2080 -5.0880
310.0320 378.0480 1.4720
309.9040 378.2080 2.8000
338.6880 364.3680 2.8000
341.1995 359.5820 -27.3555
307.7755 379.5210 -2.1610
307.8565 379.3635 0.5415
307.7755 379.5210 1.5450
338.1910 364.8285 1.5450
337.0000 369.0000 0.0000
340.0000 369.0000 -26.0000
340.0000 372.0000 6.0000
340.0000 372.0000 6.0000
340.0000 372.0000 6.0000
337.2190 369.2880 -2.0240
337.8205 370.3130 -25.4160
337.7530 373.4585 6.9930
337.8205 373.2560 5.9760
341.1310 371.4840 5.9760
337.7920 369.3040 -4.7520
334.5840 372.0640 -23.8080
334.5040 375.1680 7.2640
334.5840 374.8480 5.8880
341.6080 371.0320 5.8880
338.5930 369.1260 -7.9680
330.5935 374.1210 -21.3920
330.5410 377.0295 6.9510
330.5935 376.6620 5.7120
341.5570 370.6380 5.7120
339.4960 368.8320 -11.4560
326.1520 376.3520 -18.3840
326.1520 378.9440 6.1920
326.1520 378.5840 5.4240
341.1040 370.2960 5.4240
340.3750 368.5000 -15.0000
321.5625 378.6250 -15.0000
321.6250 380.8125 5.1250
321.5625 380.5000 5.0000
340.3750 370.0000 5.0000
341.1040 368.2080 -18.3840
317.1280 380.8080 -11.4560
317.2480 382.5360 3.8880
317.1280 382.2960 4.4160
339.4960 369.7440 4.4160
341.5570 368.0340 -21.3920
313.1515 382.7690 -7.9680
313.3090 384.0155 2.6190
313.1515 383.8580 3.6480
338.5930 369.5220 3.6480
341.6080 368.0560 -23.8080
309.9360 384.3760 -4.7520
310.0960 385.1520 1.4560
309.9360 385.0720 2.6720
337.7920 369.3280 2.6720
341.1310 368.3520 -25.4160
307.7845 385.4970 -2.0240
307.8970 385.8465 0.5370
307.7845 385.8240 1.4640
337.2190 369.1560 1.4640
335.0000 375.0000 0.0000
340.0000 378.0000 -26.0000
340.0000 380.0000 6.0000
340.0000 380.0000 6.0000
340.0000 380.0000 6.0000
335.2750 375.2415 -2.0240
337.7240 379.4515 -25.4160
337.6250 381.4270 6.9120
337.7240 381.4135 5.9760
340.9940 379.4235 5.9760
336.0000 375.3920 -4.7520
334.3120 381.2320 -23.8080
334.2000 383.1360 7.1360
334.3120 383.0880 5.8880
341.2720 378.8080 5.8880
337.0250 375.4905 -7.9680
330.0880 383.2305 -21.3920
330.0250 385.0190 6.8040
330.0880 384.9245 5.7120
340.9780 378.1745 5.7120
338.2000 375.5760 -11.4560
325.3760 385.3360 -18.3840
325.4000 386.9680 6.0480
325.3760 386.8240 5.4240
340.2560 377.5440 5.4240
339.3750 375.6875 -15.0000
320.5000 387.4375 -15.0000
320.6250 388.8750 5.0000
320.5000 388.6875 5.0000
339.2500 376.9375 5.0000
340.4000 375.8640 -18.3840
315.7840 389.4240 -11.4560
316.0000 390.6320 3.7920
315.7840 390.4160 4.4160
338.1040 376.3760 4.4160
341.1250 376.1445 -21.3920
311.5520 391.1845 -7.9680
311.8250 392.1310 2.5560
311.5520 391.9105 3.6480
336.9620 375.8805 3.6480
341.4000 376.5680 -23.8080
308.1280 392.6080 -4.7520
308.4000 393.2640 1.4240
308.1280 393.0720 2.6720
335.9680 375.4720 2.6720
341.0750 377.1735 -25.4160
305.8360 393.5835 -2.0240
306.0250 393.9230 0.5280
305.8360 393.8015 1.4640
335.2660 375.1715 1.4640
335.0000 381.0000 0.0000
340.0000 387.0000 -24.0000
340.0000 388.0000 6.0000
340.0000 388.0000 6.0000
340.0000 388.0000 6.0000
335.2750 381.3570 -1.8870
337.8050 388.5090 -23.4630
337.6250 389.3955 6.9120
337.8050 389.4900 5.9670
341.0750 387.2820 5.9670
336.0000 381.7360 -4.4160
334.4400 390.2720 -21.9840
334.2000 391.1040 7.1360
334.4400 391.2000 5.8560
341.4000 386.4560 5.8560
337.0250 382.1490 -7.3890
330.2350 392.1930 -19.7610
330.0250 393.0085 6.8040
330.2350 393.0400 5.6490
341.1250 385.5640 5.6490
338.2000 382.6080 -10.6080
325.5200 394.1760 -16.9920
325.4000 394.9920 6.0480
325.5200 394.9200 5.3280
340.4000 384.6480 5.3280
339.3750 383.1250 -13.8750
320.6250 396.1250 -13.8750
320.6250 396.9375 5.0000
320.6250 396.7500 4.8750
339.3750 383.7500 4.8750
340.4000 383.7120 -16.9920
315.8800 397.9440 -10.6080
316.0000 398.7280 3.7920
315.8800 398.4400 4.2720
338.2000 382.9120 4.2720
341.1250 384.3810 -19.7610
311.6150 399.5370 -7.3890
311.8250 400.2465 2.5560
311.6150 399.9000 3.5010
337.0250 382.1760 3.5010
341.4000 385.1440 -21.9840
308.1600 400.8080 -4.4160
308.4000 401.3760 1.4240
308.1600 401.0400 2.5440
336.0000 381.5840 2.5440
341.0750 386.0130 -23.4630
305.8450 401.6610 -1.8870
306.0250 401.9995 0.5280
305.8450 401.7700 1.3830
335.2750 381.1780 1.3830
333.0000 386.0000 0.0000
340.0000 397.0000 -22.0000
340.0000 397.0000 7.0000
340.0000 397.0000 7.0000
340.0000 397.0000 7.0000
333.3310 386.5600 -1.7500
337.6680 398.6070 -21.5145
337.4970 398.4135 7.8075
337.6680 398.6070 6.9345
340.9380 396.0440 6.9345
334.2080 387.3200 -4.0800
334.1040 400.3760 -20.1760
333.8960 400.1680 7.9200
334.1040 400.3760 6.7360
341.0640 394.8320 6.7360
335.4570 388.2500 -6.8100
329.6560 402.2290 -18.1615
329.5090 402.1345 7.4725
329.6560 402.2290 6.4015
340.5460 393.4480 6.4015
336.9040 389.3200 -9.7600
324.6720 404.0880 -15.6480
324.6480 404.1840 6.6000
324.6720 404.0880 5.9280
339.5520 391.9760 5.9280
338.3750 390.5000 -12.7500
319.5000 405.8750 -12.8125
319.6250 406.1875 5.4375
319.5000 405.8750 5.3125
338.2500 390.5000 5.3125
339.6960 391.7600 -15.6000
314.4880 407.5120 -9.8320
314.7520 408.0160 4.1200
314.4880 407.5120 4.5520
336.8080 389.1040 4.5520
340.6930 393.0700 -18.1300
309.9840 408.9210 -6.8835
310.3410 409.5405 2.7825
309.9840 408.9210 3.6435
335.3940 387.8720 3.6435
341.1920 394.4000 -20.1600
306.3360 410.0240 -4.1440
306.7040 410.6320 1.5600
306.3360 410.0240 2.5840
334.1760 386.8880 2.5840
341.0190 395.7200 -21.5100
303.8920 410.7430 -1.7905
304.1530 411.1615 0.5875
303.8920 410.7430 1.3705
333.3220 386.2360 1.3705
332.0000 396.0000 0.0000
340.0000 404.0000 -22.0000
340.0000 403.0000 11.0000
340.0000 403.0000 11.0000
340.0000 403.0000 11.0000
332.3500 396.4040 -1.7905
337.8175 405.7610 -21.5325
337.5700 404.3705 11.6325
337.8175 404.7800 10.8405
340.9505 402.1920 10.8405
333.2800 396.9120 -4.1440
334.4000 407.6880 -20.2400
334.0800 406.1840 11.4400
334.4000 406.7600 10.3840
341.0240 401.2960 10.3840
334.6100 397.5180 -6.8835
330.0925 409.6970 -18.2875
329.8300 408.2935 10.5875
330.0925 408.8500 9.6635
340.4035 400.3540 9.6635
336.1600 398.2160 -9.8320
325.2400 411.7040 -15.8400
325.1200 410.5520 9.2400
325.2400 410.9600 8.7120
339.2720 399.4080 8.7120
337.7500 399.0000 -12.8125
320.1875 413.6250 -13.0625
320.2500 412.8125 7.5625
320.1875 413.0000 7.5625
337.8125 398.5000 7.5625
339.2000 399.8640 -15.6480
315.2800 415.3760 -10.1200
315.5200 414.9280 5.7200
315.2800 414.8800 6.2480
336.2080 397.6720 6.2480
340.3300 400.8020 -18.1615
310.8625 416.8730 -7.1775
311.2300 416.7515 3.8775
310.8625 416.5100 4.8015
334.6415 396.9660 4.8015
340.9600 401.8080 -20.1760
307.2800 418.0320 -4.4000
307.6800 418.1360 2.2000
307.2800 417.8000 3.2560
333.2960 396.4240 3.2560
340.9100 402.8760 -21.5145
304.8775 418.7690 -1.9525
305.1700 418.9345 0.8525
304.8775 418.6600 1.6445
332.3545 396.0880 1.6445
330.0000 402.0000 0.0000
340.0000 414.0000 -18.0000
340.0000 412.0000 10.0000
340.0000 412.0000 10.0000
340.0000 412.0000 10.0000
330.3970 402.6825 -1.6785
337.8580 415.4230 -17.6220
337.5790 413.1910 10.6560
337.8580 413.4610 9.8460
340.7730 411.0225 9.8460
331.4560 403.6000 -3.7280
334.4640 416.8640 -16.5760
334.1120 414.6880 10.5280
334.4640 415.0080 9.4080
340.6240 409.8400 9.4080
332.9790 404.7075 -6.0195
330.1660 418.2810 -14.9940
329.8930 416.3770 9.7720
330.1660 416.5870 8.7220
339.7510 408.5275 8.7220
334.7680 405.9600 -8.4240
325.3120 419.6320 -13.0080
325.2160 418.1440 8.5440
325.3120 418.1440 7.8240
338.3520 407.1600 7.8240
336.6250 407.3125 -10.8125
320.2500 420.8750 -10.7500
320.3750 419.8750 7.0000
320.2500 419.6250 6.7500
336.6250 405.8125 6.7500
338.3520 408.7200 -13.0560
315.3280 421.9680 -8.3520
315.6640 421.4560 5.2960
315.3280 420.9760 5.5360
334.7680 404.5600 5.5360
339.7510 410.1375 -15.0255
310.8940 422.8690 -5.9460
311.3770 422.7730 3.5880
310.8940 422.1430 4.2180
332.9790 403.4775 4.2180
340.6240 411.5200 -16.5920
307.2960 423.5360 -3.6640
307.8080 423.7120 2.0320
307.2960 423.0720 2.8320
331.4560 402.6400 2.8320
340.7730 412.8225 -17.6265
304.8820 423.9270 -1.6380
305.2510 424.1590 0.7840
304.8820 423.7090 1.4140
330.3970 402.1225 1.4140
330.0000 408.0000 0.0000
340.0000 422.0000 -16.0000
340.0000 418.0000 13.0000
340.0000 418.0000 13.0000
340.0000 418.0000 13.0000
330.3970 408.6980 -1.5010
337.9390 423.3760 -15.6825
337.5790 419.0290 13.4235
337.9390 419.4520 12.7665
340.7730 417.0540 12.7665
331.4560 409.7440 -3.3280
334.5920 424.6880 -14.8000
334.1120 420.4320 13.0080
334.5920 420.9760 12.1120
340.6240 415.8720 12.1120
332.9790 411.0660 -5.3670
330.3130 425.9120 -13.4575
329.8930 422.0830 11.9245
330.3130 422.5240 11.1055
339.7510 414.5380 11.1055
334.7680 412.5920 -7.5040
325.4560 427.0240 -11.7600
325.2160 423.8560 10.3440
325.4560 424.0480 9.8160
338.3520 413.1360 9.8160
336.6250 414.2500 -9.6250
320.3750 428.0000 -9.8125
320.3750 425.6250 8.4375
320.3750 425.5000 8.3125
336.6250 411.7500 8.3125
338.3520 415.9680 -11.6160
315.4240 428.8160 -7.7200
315.6640 427.2640 6.3760
315.4240 426.8320 6.6640
334.7680 410.4640 6.6640
339.7510 417.6740 -13.3630
310.9570 429.4480 -5.5875
311.3770 428.6470 4.3305
310.9570 427.9960 4.9395
332.9790 409.3620 4.9395
340.6240 419.2960 -14.7520
307.3280 429.8720 -3.5200
307.8080 429.6480 2.4720
307.3280 428.9440 3.2080
331.4560 408.5280 3.2080
340.7730 420.7620 -15.6690
304.8910 430.0640 -1.6225
305.2510 430.1410 0.9715
304.8910 429.6280 1.5385
330.3970 408.0460 1.5385
330.0000 419.0000 0.0000
340.0000 431.0000 -12.0000
340.0000 427.0000 13.0000
340.0000 427.0000 13.0000
340.0000 427.0000 13.0000
330.3970 419.7905 -1.3485
337.9390 432.2235 -11.7765
337.5790 427.7865 13.3425
337.9390 428.2995 12.7485
340.7730 426.3125 12.7485
331.4560 420.8240 -2.8480
334.5920 433.2080 -11.1520
334.1120 428.7920 12.8800
334.5920 429.4960 12.0480
340.6240 425.4000 12.0480
332.9790 422.0435 -4.4295
330.3130 433.9745 -10.1955
329.8930 429.9355 11.7775
330.3130 430.5865 10.9795
339.7510 424.3375 10.9795
334.7680 423.3920 -6.0240
325.4560 434.5440 -8.9760
325.2160 431.1360 10.2000
325.4560 431.5680 9.6240
338.3520 423.2000 9.6240
336.6250 424.8125 -7.5625
320.3750 434.9375 -7.5625
320.3750 432.3125 8.3125
320.3750 432.4375 8.0625
336.6250 422.0625 8.0625
338.3520 426.2480 -8.9760
315.4240 435.1760 -6.0240
315.6640 433.3840 6.2800
315.4240 433.1920 6.3760
334.7680 421.0000 6.3760
339.7510 427.6415 -10.1955
310.9570 435.2805 -4.4295
311.3770 434.2695 4.2675
310.9570 433.8285 4.6455
332.9790 420.0875 4.6455
340.6240 428.9360 -11.1520
307.3280 435.2720 -2.8480
307.8080 434.8880 2.4400
307.3280 434.3440 2.9520
331.4560 419.4000 2.9520
340.7730 430.0745 -11.7765
304.8910 435.1715 -1.3485
305.2510 435.1585 0.9625
304.8910 434.7355 1.3765
330.3970 419.0125 1.3765
329.0000 437.0000 0.0000
340.0000 440.0000 -9.0000
340.0000 435.0000 15.0000
340.0000 435.0000 15.0000
340.0000 435.0000 15.0000
329.4205 437.5970 -1.1430
337.9390 440.8730 -8.8560
337.5835 435.4955 15.1335
337.9390 435.9680 14.6880
340.7045 435.1145 14.6880
330.5440 438.0960 -2.3440
334.5920 441.4240 -8.4480
334.1280 436.0640 14.4480
334.5920 436.7840 13.8240
340.4560 435.2560 13.8240
332.1635 438.5090 -3.5610
330.3130 441.7010 -7.8120
329.9245 436.6785 13.1145
330.3130 437.4660 12.5160
339.4615 435.4215 12.5160
334.0720 438.8480 -4.7520
325.4560 441.7520 -6.9840
325.2640 437.3120 11.3040
325.4560 438.0320 10.8720
337.9280 435.6080 10.8720
336.0625 439.1250 -5.8750
320.3750 441.6250 -6.0000
320.4375 437.9375 9.1875
320.3750 438.5000 9.0000
336.0625 435.8125 9.0000
337.9280 439.3520 -6.8880
315.4240 441.3680 -4.8960
315.7360 438.5280 6.9360
315.4240 438.8880 7.0080
334.0720 436.0320 7.0080
339.4615 439.5410 -7.7490
310.9570 441.0290 -3.7080
311.4505 439.0565 4.7205
310.9570 439.2140 5.0040
332.1635 436.2635 5.0040
340.4560 439.7040 -8.4160
307.3280 440.6560 -2.4720
307.8720 439.4960 2.7120
307.3280 439.4960 3.0960
330.5440 436.5040 3.0960
340.7045 439.8530 -8.8470
304.8910 440.2970 -1.2240
305.2915 439.8195 1.0815
304.8910 439.7520 1.3920
329.4205 436.7505 1.3920
352.0000 228.0000 0.0000
340.0000 222.0000 -7.0000
340.0000 223.0000 21.0000
340.0000 223.0000 21.0000
340.0000 223.0000 21.0000
351.7405 219.1920 -1.0870
340.1030 213.9045 -6.9300
339.6035 214.7370 20.8710
340.1030 214.8855 20.5380
342.2800 214.5585 20.5380
351.0240 213.6960 -2.1360
339.8640 209.7360 -6.7200
338.9680 210.3760 19.7280
339.8640 210.6640 19.2640
344.3200 209.9680 19.2640
349.9435 210.9540 -3.1290
339.3610 208.7715 -6.3700
338.1745 209.2090 17.7870
339.3610 209.6185 17.3460
346.1200 208.5295 17.3460
348.5920 210.4080 -4.0480
338.6720 210.2880 -5.8800
337.3040 210.5280 15.2640
338.6720 211.0320 14.9520
347.6800 209.5440 14.9520
347.0625 211.5000 -4.8750
337.8750 213.5625 -5.2500
336.4375 213.6250 12.3750
337.8750 214.1875 12.2500
349.0000 212.3125 12.2500
345.4480 213.6720 -5.5920
337.0480 217.8720 -4.4800
335.6560 217.7920 9.3360
337.0480 218.3680 9.4080
350.0800 216.1360 9.4080
343.8415 216.3660 -6.1810
336.2690 222.4935 -3.5700
335.0405 222.3210 6.3630
336.2690 222.8565 6.5940
350.9200 220.3155 6.5940
342.3360 219.0240 -6.6240
335.6160 226.7040 -2.5200
334.6720 226.5040 3.6720
335.6160 226.9360 3.9760
351.5200 224.1520 3.9760
341.0245 221.0880 -6.9030
335.1670 229.7805 -1.3300
334.6315 229.6330 1.4790
335.1670 229.8895 1.7220
351.8800 226.9465 1.7220
