ply
format ascii 1.0
element vertex 700
property float x
property float y
property float z
element face 0
property list uchar int vertex_index
end_header
280.0000 443.0000 8.0000
282.0000 439.0000 0.0000
340.0000 231.0000 25.0000
340.0000 231.0000 25.0000
340.0000 231.0000 25.0000
277.7070 451.6495 7.0065
281.6830 440.0450 -1.1215
338.3065 236.2220 23.6915
338.5810 235.9970 23.4035
338.5810 236.3645 25.3655
276.4960 456.4560 6.1120
280.8640 442.5600 -2.5920
334.2720 249.8560 20.9920
334.6880 249.5360 20.6080
334.6880 250.2960 24.7840
276.1690 458.1065 5.2955
279.7410 445.9150 -4.2705
328.4155 270.0540 17.2405
328.8670 269.7390 16.9045
328.8670 270.9015 23.4385
276.5280 457.2880 4.5360
278.5120 449.4800 -6.0160
321.2560 294.9680 12.7760
321.6640 294.7280 12.5840
321.6640 296.2880 21.5120
277.3750 454.6875 3.8125
277.3750 452.6250 -7.6875
313.3125 322.7500 7.9375
313.6250 322.6250 7.9375
313.6250 324.5625 19.1875
278.5120 450.9920 3.1040
276.5280 454.7200 -9.1440
305.1040 351.5520 3.0640
305.2960 351.5520 3.2560
305.2960 353.8320 16.6480
279.7410 446.8885 2.3895
276.1690 455.1350 -10.2445
297.1495 379.5260 -1.5055
297.2230 379.6310 -1.1695
297.2230 382.2035 14.0765
280.8640 443.0640 1.6480
276.4960 453.2400 -10.8480
289.9680 404.8240 -5.4320
289.9520 404.9840 -5.0480
289.9520 407.7840 11.6560
281.6830 440.2055 0.8585
277.7070 448.4050 -10.8135
284.0785 425.5980 -8.3765
284.0290 425.7330 -8.0885
284.0290 428.6805 9.5695
280.0000 448.0000 8.0000
275.0000 442.0000 0.0000
340.0000 239.0000 26.0000
340.0000 239.0000 26.0000
340.0000 239.0000 26.0000
277.2275 456.3775 6.8490
274.8475 443.2840 -1.1945
338.5090 244.2760 24.5995
338.6125 244.1410 24.3115
338.6125 244.2625 26.3420
275.3200 460.8800 5.8720
274.4800 446.1920 -2.7760
334.5920 257.9680 21.7360
334.8000 257.8080 21.3520
334.8000 258.0000 25.6960
274.1425 462.2125 5.0330
274.0325 450.0580 -4.5915
328.7830 278.2220 17.7665
329.0875 278.1170 17.4305
329.0875 278.3375 24.2540
273.5600 461.0800 4.2960
273.6400 454.2160 -6.4880
321.6160 303.1840 13.0480
322.0000 303.1840 12.8560
322.0000 303.4000 22.2080
273.4375 458.1875 3.6250
273.4375 458.0000 -8.3125
313.6250 331.0000 7.9375
314.0625 331.1250 7.9375
314.0625 331.3125 19.7500
273.6400 454.2400 2.9840
273.5600 460.7440 -9.9120
305.3440 359.8160 2.7920
305.8000 360.0560 2.9840
305.8000 360.2000 17.0720
274.0325 449.9425 2.3370
274.1425 461.7820 -11.1335
297.3070 387.7780 -2.0315
297.7375 388.0930 -1.6955
297.7375 388.1875 14.3660
274.4800 446.0000 1.6480
275.3200 460.4480 -11.8240
290.0480 413.0320 -6.1760
290.4000 413.3520 -5.7920
290.4000 413.4000 11.8240
274.8475 443.1175 0.8810
277.2275 456.0760 -11.8305
284.1010 433.7240 -9.2845
284.3125 433.9490 -8.9965
284.3125 433.9625 9.6380
280.0000 455.0000 9.0000
269.0000 450.0000 0.0000
340.0000 248.0000 25.0000
340.0000 248.0000 25.0000
340.0000 248.0000 25.0000
276.8165 463.4100 7.7895
268.9885 451.2640 -1.2585
338.7925 253.3225 23.5500
338.6395 253.1020 23.2665
338.6395 253.1705 25.4745
274.3120 468.0000 6.7360
269.0080 454.0320 -2.9280
335.0400 266.8800 20.6400
334.8960 266.5760 20.2720
334.8960 266.7440 25.0160
272.4055 469.4600 5.8065
269.1395 457.6680 -4.8495
329.2975 286.8575 16.6300
329.2765 286.5740 16.3255
329.2765 286.8635 23.8015
271.0160 468.4800 4.9680
269.4640 461.5360 -6.8640
322.1200 311.4400 11.8800
322.2880 311.2480 11.7360
322.2880 311.6720 22.0080
270.0625 465.7500 4.1875
270.0625 465.0000 -8.8125
314.0625 338.8125 6.7500
314.4375 338.7500 6.8125
314.4375 339.3125 19.8125
269.4640 461.9600 3.4320
271.0160 467.4240 -10.5360
305.6800 367.1600 1.6000
306.2320 367.2320 1.8640
306.2320 367.9280 17.3920
269.1395 457.8000 2.6685
272.4055 468.1720 -11.8755
297.5275 394.6675 -3.2100
298.1785 394.8460 -2.8005
298.1785 395.6615 14.9235
269.0080 453.9600 1.8640
274.3120 466.6080 -12.6720
290.1600 419.5200 -7.3200
290.7840 419.7440 -6.8720
290.7840 420.6560 12.5840
268.9885 451.1300 0.9855
276.8165 462.0960 -12.7665
284.1325 439.9025 -10.3700
284.5555 440.0780 -10.0415
284.5555 441.0545 10.5505
280.0000 459.0000 9.0000
264.0000 456.0000 0.0000
340.0000 260.0000 25.0000
340.0000 260.0000 25.0000
340.0000 260.0000 25.0000
276.4740 467.3355 7.8255
264.1060 457.1965 -1.2305
339.0355 265.1095 23.6185
338.6620 264.9205 23.2945
338.6620 264.8925 25.5150
273.4720 471.9840 6.7840
264.4480 459.8720 -2.8240
335.4240 278.2560 20.8080
334.9760 277.9840 20.3760
334.9760 277.8800 25.0800
270.9580 473.6085 5.8485
265.0620 463.4055 -4.6335
329.7385 297.6665 16.9195
329.4340 297.3935 16.5415
329.4340 297.1775 23.8750
268.8960 472.8720 4.9920
265.9840 467.1760 -6.5120
322.5520 321.5680 12.3040
322.5280 321.3520 12.0880
322.5280 321.0000 22.0800
267.2500 470.4375 4.1875
267.2500 470.5625 -8.3125
314.4375 348.1875 7.3125
314.7500 348.0625 7.3125
314.7500 347.5625 19.8750
265.9840 466.9680 3.4080
268.8960 472.9440 -9.8880
305.9680 375.7520 2.2960
306.5920 375.7280 2.5120
306.5920 375.0800 17.4400
265.0620 463.1265 2.6265
270.9580 473.6995 -11.0915
297.7165 402.4885 -2.3945
298.5460 402.5515 -2.0165
298.5460 401.7675 14.9550
264.4480 459.5760 1.8160
273.4720 472.2080 -11.7760
290.2560 426.6240 -6.4080
291.1040 426.7360 -5.9760
291.1040 425.8400 12.6000
264.1060 456.9795 0.9495
276.4740 467.8485 -11.7945
284.1595 446.3855 -9.3935
284.7580 446.4845 -9.0695
284.7580 445.5125 10.5550
280.0000 466.0000 8.0000
259.0000 461.0000 0.0000
340.0000 263.0000 20.0000
340.0000 263.0000 20.0000
340.0000 263.0000 20.0000
276.1315 474.0050 6.8490
259.2235 462.2460 -1.2080
339.2380 268.1070 18.7405
338.6845 268.0080 18.4120
338.6845 268.0360 20.5235
272.6320 478.3600 5.8720
259.8880 464.9680 -2.7440
335.7440 281.3360 16.2640
335.0560 281.2240 15.8160
335.0560 281.3280 20.2880
269.5105 479.7250 5.0330
260.9845 468.5420 -4.4760
330.1060 300.8990 12.8735
329.5915 300.8360 12.4640
329.5915 301.0520 19.4345
266.7760 478.7600 4.2960
262.5040 472.3440 -6.2720
322.9120 325.0080 8.8720
322.7680 325.0320 8.6080
322.7680 325.3840 18.1040
264.4375 476.1250 3.6250
264.4375 475.7500 -8.0000
314.7500 351.8750 4.5625
315.0625 352.0000 4.5000
315.0625 352.5000 16.4375
262.5040 472.4800 2.9840
266.7760 478.1360 -9.5280
306.2080 379.7120 0.2480
306.9520 379.9280 0.3920
306.9520 380.5760 14.5760
260.9845 468.4850 2.3370
269.5105 478.8780 -10.7240
297.8740 406.7310 -3.7685
298.9135 407.0040 -3.4640
298.9135 407.7880 12.6605
259.8880 464.8000 1.6480
272.6320 477.3520 -11.4560
290.3360 431.1440 -7.1840
291.4240 431.4160 -6.8160
291.4240 432.3120 10.8320
259.2235 462.0850 0.8810
276.1315 472.9340 -11.5920
284.1820 451.1630 -9.6955
284.9605 451.3520 -9.4120
284.9605 452.3240 9.2315
280.0000 468.0000 8.0000
259.0000 465.0000 0.0000
340.0000 268.0000 21.0000
340.0000 268.0000 21.0000
340.0000 268.0000 21.0000
276.1315 476.0745 7.0470
259.2235 466.3940 -1.1035
339.4405 273.3260 19.7855
338.6845 273.1370 19.4975
338.6845 272.8350 21.5000
272.6320 480.5360 6.1760
259.8880 469.4320 -2.5280
336.0640 286.8880 17.3440
335.0560 286.6160 16.9600
335.0560 285.8400 21.2000
269.5105 482.0415 5.3690
260.9845 473.4480 -4.1445
330.4735 306.8620 13.9785
329.5915 306.5890 13.6425
329.5915 305.2150 20.2500
266.7760 481.2480 4.6080
262.5040 477.7760 -5.8240
323.2720 331.4240 9.9920
322.7680 331.2080 9.8000
322.7680 329.1600 18.8000
264.4375 478.8125 3.8750
264.4375 481.7500 -7.4375
315.0625 358.7500 5.6875
315.0625 358.6250 5.6875
315.0625 355.8750 17.0000
262.5040 475.3920 3.1520
266.7760 484.7040 -8.8560
306.4480 387.0160 1.3680
306.9520 386.9920 1.5600
306.9520 383.5600 15.0000
260.9845 471.6435 2.4210
269.5105 485.9720 -9.9505
298.0315 414.3980 -2.6635
298.9135 414.4610 -2.3275
298.9135 410.4150 12.9500
259.8880 468.2240 1.6640
272.6320 484.8880 -10.5920
290.4160 439.0720 -6.1040
291.4240 439.1840 -5.7200
291.4240 434.6400 11.0000
259.2235 465.7905 0.8630
276.1315 480.7860 -10.6515
284.2045 459.2140 -8.6505
284.9605 459.3130 -8.3625
284.9605 454.4350 9.3000
280.0000 474.0000 7.0000
267.0000 468.0000 0.0000
340.0000 272.0000 20.0000
340.0000 272.0000 20.0000
340.0000 272.0000 20.0000
276.6795 481.9185 6.0300
267.0355 469.4985 -1.0990
339.4405 277.3170 18.8135
338.6485 277.2225 18.5210
338.6485 276.8145 20.4145
273.9760 486.1280 5.2000
267.1840 472.6480 -2.5120
336.0640 290.8560 16.4480
334.9280 290.7600 16.0480
334.9280 289.9360 20.0560
271.8265 487.3095 4.4800
267.5085 476.7795 -4.1130
330.4735 310.7990 13.1945
329.3395 310.7675 12.8270
329.3395 309.5315 19.0715
270.1680 486.1440 3.8400
268.0720 481.2240 -5.7760
323.2720 335.3280 9.3440
322.3840 335.4000 9.1040
322.3840 333.7680 17.6080
268.9375 483.3125 3.2500
268.9375 485.3125 -7.3750
315.0625 362.6250 5.1875
314.5625 362.8125 5.1250
314.5625 360.8125 15.8125
268.0720 479.4960 2.6800
270.1680 488.3760 -8.7840
306.4480 390.8720 1.0160
306.3760 391.1600 1.1360
306.3760 388.8320 13.8320
267.5085 475.3755 2.1000
271.8265 489.7455 -9.8770
298.0315 418.2510 -2.8795
298.3255 418.5975 -2.6170
298.3255 415.9935 11.8135
267.1840 471.6320 1.4800
273.9760 488.7520 -10.5280
290.4160 442.9440 -6.2080
290.9120 443.2800 -5.8880
290.9120 440.4640 9.9040
267.0355 468.9465 0.7900
276.6795 484.7265 -10.6110
284.2045 463.1330 -8.6785
284.6365 463.3625 -8.4310
284.6365 460.4105 8.2505
280.0000 479.0000 7.0000
271.0000 462.0000 0.0000
340.0000 278.0000 18.0000
340.0000 278.0000 18.0000
340.0000 278.0000 18.0000
276.9535 486.1965 6.0660
270.9415 463.8490 -0.9810
339.1165 283.5115 16.9290
338.6305 283.3450 16.6770
338.6305 282.8810 18.4615
274.6480 489.3120 5.2480
270.8320 467.8720 -2.2480
335.5520 297.2320 14.7920
334.8640 297.1200 14.4560
334.8640 296.0880 18.2320
272.9845 489.1355 4.5220
270.7705 473.2830 -3.6870
329.8855 317.3405 11.8530
329.2135 317.4350 11.5590
329.2135 315.7670 17.4405
271.8640 486.4560 3.8640
270.8560 479.2960 -5.1840
322.6960 342.0160 8.3760
322.1920 342.4000 8.2080
322.1920 340.0640 16.2160
271.1875 482.0625 3.2500
271.1875 485.1250 -6.6250
314.5625 369.4375 4.6250
314.3125 370.1250 4.6250
314.3125 367.1250 14.6875
270.8560 476.7440 2.6560
271.8640 489.9840 -7.8960
306.0640 397.7840 0.8640
306.0880 398.7200 1.0320
306.0880 395.0960 12.9840
270.7705 471.2895 2.0580
272.9845 493.0870 -8.8830
297.7795 425.2345 -2.6430
298.0315 426.2950 -2.3490
298.0315 422.1230 11.2345
270.8320 466.4880 1.4320
274.6480 493.6480 -9.4720
290.2880 449.9680 -5.6320
290.6560 450.9600 -5.2960
290.6560 446.3520 9.5680
270.9415 463.1285 0.7540
276.9535 490.8810 -9.5490
284.1685 470.1635 -7.8390
284.4745 470.8250 -7.5870
284.4745 465.9290 8.1135
280.0000 483.0000 7.0000
273.0000 465.0000 0.0000
340.0000 287.0000 17.0000
340.0000 287.0000 17.0000
340.0000 287.0000 17.0000
277.0905 490.0425 6.1425
272.8945 466.8780 -0.9080
338.9545 292.8675 16.0210
338.6215 292.2600 15.7690
338.6215 291.6465 17.4445
274.9840 493.0000 5.3600
272.6560 470.9840 -2.0640
335.2960 306.6000 14.0480
334.8320 305.8000 13.7120
334.8320 304.4720 17.2560
273.5635 492.6675 4.6375
272.4015 476.5260 -3.3660
329.5915 326.4425 11.3270
329.1505 325.7600 11.0330
329.1505 323.6555 16.5515
272.7120 489.8400 3.9600
272.2480 482.7120 -4.7120
322.4080 350.6400 8.1040
322.0960 350.2800 7.9360
322.0960 347.3760 15.4480
272.3125 485.3125 3.3125
272.3125 488.7500 -6.0000
314.3125 377.4375 4.6250
314.1875 377.5000 4.6250
314.1875 373.8125 14.0625
272.2480 479.8800 2.6800
272.7120 493.8480 -7.1280
305.8720 405.0800 1.1360
305.9440 405.5600 1.3040
305.9440 401.1440 12.5120
272.4015 474.3375 2.0475
273.5635 497.2140 -7.9940
297.6535 431.8125 -2.1170
297.8845 432.6000 -1.8230
297.8845 427.5495 10.9135
272.6560 469.4800 1.4000
274.9840 498.0560 -8.4960
290.2240 455.8800 -4.8880
290.5280 456.7600 -4.5520
290.5280 451.2080 9.3840
272.8945 466.1025 0.7225
277.0905 495.5820 -8.5320
284.1505 475.5275 -6.9310
284.3935 476.1800 -6.6790
284.3935 470.2985 8.0405
280.0000 486.0000 7.0000
272.0000 470.0000 0.0000
340.0000 290.0000 16.0000
340.0000 290.0000 16.0000
340.0000 290.0000 16.0000
277.0220 492.9230 6.1740
271.9180 471.9960 -0.7665
338.8735 296.0730 15.1815
338.6260 295.4160 14.9295
338.6260 294.5565 16.4275
274.8160 495.9040 5.3920
271.7440 476.2480 -1.7120
335.1680 310.1040 13.4720
334.8480 309.2080 13.1360
334.8480 307.3120 16.2800
273.2740 495.7110 4.6480
271.5860 481.9520 -2.7555
329.4445 330.3110 11.0905
329.1820 329.4920 10.7965
329.1820 326.4455 15.6625
272.2880 493.1120 3.9360
271.5520 488.3040 -3.8160
322.2640 354.9120 8.2560
322.1440 354.3840 8.0880
322.1440 350.1360 14.6800
271.7500 488.8750 3.2500
271.7500 494.5000 -4.8125
314.1875 382.1250 5.1875
314.2500 382.0000 5.1875
314.2500 376.5625 13.4375
271.5520 483.7680 2.5840
272.2880 499.7360 -5.6640
305.7760 410.1680 2.1040
306.0160 410.4560 2.2720
306.0160 403.9040 12.0400
271.5860 478.5590 1.9320
273.2740 503.2080 -6.2895
297.5905 437.2590 -0.7755
297.9580 437.8680 -0.4815
297.9580 430.3395 10.5925
271.7440 474.0160 1.2880
274.8160 504.1120 -6.6080
290.1920 461.6160 -3.2320
290.5920 462.3520 -2.8960
290.5920 454.0480 9.2000
271.9180 470.9070 0.6460
277.0220 501.6440 -6.5385
284.1415 481.4570 -5.0465
284.4340 482.0240 -4.7945
284.4340 473.2085 7.9675
280.0000 488.0000 7.0000
270.0000 478.0000 0.0000
340.0000 297.0000 13.0000
340.0000 297.0000 13.0000
340.0000 297.0000 13.0000
276.8850 495.2935 6.2010
269.9650 479.7920 -0.5475
338.9140 302.8340 12.4575
338.6350 302.2310 12.2055
338.6350 301.2500 13.4170
274.4800 498.8480 5.4080
269.9200 483.5760 -1.1600
335.2320 316.4720 11.2400
334.8800 315.6080 10.9040
334.8800 313.5200 13.4160
272.6950 499.3745 4.6270
269.9550 488.6140 -1.7925
329.5180 336.1680 9.5125
329.2450 335.3070 9.2185
329.2450 332.0400 13.0690
271.4400 497.5840 3.8640
270.1600 494.1680 -2.4000
322.3360 360.1760 7.4400
322.2400 359.5040 7.2720
322.2400 355.0400 12.4480
270.6250 494.1875 3.1250
270.6250 499.5000 -2.9375
314.2500 386.7500 5.1875
314.3750 386.3750 5.1875
314.3750 380.7500 11.6250
270.1600 489.8960 2.4160
271.4400 503.8720 -3.3600
305.8240 414.1440 2.9200
306.1600 414.0960 3.0880
306.1600 407.4000 10.6720
269.9550 485.4205 1.7430
272.6950 506.5460 -3.6225
297.6220 440.6120 0.8025
298.1050 440.8430 1.0965
298.1050 433.2200 9.6610
269.9200 481.4720 1.1120
274.4800 506.7840 -3.6800
290.2080 464.4080 -1.0000
290.7200 464.7920 -0.6640
290.7200 456.4400 8.6640
269.9650 478.7615 0.5290
276.8850 503.8480 -3.4875
284.1460 483.7860 -2.3225
284.5150 484.1190 -2.0705
284.5150 475.2900 7.7530
280.0000 492.0000 5.0000
268.0000 484.0000 0.0000
340.0000 304.0000 11.0000
340.0000 304.0000 11.0000
340.0000 304.0000 11.0000
276.7480 499.3225 4.3605
268.0120 485.6070 -0.4015
338.9950 309.3960 10.6505
338.6440 309.0270 10.3895
338.6440 308.2515 11.2055
274.1440 503.0400 3.7440
268.0960 488.9760 -0.7920
335.3600 322.4480 9.7840
334.9120 321.9360 9.4160
334.9120 320.3520 11.0640
272.1160 503.8275 3.1535
268.3240 493.4290 -1.1505
329.6650 341.4520 8.5235
329.3080 340.9690 8.1665
329.3080 338.5705 10.6385
270.5920 502.3600 2.5920
268.7680 498.2880 -1.4560
322.4800 364.7040 6.9920
322.3360 364.3680 6.7280
322.3360 361.1760 9.9920
269.5000 499.3125 2.0625
269.5000 502.8750 -1.6875
314.3750 390.5000 5.3125
314.5000 390.3750 5.1875
314.5000 386.4375 9.1875
268.7680 495.3600 1.5680
270.5920 506.5120 -1.8240
305.9200 417.1360 3.6080
306.3040 417.2320 3.6320
306.3040 412.6240 8.2880
268.3240 491.1775 1.1115
272.1160 508.5210 -1.8445
297.6850 442.9080 2.0015
298.2520 443.1810 2.1485
298.2520 438.0045 7.3565
268.0960 487.4400 0.6960
274.1440 508.2240 -1.7280
290.2400 466.1120 0.6160
290.8480 466.4640 0.8240
290.8480 460.8480 6.4560
268.0120 484.8225 0.3245
276.7480 504.9430 -1.4535
284.1550 485.0440 -0.4255
284.5960 485.3230 -0.2545
284.5960 479.4235 5.6495
280.0000 493.0000 5.0000
266.0000 492.0000 0.0000
340.0000 310.0000 9.0000
340.0000 310.0000 9.0000
340.0000 310.0000 9.0000
276.6110 500.5635 4.4415
266.0590 493.2300 -0.3115
339.0760 315.0075 8.6975
338.6530 314.6880 8.5175
338.6530 314.1025 9.1715
273.8080 504.8480 3.8720
266.2720 495.9200 -0.6320
335.4880 327.5200 7.9600
334.9440 327.0240 7.7200
334.9440 325.8000 9.1120
271.5370 506.4445 3.3005
266.6930 499.4700 -0.9405
329.8120 345.8725 6.8925
329.3710 345.3160 6.6825
329.3710 343.4275 8.8605
269.7440 505.9440 2.7360
267.3760 503.2800 -1.2160
322.6240 368.4000 5.6000
322.4320 367.8720 5.4800
322.4320 365.3200 8.4560
268.3750 503.9375 2.1875
268.3750 506.7500 -1.4375
314.5000 393.4375 4.1875
314.6250 393.0000 4.1875
314.6250 389.8125 7.9375
267.3760 501.0160 1.6640
269.7440 509.2800 -1.5840
306.0160 419.3200 2.7600
306.4480 419.0080 2.8800
306.4480 415.2400 7.3440
266.6930 497.7705 1.1745
271.5370 510.2700 -1.6345
297.7480 444.3825 1.4225
298.3990 444.2040 1.6325
298.3990 439.9375 6.7145
266.2720 494.7920 0.7280
273.8080 509.1200 -1.5680
290.2720 466.9600 0.2800
290.9760 466.8960 0.5200
290.9760 462.2400 6.0880
266.0590 492.6715 0.3335
276.6110 505.2300 -1.3635
284.1640 485.3875 -0.5625
284.6770 485.3920 -0.3825
284.6770 480.4825 5.5035
280.0000 438.0000 8.0000
287.0000 432.0000 0.0000
340.0000 223.0000 21.0000
340.0000 223.0000 21.0000
340.0000 223.0000 21.0000
278.0495 442.7910 7.4925
286.5655 430.6070 -0.9820
339.1570 225.5915 19.7855
338.5585 225.5780 19.6190
338.5585 225.6495 21.0950
277.3360 445.2480 6.8800
285.4240 431.7760 -2.3360
335.6160 237.7920 17.3440
334.6080 237.8240 17.1520
334.6080 238.1760 20.5600
277.6165 445.7970 6.1775
283.8185 434.6790 -3.9240
329.9590 257.5405 13.9785
328.7095 257.6560 13.8630
328.7095 258.4465 19.5150
278.6480 444.8640 5.4000
281.9920 438.4880 -5.6080
322.7680 282.7760 9.9920
321.4240 282.9920 10.0160
321.4240 284.3280 18.0800
280.1875 442.8750 4.5625
280.1875 442.3750 -7.2500
314.6250 311.4375 5.6875
313.3125 311.7500 5.8750
313.3125 313.6875 16.3750
281.9920 440.2560 3.6800
278.6480 445.5120 -8.7120
306.1120 341.4640 1.3680
304.9360 341.8480 1.7040
304.9360 344.3920 14.5200
283.8185 437.4330 2.7675
277.6165 447.0710 -9.8560
297.8110 370.7945 -2.6635
296.8555 371.2040 -2.2330
296.8555 374.3085 12.6350
285.4240 434.8320 1.8400
277.3360 446.2240 -10.5440
290.3040 397.3680 -6.1040
289.6320 397.7360 -5.6720
289.6320 401.3040 10.8400
286.5655 432.8790 0.9125
278.0495 442.1430 -10.6380
284.1730 419.1235 -8.6505
283.8265 419.3620 -8.3490
283.8265 423.2455 9.2550
