ply
format ascii 1.0
element vertex 1100
property float x
property float y
property float z
element face 0
property list uchar int vertex_index
end_header
405.0000 209.0000 -17.0000
426.0000 212.0000 0.0000
369.0000 210.0000 0.0000
369.0000 210.0000 0.0000
369.0000 210.0000 0.0000
407.6535 209.3315 -16.6500
425.6685 212.4730 1.0775
369.3195 210.7270 0.8300
369.7515 210.5110 1.0775
369.7515 209.8415 -1.2050
410.4480 209.6320 -15.6800
424.7280 213.0640 2.3600
371.3360 211.5760 2.1200
371.8320 211.2080 2.3600
371.8320 209.6720 -2.9200
413.2845 209.9105 -14.2100
423.2595 213.7310 3.7725
374.6865 212.4990 3.7200
374.9805 212.0370 3.7725
374.9805 209.5005 -4.9950
416.0640 210.1760 -12.3600
421.3440 214.4320 5.2400
379.0080 213.4480 5.4800
378.9360 212.9440 5.2400
378.9360 209.3360 -7.2800
418.6875 210.4375 -10.2500
419.0625 215.1250 6.6875
383.9375 214.3750 7.2500
383.4375 213.8750 6.6875
383.4375 209.1875 -9.6250
421.0560 210.7040 -8.0000
416.4960 215.7680 8.0400
389.1120 215.2320 8.8800
388.2240 214.7760 8.0400
388.2240 209.0640 -11.8800
423.0705 210.9845 -5.7300
413.7255 216.3190 9.2225
394.1685 215.9710 10.2200
393.0345 215.5930 9.2225
393.0345 208.9745 -13.8950
424.6320 211.2880 -3.5600
410.8320 216.7360 10.1600
398.7440 216.5440 11.1200
397.6080 216.2720 10.1600
397.6080 208.9280 -15.5200
425.6415 211.6235 -1.6100
407.8965 216.9770 10.7775
402.4755 216.9030 11.4300
401.6835 216.7590 10.7775
401.6835 208.9335 -16.6050
405.0000 211.0000 -27.0000
433.0000 217.0000 0.0000
361.0000 216.0000 0.0000
361.0000 216.0000 0.0000
361.0000 216.0000 0.0000
408.3760 211.4020 -26.4420
432.5400 217.6710 1.8530
361.1835 216.5955 1.2860
361.9080 216.6900 1.8530
361.9080 215.6125 -2.2950
412.0080 211.8960 -24.8960
431.2400 218.3680 3.9440
363.5280 217.3440 3.2880
364.4240 217.4400 3.9440
364.4240 215.0800 -5.2400
415.7520 212.4640 -22.5540
429.2200 219.0670 6.1710
367.5745 218.1885 5.7720
368.2360 218.2200 6.1710
368.2360 214.4475 -8.6250
419.4640 213.0880 -19.6080
426.6000 219.7440 8.4320
372.8640 219.0720 8.5040
373.0320 219.0000 8.4320
373.0320 213.7600 -12.2400
423.0000 213.7500 -16.2500
423.5000 220.3750 10.6250
378.9375 219.9375 11.2500
378.5000 219.7500 10.6250
378.5000 213.0625 -15.8750
426.2160 214.4320 -12.6720
420.0400 220.9360 12.6480
385.3360 220.7280 13.7760
384.3280 220.4400 12.6480
384.3280 212.4000 -19.3200
428.9680 215.1160 -9.0660
416.3400 221.4030 14.3990
391.6005 221.3865 15.8480
390.2040 221.0400 14.3990
390.2040 211.8175 -22.3650
431.1120 215.7840 -5.6240
412.5200 221.7520 15.7760
397.2720 221.8560 17.2320
395.8160 221.5200 15.7760
395.8160 211.3600 -24.8000
432.5040 216.4180 -2.5380
408.7000 221.9590 16.6770
401.8915 222.0795 17.6940
400.8520 221.8500 16.6770
400.8520 211.0725 -26.4150
405.0000 220.0000 -32.0000
443.0000 222.0000 0.0000
351.0000 222.0000 0.0000
351.0000 222.0000 0.0000
351.0000 222.0000 0.0000
409.3850 220.2405 -31.3605
442.3500 223.1990 2.8060
351.1350 222.9650 1.8565
352.0980 223.1990 2.8060
352.0980 221.8630 -2.8805
414.2000 220.3840 -29.5840
440.5200 224.5520 5.9280
353.9600 224.2000 4.7120
355.1440 224.5520 5.9280
355.1440 221.6640 -6.4640
419.2350 220.4635 -26.8835
437.6900 225.9930 9.2220
358.9050 225.6150 8.2455
359.7660 225.9930 9.2220
359.7660 221.4210 -10.5135
424.2800 220.5120 -23.4720
434.0400 227.4560 12.5440
365.4000 227.1200 12.1360
365.5920 227.4560 12.5440
365.5920 221.1520 -14.7920
429.1250 220.5625 -19.5625
429.7500 228.8750 15.7500
372.8750 228.6250 16.0625
372.2500 228.8750 15.7500
372.2500 220.8750 -19.0625
433.5600 220.6480 -15.3680
425.0000 230.1840 18.6960
380.7600 230.0400 19.7040
379.3680 230.1840 18.6960
379.3680 220.6080 -23.0880
437.3750 220.8015 -11.1015
419.9700 231.3170 21.2380
388.4850 231.2750 22.7395
386.5740 231.3170 21.2380
386.5740 220.3690 -26.6315
440.3600 221.0560 -6.9760
414.8400 232.2080 23.2320
395.4800 232.2400 24.8480
393.4960 232.2080 23.2320
393.4960 220.1760 -29.4560
442.3050 221.4445 -3.2045
409.7900 232.7910 24.5340
401.1750 232.8450 25.7085
399.7620 232.7910 24.5340
399.7620 220.0470 -31.3245
405.0000 232.0000 -35.0000
447.0000 231.0000 0.0000
347.0000 230.0000 0.0000
347.0000 230.0000 0.0000
347.0000 230.0000 0.0000
410.0640 232.2780 -34.3125
446.2740 232.4090 3.3510
346.8240 231.3425 2.2125
348.1740 231.4280 3.3510
348.1740 230.0110 -3.4100
415.5120 232.2640 -32.4000
444.2320 234.0720 7.0880
349.6720 233.0000 5.6000
351.4320 233.1440 7.0880
351.4320 230.1280 -7.4800
421.1280 232.0360 -29.4875
441.0780 235.8930 11.0370
354.9080 234.8675 9.7875
356.3780 235.0460 11.0370
356.3780 230.3270 -11.9700
426.6960 231.6720 -25.8000
437.0160 237.7760 15.0240
361.8960 236.8400 14.4000
362.6160 237.0320 15.0240
362.6160 230.5840 -16.6400
432.0000 231.2500 -21.5625
432.2500 239.6250 18.8750
370.0000 238.8125 19.0625
369.7500 239.0000 18.8750
369.7500 230.8750 -21.2500
436.8240 230.8480 -17.0000
426.9840 241.3440 22.4160
378.5840 240.6800 23.4000
377.3840 240.8480 22.4160
377.3840 231.1760 -25.5600
440.9520 230.5440 -12.3375
421.4220 242.8370 25.4730
387.0120 242.3375 27.0375
385.1220 242.4740 25.4730
385.1220 231.4630 -29.3300
444.1680 230.4160 -7.8000
415.7680 244.0080 27.8720
394.6480 243.6800 29.6000
392.5680 243.7760 27.8720
392.5680 231.7120 -32.3200
446.2560 230.5420 -3.6125
410.2260 244.7610 29.4390
400.8560 244.6025 30.7125
399.3260 244.6520 29.4390
399.3260 231.8990 -34.2900
405.0000 241.0000 -37.0000
446.0000 246.0000 0.0000
346.0000 244.0000 0.0000
346.0000 244.0000 0.0000
346.0000 244.0000 0.0000
410.1575 241.7340 -36.2790
445.3020 247.0555 3.6780
345.6855 245.1565 2.4270
347.2020 245.0935 3.6780
347.2020 243.7450 -3.7495
415.6000 242.3520 -34.2720
443.3360 248.1040 7.7840
348.5040 246.3920 6.1360
350.5360 246.2480 7.7840
350.5360 243.4000 -8.1360
421.1325 242.8780 -31.2130
440.2940 249.1185 12.1260
353.7985 247.6555 10.7190
355.5940 247.4245 12.1260
355.5940 242.9950 -12.9165
426.5600 243.3360 -27.3360
436.3680 250.0720 16.5120
360.9120 248.8960 15.7680
361.9680 248.5840 16.5120
361.9680 242.5600 -17.8480
431.6875 243.7500 -22.8750
431.7500 250.9375 20.7500
369.1875 250.0625 20.8750
369.2500 249.6875 20.7500
369.2500 242.1250 -22.6875
436.3200 244.1440 -18.0640
426.6320 251.6880 24.6480
377.9680 251.1040 25.6320
377.0320 250.6960 24.6480
377.0320 241.7200 -27.1920
440.2625 244.5420 -13.1370
421.2060 252.2965 28.0140
386.5965 251.9695 29.6310
384.9060 251.5705 28.0140
384.9060 241.3750 -31.1185
443.3200 244.9680 -8.3280
415.6640 252.7360 30.6560
394.4160 252.6080 32.4640
392.4640 252.2720 30.6560
392.4640 241.1200 -34.2240
445.2975 245.4460 -3.8710
410.1980 252.9795 32.3820
400.7695 252.9685 33.7230
399.2980 252.7615 32.3820
399.2980 240.9850 -36.2655
405.0000 254.0000 -40.0000
445.0000 260.0000 0.0000
349.0000 259.0000 0.0000
349.0000 259.0000 0.0000
349.0000 259.0000 0.0000
410.1295 254.7665 -39.2265
444.3120 261.1165 4.0330
348.6555 259.9600 2.7145
350.1360 260.1355 4.0330
350.1360 258.8960 -4.0765
415.4960 255.4720 -37.0720
442.3760 262.0720 8.5840
351.3040 260.9200 6.8560
353.2880 261.1440 8.5840
353.2880 258.5280 -8.8320
420.9165 256.1255 -33.7855
439.3840 262.8755 13.4310
356.3185 261.8500 11.9715
358.0720 262.0285 13.4310
358.0720 257.9620 -14.0055
426.2080 256.7360 -29.6160
435.5280 263.5360 18.3520
363.0720 262.7200 17.6080
364.1040 262.7920 18.3520
364.1040 257.2640 -19.3360
431.1875 257.3125 -24.8125
431.0000 264.0625 23.1250
370.9375 263.5000 23.3125
371.0000 263.4375 23.1250
371.0000 256.5000 -24.5625
435.6720 257.8640 -19.6240
425.9920 264.4640 27.5280
379.2880 264.1600 28.6320
378.3760 263.9680 27.5280
378.3760 255.7360 -29.4240
439.4785 258.3995 -14.2995
420.6960 264.7495 31.3390
387.4965 264.6700 33.1135
385.8480 264.3865 31.3390
385.8480 255.0380 -33.6595
442.4240 258.9280 -9.0880
415.3040 264.9280 34.3360
394.9360 265.0000 36.3040
393.0320 264.6960 34.3360
393.0320 254.4720 -37.0080
444.3255 259.4585 -4.2385
410.0080 265.0085 36.2970
400.9795 265.1200 37.7505
399.5440 264.8995 36.2970
399.5440 254.1040 -39.2085
405.0000 265.0000 -42.0000
443.0000 269.0000 0.0000
349.0000 265.0000 0.0000
349.0000 265.0000 0.0000
349.0000 265.0000 0.0000
409.8710 265.4495 -41.1885
442.3590 270.3790 4.2915
348.6960 266.2300 2.8605
350.1450 266.4550 4.2915
350.1450 264.9820 -4.3755
414.9680 265.8160 -38.9280
440.5520 271.8720 9.1120
351.3680 267.8400 7.2240
353.3200 268.1600 9.1120
353.3200 264.9360 -9.4240
420.1170 266.1265 -35.4795
437.7530 273.4130 14.2305
356.3920 269.7100 12.6135
358.1350 270.0250 14.2305
358.1350 264.8740 -14.8785
425.1440 266.4080 -31.1040
434.1360 274.9360 19.4160
363.1440 271.7200 18.5520
364.2000 271.9600 19.4160
364.2000 264.8080 -20.4720
429.8750 266.6875 -26.0625
429.8750 276.3750 24.4375
371.0000 273.7500 24.5625
371.1250 273.8750 24.4375
371.1250 264.7500 -25.9375
434.1360 266.9920 -20.6160
425.1440 277.6640 29.0640
379.3360 275.6800 30.1680
378.5200 275.6800 29.0640
378.5200 264.7120 -31.0080
437.7530 267.3485 -15.0255
420.1170 278.7370 33.0645
387.5280 277.3900 34.8915
385.9950 277.2850 33.0645
385.9950 264.7060 -35.4165
440.5520 267.7840 -9.5520
414.9680 279.5280 36.2080
394.9520 278.7600 38.2560
393.1600 278.6000 36.2080
393.1600 264.7440 -38.8960
442.3590 268.3255 -4.4565
409.8710 279.9710 38.2635
400.9840 279.6700 39.7845
399.6250 279.5350 38.2635
399.6250 264.8380 -41.1795
405.0000 276.0000 -39.0000
442.0000 280.0000 0.0000
351.0000 280.0000 0.0000
351.0000 280.0000 0.0000
351.0000 280.0000 0.0000
409.8025 276.6430 -38.2590
441.3735 281.4980 4.3725
350.7300 281.3540 2.8470
352.1025 281.4980 4.3725
352.1025 279.7260 -4.2510
414.8000 277.1040 -36.1920
439.6080 283.1440 9.2400
353.3200 282.9520 7.1760
355.1600 283.1440 9.2400
355.1600 279.3280 -9.0480
419.8275 277.4310 -33.0330
436.8745 284.8660 14.3775
358.1700 284.6980 12.5190
359.7975 284.8660 14.3775
359.7975 278.8420 -14.1570
424.7200 277.6720 -29.0160
433.3440 286.5920 19.5600
364.6800 286.4960 18.4080
365.6400 286.5920 19.5600
365.6400 278.3040 -19.3440
429.3125 277.8750 -24.3750
429.1875 288.2500 24.5625
372.2500 288.2500 24.3750
372.3125 288.2500 24.5625
372.3125 277.7500 -24.3750
433.4400 278.0880 -19.3440
424.5760 289.7680 29.1600
380.2800 289.8640 29.9520
379.4400 289.7680 29.1600
379.4400 277.2160 -29.0160
436.9375 278.3590 -14.1570
419.6805 291.0740 33.1275
388.1700 291.2420 34.6710
386.6475 291.0740 33.1275
386.6475 276.7380 -33.0330
439.6400 278.7360 -9.0480
414.6720 292.0960 36.2400
395.3200 292.2880 38.0640
393.5600 292.0960 36.2400
393.5600 276.3520 -36.1920
441.3825 279.2670 -4.2510
409.7215 292.7620 38.2725
401.1300 292.9060 39.6630
399.8025 292.7620 38.2725
399.8025 276.0940 -38.2590
405.0000 287.0000 -36.0000
442.0000 293.0000 0.0000
352.0000 292.0000 0.0000
352.0000 292.0000 0.0000
352.0000 292.0000 0.0000
409.7215 287.6090 -35.3430
441.3690 294.5835 4.4565
351.7470 293.4675 3.0390
353.0790 293.6025 4.4565
353.0790 291.6125 -4.0455
414.6720 288.1520 -33.5040
439.5920 296.2880 9.5520
354.2960 295.2000 7.6320
356.0720 295.3600 9.5520
356.0720 291.0800 -8.5440
419.6805 288.6530 -30.6810
436.8430 298.0445 15.0255
359.0590 297.0925 13.2930
360.6130 297.1975 15.0255
360.6130 290.4475 -13.2885
424.5760 289.1360 -27.0720
433.2960 299.7840 20.6160
365.4480 299.0400 19.5360
366.3360 299.0400 20.6160
366.3360 289.7600 -18.0720
429.1875 289.6250 -22.8750
429.1250 301.4375 26.0625
372.8750 300.9375 25.8750
372.8750 300.8125 26.0625
372.8750 289.0625 -22.6875
433.3440 290.1440 -18.2880
424.5040 302.9360 31.1040
380.7520 302.6800 31.8240
379.8640 302.4400 31.1040
379.8640 288.4000 -26.9280
436.8745 290.7170 -13.5090
419.6070 304.2105 35.4795
388.4910 304.1625 36.8970
386.9370 303.8475 35.4795
386.9370 287.8175 -30.5865
439.6080 291.3680 -8.7360
414.6080 305.1920 38.9280
395.5040 305.2800 40.6080
393.7280 304.9600 38.9280
393.7280 287.3600 -33.4560
441.3735 292.1210 -4.1670
409.6810 305.8115 41.1885
401.2030 305.9275 42.4710
399.8710 305.7025 41.1885
399.8710 287.0725 -35.3295
405.0000 297.0000 -35.0000
442.0000 306.0000 0.0000
350.0000 301.0000 0.0000
350.0000 301.0000 0.0000
350.0000 301.0000 0.0000
409.6810 297.7200 -34.3665
441.3780 307.6825 4.3350
349.7940 302.5750 3.0345
351.1260 302.7775 4.3350
351.1260 300.5010 -4.0985
414.6080 298.4800 -32.5920
439.6240 309.4800 9.3600
352.4720 304.6000 7.6160
354.2480 304.8400 9.3600
354.2480 299.9280 -8.5680
419.6070 299.2800 -29.8655
436.9060 311.3175 14.8050
357.4280 306.9250 13.2615
358.9820 307.0825 14.8050
358.9820 299.3170 -13.2195
424.5040 300.1200 -26.3760
433.3920 313.1200 20.4000
364.0560 309.4000 19.4880
364.9440 309.4000 20.4000
364.9440 298.7040 -17.8640
429.1250 301.0000 -22.3125
429.2500 314.8125 25.8750
371.7500 311.8750 25.8125
371.7500 311.6875 25.8750
371.7500 298.1250 -22.3125
433.2960 301.9200 -17.8640
424.6480 316.3200 30.9600
379.9040 314.2000 31.7520
379.0160 313.8400 30.9600
379.0160 297.6160 -26.3760
436.8430 302.8800 -13.2195
419.7540 317.5675 35.3850
387.9120 316.2250 36.8235
386.3580 315.7525 35.3850
386.3580 297.2130 -29.8655
439.5920 303.8800 -8.5680
414.7360 318.4800 38.8800
395.1680 317.8000 40.5440
393.3920 317.3200 38.8800
393.3920 296.9520 -32.5920
441.3690 304.9200 -4.0985
409.7620 318.9825 41.1750
401.0660 318.7750 42.4305
399.7340 318.4375 41.1750
399.7340 296.8690 -34.3665
405.0000 307.0000 -33.0000
441.0000 317.0000 0.0000
348.0000 315.0000 0.0000
348.0000 315.0000 0.0000
348.0000 315.0000 0.0000
409.6935 307.8200 -32.4270
440.4105 318.7780 4.5000
347.8410 316.4965 3.2310
349.1775 316.8160 4.5000
349.1775 314.2810 -3.9615
414.5680 308.6800 -30.8160
438.7440 320.6640 9.8000
350.6480 318.3920 8.0880
352.4400 318.8080 9.8000
352.4400 313.3680 -8.2320
419.4645 309.5800 -28.3290
436.1535 322.5860 15.6000
355.7970 320.5455 14.0670
357.3825 320.8920 15.6000
357.3825 312.3270 -12.6405
424.2240 310.5200 -25.1280
432.7920 324.4720 21.6000
362.6640 322.8160 20.6640
363.6000 322.9840 21.6000
363.6000 311.2240 -17.0160
428.6875 311.5000 -21.3750
428.8125 326.2500 27.5000
370.6250 325.0625 27.3750
370.6875 325.0000 27.5000
370.6875 310.1250 -21.1875
432.6960 312.5200 -17.2320
424.3680 327.8480 33.0000
379.0560 327.1440 33.6960
378.2400 326.8560 33.0000
378.2400 309.0960 -24.9840
436.0905 313.5800 -12.8610
419.6115 329.1940 37.8000
387.3330 328.9195 39.1230
385.8525 328.4680 37.8000
385.8525 308.2030 -28.2345
438.7120 314.6800 -8.4240
414.6960 330.2160 41.6000
394.8320 330.2480 43.1520
393.1200 329.7520 41.6000
393.1200 307.5120 -30.7680
440.4015 315.8200 -4.0830
409.7745 330.8420 44.1000
400.9290 330.9885 45.2790
399.6375 330.6240 44.1000
399.6375 307.0890 -32.4135
405.0000 316.0000 -31.0000
440.0000 329.0000 0.0000
347.0000 323.0000 0.0000
347.0000 323.0000 0.0000
347.0000 323.0000 0.0000
409.7060 316.8050 -30.4830
439.4385 330.9455 4.5560
346.9050 324.7130 3.3590
348.2055 325.0595 4.5560
348.2055 322.1695 -3.9460
414.5280 317.8000 -29.0240
437.8480 333.0240 10.0080
349.8000 327.0240 8.3920
351.5440 327.4560 10.0080
351.5440 321.2160 -8.0880
419.3220 318.9550 -26.7610
435.3695 335.1485 16.0320
355.0550 329.7410 14.5830
356.5985 330.0665 16.0320
356.5985 320.1965 -12.2820
423.9440 320.2400 -23.8320
432.1440 337.2320 22.3040
362.0400 332.6720 21.4160
362.9520 332.7680 22.3040
362.9520 319.1680 -16.3840
428.2500 321.6250 -20.3750
428.3125 339.1875 28.5000
370.1250 335.6250 28.3750
370.1875 335.4375 28.5000
370.1875 318.1875 -20.2500
432.0960 323.0800 -16.5280
424.0160 340.9280 34.2960
378.6800 338.4080 34.9440
377.8880 337.9520 34.2960
377.8880 317.3120 -23.7360
435.3380 324.5750 -12.4290
419.3955 342.3665 39.3680
387.0750 340.8290 40.6070
385.6365 340.1885 39.3680
385.6365 316.5985 -26.6980
437.8320 326.0800 -8.2160
414.5920 343.4160 43.3920
394.6800 342.6960 44.8480
393.0160 342.0240 43.3920
393.0160 316.1040 -28.9920
439.4340 327.5650 -4.0270
409.7465 343.9895 46.0440
400.8650 343.8170 47.1510
399.6095 343.3355 46.0440
399.6095 315.8855 -30.4740
405.0000 324.0000 -29.0000
440.0000 343.0000 0.0000
346.0000 334.0000 0.0000
346.0000 334.0000 0.0000
346.0000 334.0000 0.0000
409.7465 325.1845 -28.5435
439.4430 345.2300 4.6805
345.9690 335.9600 3.5555
347.2290 336.4010 4.6805
347.2290 332.8695 -3.8900
414.5920 326.6960 -27.2480
437.8640 347.5600 10.3840
348.9520 338.6800 8.8640
350.6320 339.2080 10.3840
350.6320 331.5360 -7.8800
419.3955 328.4715 -25.2245
435.4010 349.9000 16.7535
354.3130 341.9200 15.3885
355.7830 342.2770 16.7535
355.7830 330.0865 -11.8500
424.0160 330.4480 -22.5840
432.1920 352.1600 23.4320
361.4160 345.4400 22.5920
362.2560 345.4640 23.4320
362.2560 328.6080 -15.6800
428.3125 332.5625 -19.4375
428.3750 354.2500 30.0625
369.6250 349.0000 29.9375
369.6250 348.6250 30.0625
369.6250 327.1875 -19.2500
432.1440 334.7520 -15.8960
424.0880 356.0800 36.2880
378.3040 352.3600 36.8880
377.4640 351.6160 36.2880
377.4640 325.9120 -22.4400
435.3695 336.9535 -12.0705
419.4690 357.5600 41.7515
386.8170 355.2800 42.9065
385.3470 354.2930 41.7515
385.3470 324.8685 -25.1300
437.8480 339.1040 -8.0720
414.6560 358.6000 46.0960
394.5280 357.5200 47.4560
392.8480 356.5120 46.0960
392.8480 324.1440 -27.2000
439.4385 341.1405 -4.0115
409.7870 359.1100 48.9645
400.8010 358.8400 49.9995
399.5410 358.1290 48.9645
399.5410 323.8255 -28.5300
405.0000 334.0000 -27.0000
442.0000 353.0000 0.0000
350.0000 345.0000 0.0000
350.0000 345.0000 0.0000
350.0000 345.0000 0.0000
409.9240 335.1395 -26.6175
441.3780 355.3750 5.0105
349.8750 346.8430 3.9575
351.1260 347.5270 5.0105
351.1260 343.6435 -3.8745
414.9920 336.6160 -25.5200
439.6240 357.8400 11.2640
352.6000 349.5040 9.8400
354.2480 350.4160 11.2640
354.2480 342.1280 -7.7360
420.0480 338.3665 -23.7825
436.9060 360.3050 18.3435
357.5750 352.7310 17.0625
358.9820 353.5290 18.3435
358.9820 340.5345 -11.4915
424.9360 340.3280 -21.4800
433.3920 362.6800 25.8320
364.2000 356.2720 25.0400
364.9440 356.7280 25.8320
364.9440 338.9440 -15.0480
429.5000 342.4375 -18.6875
429.2500 364.8750 33.3125
371.8750 359.8750 33.1875
371.7500 359.8750 33.3125
371.7500 337.4375 -18.3125
433.5840 344.6320 -15.4800
424.6480 366.8000 40.3680
380.0000 363.2880 40.9200
379.0160 362.8320 40.3680
379.0160 336.0960 -21.1920
437.0320 346.8485 -11.9325
419.7540 368.3650 46.5815
387.9750 366.2590 47.6525
386.3580 365.4610 46.5815
386.3580 335.0005 -23.5935
439.6880 349.0240 -8.1200
414.7360 369.4800 51.5360
395.2000 368.5360 52.8000
393.3920 367.6240 51.5360
393.3920 334.2320 -25.4240
441.3960 351.0955 -4.1175
409.7620 370.0550 54.8145
401.0750 369.8670 55.7775
399.7340 369.1830 54.8145
399.7340 333.8715 -26.5905
405.0000 343.0000 -25.0000
449.0000 363.0000 0.0000
347.0000 358.0000 0.0000
347.0000 358.0000 0.0000
347.0000 358.0000 0.0000
410.2415 344.0865 -24.6825
448.2270 365.9095 5.2035
346.8645 360.3250 4.2225
348.1650 361.0045 5.2035
348.1650 356.4640 -3.9805
415.9120 345.5120 -23.7600
446.0560 369.1360 11.8080
349.7360 363.6000 10.4800
351.4000 364.4960 11.8080
351.4000 354.6320 -7.7840
421.7805 347.2255 -22.2775
442.7090 372.5265 19.3545
354.9815 367.5250 18.1575
356.3150 368.2915 19.3545
356.3150 352.6180 -11.3535
427.6160 349.1760 -20.2800
438.4080 375.9280 27.3840
361.9680 371.8000 26.6400
362.5200 372.2080 27.3840
362.5200 350.5360 -14.6320
433.1875 351.3125 -17.8125
433.3750 379.1875 35.4375
370.0625 376.1250 35.3125
369.6250 376.0625 35.4375
369.6250 348.5000 -17.5625
438.2640 353.5840 -14.9200
427.8320 382.1520 43.0560
378.6320 380.2000 43.5600
377.2400 379.6720 43.0560
377.2400 346.6240 -20.0880
442.6145 355.9395 -11.6475
422.0010 384.6685 49.7805
387.0435 383.7250 50.7675
384.9750 382.8535 49.7805
384.9750 345.0220 -22.1515
446.0080 358.3280 -8.0400
416.1040 386.5840 55.1520
394.6640 386.4000 56.3200
392.4400 385.4240 55.1520
392.4400 343.8080 -23.6960
448.2135 360.6985 -4.1425
410.3630 387.7455 58.7115
400.8605 387.9250 59.6025
399.2450 387.2005 58.7115
399.2450 343.0960 -24.6645
405.0000 355.0000 -25.0000
455.0000 375.0000 0.0000
339.0000 367.0000 0.0000
339.0000 367.0000 0.0000
339.0000 367.0000 0.0000
410.7740 356.0775 -24.6195
454.1220 377.5650 4.1635
338.7690 368.9970 3.2635
340.3260 369.7170 4.1635
340.3260 365.2915 -4.1425
417.1120 357.5600 -23.5360
451.6560 380.2000 9.3280
341.9920 371.8160 8.1280
344.0080 372.7760 9.3280
344.0080 363.5120 -8.0400
423.7380 359.3725 -21.8365
447.8540 382.8150 15.1545
347.9430 375.1990 14.1045
349.6020 376.0390 15.1545
349.6020 361.7305 -11.6475
430.3760 361.4400 -19.6080
442.9680 385.3200 21.3040
355.8960 378.8880 20.7040
356.6640 379.3680 21.3040
356.6640 360.0160 -14.9200
436.7500 363.6875 -16.9375
437.2500 387.6250 27.4375
365.1250 382.6250 27.4375
364.7500 382.6250 27.4375
364.7500 358.4375 -17.8125
442.5840 366.0400 -13.9120
430.9520 389.6400 33.2160
374.9040 386.1520 33.8160
373.4160 385.6720 33.2160
373.4160 357.0640 -20.2800
447.6020 368.4225 -10.6185
424.3260 391.2750 38.3005
384.5070 389.2110 39.3505
382.2180 388.3710 38.3005
382.2180 355.9645 -22.2775
451.5280 370.7600 -7.1440
417.6240 392.4400 42.3520
393.2080 391.5440 43.5520
390.7120 390.5840 42.3520
390.7120 355.2080 -23.7600
454.0860 372.9775 -3.5755
411.0980 393.0450 45.0315
400.2810 392.8930 45.9315
398.4540 392.1730 45.0315
398.4540 354.8635 -24.6825
405.0000 366.0000 -27.0000
448.0000 382.0000 0.0000
336.0000 374.0000 0.0000
336.0000 374.0000 0.0000
336.0000 374.0000 0.0000
410.6185 366.9430 -26.5275
447.3000 383.7460 3.4785
335.5965 375.1600 2.5875
337.4280 375.8980 3.4785
337.4280 372.6465 -3.7125
416.4480 368.2240 -25.2000
445.3200 385.3680 7.6480
338.8720 376.9200 6.4800
341.3840 377.9440 7.6480
341.3840 371.3120 -7.4800
422.2995 369.7710 -23.1525
442.2400 386.8420 12.2595
345.0555 379.1000 11.2725
347.3760 380.0660 12.2595
347.3760 370.0355 -11.1975
427.9840 371.5120 -20.5200
438.2400 388.1440 17.0640
353.3760 381.5200 16.5600
354.9120 382.1920 17.0640
354.9120 368.8560 -14.7600
433.3125 373.3750 -17.4375
433.5000 389.2500 21.8125
363.0625 384.0000 21.9375
363.5000 384.2500 21.8125
363.5000 367.8125 -18.0625
438.0960 375.2880 -14.0400
428.2000 390.1360 26.2560
373.3440 386.3600 27.0000
372.6480 386.1680 26.2560
372.6480 366.9440 -21.0000
442.1455 377.1790 -10.4625
422.5200 390.7780 30.1455
383.4495 388.4200 31.3425
381.8640 387.8740 30.1455
381.8640 366.2895 -23.4675
445.2720 378.9760 -6.8400
416.6400 391.1520 33.2320
392.6080 390.0000 34.5600
390.6560 389.2960 33.2320
390.6560 365.8880 -25.3600
447.2865 380.6070 -3.3075
410.7400 391.2340 35.2665
400.0485 390.9200 36.2475
398.5320 390.3620 35.2665
398.5320 365.7785 -26.5725
405.0000 374.0000 -22.0000
437.0000 383.0000 0.0000
333.0000 384.0000 0.0000
333.0000 384.0000 0.0000
333.0000 384.0000 0.0000
409.9865 374.5445 -21.6135
436.5720 384.1635 3.0800
332.9505 384.5370 2.0855
334.5480 385.1445 3.0800
334.5480 383.0360 -2.9650
414.7920 375.2560 -20.5280
435.3360 385.2480 6.6000
336.5840 385.2960 5.2240
338.8240 386.1760 6.6000
338.8240 381.8880 -6.0000
419.3355 376.1015 -18.8545
433.3640 386.2445 10.3800
343.1235 386.1990 9.0885
345.2760 387.0915 10.3800
345.2760 380.6220 -9.0150
423.5360 377.0480 -16.7040
430.7280 387.1440 14.2400
351.7920 387.1680 13.3520
353.3520 387.8880 14.2400
353.3520 379.3040 -11.9200
427.3125 378.0625 -14.1875
427.5000 387.9375 18.0000
361.8125 388.1250 17.6875
362.5000 388.5625 18.0000
362.5000 378.0000 -14.6250
430.5840 379.1120 -11.4160
423.7520 388.6160 21.4800
372.4080 388.9920 21.7680
372.1680 389.1120 21.4800
372.1680 376.7760 -17.0400
433.2695 380.1635 -8.5005
419.5560 389.1705 24.5000
382.8015 389.6910 25.2665
381.8040 389.5335 24.5000
381.8040 375.6980 -19.0750
435.2880 381.1840 -5.5520
414.9840 389.5920 26.8800
392.2160 390.1440 27.8560
390.8560 389.8240 26.8800
390.8560 374.8320 -20.6400
436.5585 382.1405 -2.6815
410.1080 389.8715 28.4400
399.8745 390.2730 29.2095
398.7720 389.9805 28.4400
398.7720 374.2440 -21.6450
405.0000 378.0000 -17.0000
427.0000 384.0000 0.0000
346.0000 387.0000 0.0000
346.0000 387.0000 0.0000
346.0000 387.0000 0.0000
409.4230 378.1095 -16.7040
426.7485 384.8710 2.4665
346.0905 387.4765 1.6520
347.2875 387.8140 2.4665
347.2875 386.2755 -2.3390
413.3040 378.4160 -15.8720
426.0080 385.7680 5.2720
349.1440 388.0720 4.1360
350.8400 388.5520 5.2720
350.8400 385.3440 -4.7120
416.6610 378.8865 -14.5880
424.7995 386.6670 8.2755
354.5335 388.7355 7.1940
356.1925 389.2080 8.2755
356.1925 384.2685 -7.0530
419.5120 379.4880 -12.9360
423.1440 387.5440 11.3360
361.6320 389.4160 10.5680
362.8800 389.7760 11.3360
362.8800 383.1120 -9.2960
421.8750 380.1875 -11.0000
421.0625 388.3750 14.3125
369.8125 390.0625 14.0000
370.4375 390.2500 14.3125
370.4375 381.9375 -11.3750
423.7680 380.9520 -8.8640
418.5760 389.1360 17.0640
378.4480 390.6240 17.2320
378.4000 390.6240 17.0640
378.4000 380.8080 -13.2240
425.2090 381.7485 -6.6120
415.7055 389.8030 19.4495
386.9115 391.0495 20.0060
386.3025 390.8920 19.4495
386.3025 379.7865 -14.7770
426.2160 382.5440 -4.3280
412.4720 390.3520 21.3280
394.5760 391.2880 22.0640
393.6800 391.0480 21.3280
393.6800 378.9360 -15.9680
426.8070 383.3055 -2.0960
408.8965 390.7590 22.5585
400.8145 391.2885 23.1480
400.0675 391.0860 22.5585
400.0675 378.3195 -16.7310
405.0000 382.0000 -9.0000
417.0000 384.0000 0.0000
360.0000 389.0000 0.0000
360.0000 389.0000 0.0000
360.0000 389.0000 0.0000
408.2115 381.8940 -8.8515
416.9205 384.7000 1.6475
360.1665 389.3710 0.9995
361.0035 389.6050 1.6475
361.0035 388.4620 -1.5480
410.7920 381.8720 -8.4320
416.6640 385.4800 3.4400
362.5520 389.7680 2.4960
363.7680 390.1200 3.4400
363.7680 387.7760 -2.9840
412.8105 381.9280 -7.7805
416.2035 386.3100 5.3025
366.6855 390.1670 4.3365
367.9245 390.5450 5.3025
367.9245 386.9840 -4.2960
414.3360 382.0560 -6.9360
415.5120 387.1600 7.1600
372.0960 390.5440 6.3680
373.1040 390.8800 7.1600
373.1040 386.1280 -5.4720
415.4375 382.2500 -5.9375
414.5625 388.0000 8.9375
378.3125 390.8750 8.4375
378.9375 391.1250 8.9375
378.9375 385.2500 -6.5000
416.1840 382.5040 -4.8240
413.3280 388.8000 10.5600
384.8640 391.1360 10.3920
385.0560 391.2800 10.5600
385.0560 384.3920 -7.3680
416.6445 382.8120 -3.6345
411.7815 389.5300 11.9525
391.2795 391.3030 12.0785
391.0905 391.3450 11.9525
391.0905 383.5960 -8.0640
416.8880 383.1680 -2.4080
409.8960 390.1600 13.0400
397.0880 391.3520 13.3440
396.6720 391.3200 13.0400
396.6720 382.9040 -8.5760
416.9835 383.5660 -1.1835
407.6445 390.6600 13.7475
401.8185 391.2590 14.0355
401.4315 391.2050 13.7475
401.4315 382.3580 -8.8920
405.0000 387.0000 -2.0000
406.0000 387.0000 0.0000
378.0000 389.0000 0.0000
378.0000 389.0000 0.0000
378.0000 389.0000 0.0000
406.8910 386.9100 -1.9755
406.0980 387.3305 0.7070
378.1485 389.2115 0.3515
378.6300 389.2925 0.7070
378.6300 388.7910 -0.7040
408.0480 386.8400 -1.9040
406.3440 387.6240 1.4160
379.6080 389.3520 0.8720
380.3600 389.4800 1.4160
380.3600 388.5680 -1.2320
408.5970 386.7900 -1.7885
406.6660 387.8835 2.1090
382.0995 389.4305 1.5105
382.9500 389.5775 2.1090
382.9500 388.3370 -1.6080
408.6640 386.7600 -1.6320
406.9920 388.1120 2.7680
385.3440 389.4560 2.2160
386.1600 389.6000 2.7680
386.1600 388.1040 -1.8560
408.3750 386.7500 -1.4375
407.2500 388.3125 3.3750
389.0625 389.4375 2.9375
389.7500 389.5625 3.3750
389.7500 387.8750 -2.0000
407.8560 386.7600 -1.2080
407.3680 388.4880 3.9120
392.9760 389.3840 3.6240
393.4800 389.4800 3.9120
393.4800 387.6560 -2.0640
407.2330 386.7900 -0.9465
407.2740 388.6415 4.3610
396.8055 389.3045 4.2245
397.1100 389.3675 4.3610
397.1100 387.4530 -2.0720
406.6320 386.8400 -0.6560
406.8960 388.7760 4.7040
400.2720 389.2080 4.6880
400.4000 389.2400 4.7040
400.4000 387.2720 -2.0480
406.1790 386.9100 -0.3395
406.1620 388.8945 4.9230
403.0965 389.1035 4.9635
403.1100 389.1125 4.9230
403.1100 387.1190 -2.0160
405.0000 209.0000 -8.0000
418.0000 204.0000 0.0000
375.0000 205.0000 0.0000
375.0000 205.0000 0.0000
375.0000 205.0000 0.0000
406.9840 201.3540 -7.8165
417.8295 197.1320 0.1495
375.6645 198.0905 0.1045
375.6465 198.1130 0.1495
375.6465 197.8265 -0.7505
408.9120 196.5920 -7.3120
417.3360 193.6160 0.2960
377.5760 194.4640 0.2960
377.4320 194.5440 0.2960
377.4320 193.9120 -1.6640
410.7480 194.2280 -6.5555
416.5465 192.8340 0.4365
380.4615 193.5235 0.5415
380.1255 193.6810 0.4365
380.1255 192.6655 -2.6835
412.4560 193.7760 -5.6160
415.4880 194.1680 0.5680
384.0480 194.6720 0.8080
383.4960 194.9120 0.5680
383.4960 193.4960 -3.7520
414.0000 194.7500 -4.5625
414.1875 197.0000 0.6875
388.0625 197.3125 1.0625
387.3125 197.6250 0.6875
387.3125 195.8125 -4.8125
415.3440 196.6640 -3.4640
412.6720 200.7120 0.7920
392.2320 200.8480 1.2720
391.3440 201.2080 0.7920
391.3440 199.0240 -5.8080
416.4520 199.0320 -2.3895
410.9685 204.6860 0.8785
396.2835 204.6815 1.4035
395.3595 205.0490 0.8785
395.3595 202.5395 -6.6815
417.2880 201.3680 -1.4080
409.1040 208.3040 0.9440
399.9440 208.2160 1.4240
399.1280 208.5360 0.9440
399.1280 205.7680 -7.3760
417.8160 203.1860 -0.5885
407.1055 210.9480 0.9855
402.9405 210.8545 1.3005
402.4185 211.0570 0.9855
402.4185 208.1185 -7.8345
